1.000000 0.725816 0.564656
1.000000 0.900469 0.590949
1.000000 0.722375 0.537163
1.000000 0.525221 0.781683
1.000000 0.618700 0.686199
1.000000 0.759582 0.848469
1.000000 0.901885 0.904699
1.000000 0.524825 0.576301
1.000000 0.816187 0.594148
1.000000 0.839098 0.985073
1.000000 0.456681 0.788575
1.000000 0.509270 0.789529
1.000000 0.699742 0.632150
1.000000 0.660550 0.486186
1.000000 0.677561 0.540699
1.000000 0.883064 0.604590
1.000000 0.373601 0.891510
1.000000 0.815674 0.781450
1.000000 0.652642 0.891962
1.000000 0.533834 0.940087
1.000000 0.495292 0.970699
1.000000 0.809391 0.990610
1.000000 0.954023 0.668787
1.000000 0.795851 0.702285
1.000000 0.719298 0.715193
1.000000 0.731366 0.707627
1.000000 0.557088 0.681713
1.000000 0.737623 0.930473
1.000000 0.659289 0.957180
1.000000 0.605723 0.483030
1.000000 0.834488 0.836833
1.000000 0.647872 0.990929
1.000000 0.758230 0.866305
1.000000 0.771610 0.516637
1.000000 0.785617 0.550339
1.000000 0.737956 0.907618
1.000000 0.714903 0.916871
1.000000 0.560176 0.602820
1.000000 0.498878 0.832896
1.000000 0.745539 0.788855
1.000000 0.626185 0.802594
1.000000 0.922171 0.799772
1.000000 0.773030 0.775670
1.000000 0.554008 0.518398
1.000000 0.851738 0.568370
1.000000 0.642776 0.980338
1.000000 0.444747 0.978412
1.000000 0.397609 0.938326
1.000000 0.552666 0.929435
1.000000 0.846848 0.737181
1.000000 0.721761 0.737864
1.000000 0.708151 0.907988
1.000000 0.711691 0.884721
1.000000 0.682215 0.627118
1.000000 0.496757 0.565331
1.000000 0.965944 0.952542
1.000000 0.557656 0.800567
1.000000 0.807576 0.911515
1.000000 0.922798 0.776831
1.000000 0.908763 0.722824
1.000000 0.632564 0.999499
1.000000 0.738079 0.863611
1.000000 0.399210 0.955573
1.000000 0.604816 0.775143
1.000000 0.463810 0.724291
1.000000 0.642815 0.984242
1.000000 0.965323 0.663192
1.000000 0.525386 0.695941
1.000000 0.672910 0.779743
1.000000 0.527026 0.650183
1.000000 0.736989 0.912818
1.000000 0.419983 0.752651
1.000000 0.931997 0.714362
1.000000 0.554073 0.696398
1.000000 0.756643 0.871648
1.000000 0.583944 0.511213
1.000000 0.951924 0.566633
1.000000 0.662292 0.721802
1.000000 0.626279 0.914433
1.000000 0.828614 0.865753
1.000000 0.348952 0.975364
1.000000 0.535069 0.712533
1.000000 0.647715 0.604190
1.000000 0.727043 0.851662
1.000000 0.934262 0.760444
1.000000 0.584539 0.581870
1.000000 0.900788 0.825873
1.000000 0.711177 0.619001
1.000000 0.753938 0.734049
1.000000 0.765269 0.504946
1.000000 0.745422 0.876697
1.000000 0.685775 0.671667
1.000000 0.720779 0.985005
1.000000 0.720849 0.761500
1.000000 0.561476 0.906126
1.000000 0.611923 0.558729
1.000000 0.903241 0.553400
1.000000 0.731089 0.729901
1.000000 0.572750 0.647308
1.000000 0.759817 0.620417
1.000000 0.574135 0.909562
1.000000 0.523950 0.704922
1.000000 0.714566 0.486857
1.000000 0.806792 0.712063
1.000000 0.632857 0.900380
1.000000 0.550080 0.660869
1.000000 0.851728 0.849638
1.000000 0.768380 0.851129
1.000000 0.794424 0.716131
1.000000 0.787174 0.689932
1.000000 0.449098 0.678274
1.000000 0.379884 0.856776
1.000000 0.945602 0.736235
1.000000 0.606116 0.519441
1.000000 0.752967 0.910918
1.000000 0.951403 0.717430
1.000000 0.366974 0.936428
1.000000 0.517204 0.520027
1.000000 0.502985 0.964531
1.000000 0.562950 0.912984
1.000000 0.653082 0.794902
1.000000 0.718992 0.930021
1.000000 0.603514 0.587318
1.000000 0.686593 0.481210
1.000000 0.562334 0.469432
1.000000 0.873357 0.944372
1.000000 0.669118 0.737122
1.000000 0.700410 0.489567
1.000000 0.876553 0.858854
1.000000 0.703558 0.891284
1.000000 0.555235 0.491011
1.000000 0.899922 0.947796
1.000000 0.626067 0.653234
1.000000 0.576819 0.533600
1.000000 0.707899 0.554071
1.000000 0.532247 0.616859
1.000000 0.638980 0.680277
1.000000 0.337214 0.977233
1.000000 0.937707 0.993055
1.000000 0.556831 0.565743
1.000000 0.629360 0.768257
1.000000 0.777610 0.791277
1.000000 0.724862 0.564877
1.000000 0.760119 0.557073
1.000000 0.803374 0.626783
1.000000 0.505629 0.749499
1.000000 0.520141 0.653007
1.000000 0.864363 0.993624
1.000000 0.610098 0.958087
1.000000 0.953853 0.677585
1.000000 0.922890 0.837515
1.000000 0.676117 0.964890
1.000000 0.607226 0.955595
1.000000 0.649070 0.790905
1.000000 0.853350 0.740985
1.000000 0.614861 0.568732
1.000000 0.802320 0.865456
1.000000 0.627794 0.541175
1.000000 0.554331 0.728563
1.000000 0.577995 0.579508
1.000000 0.656933 0.484327
1.000000 0.433040 0.998793
1.000000 0.370133 0.914518
1.000000 0.895649 0.869061
1.000000 0.924358 0.540249
1.000000 0.481315 0.899779
1.000000 0.577070 0.595295
1.000000 0.654894 0.863443
1.000000 0.684916 0.988238
1.000000 0.958187 0.701832
1.000000 0.945689 0.614289
1.000000 0.465613 0.901323
1.000000 0.718379 0.821980
1.000000 0.416041 0.881849
1.000000 0.591261 0.918288
1.000000 0.955909 0.971014
1.000000 0.493994 0.680404
1.000000 0.498290 0.841434
1.000000 0.616530 0.537144
1.000000 0.704559 0.904078
1.000000 0.340145 0.998814
1.000000 0.461846 0.766221
1.000000 0.709936 0.719201
1.000000 0.540027 0.792804
1.000000 0.649680 0.947277
1.000000 0.497419 0.694738
1.000000 0.735341 0.767524
1.000000 0.700238 0.689768
1.000000 0.873161 0.859164
1.000000 0.830119 0.964243
1.000000 0.524593 0.671700
1.000000 0.733784 0.841206
1.000000 0.622818 0.771242
1.000000 0.904069 0.649112
1.000000 0.807511 0.580529
1.000000 0.468875 0.741431
1.000000 0.545873 0.981042
1.000000 0.732116 0.737425
1.000000 0.452355 0.886617
1.000000 0.902883 0.991855
1.000000 0.690155 0.976535
1.000000 0.601815 0.581100
1.000000 0.585816 0.456908
1.000000 0.599690 0.746817
1.000000 0.417626 0.921518
1.000000 0.653488 0.477765
1.000000 0.702125 0.524516
1.000000 0.782601 0.585368
1.000000 0.634895 0.609669
1.000000 0.957779 0.753887
1.000000 0.614251 0.668347
1.000000 0.777958 0.696952
1.000000 0.674134 0.891894
1.000000 0.568095 0.616293
1.000000 0.614833 0.752185
1.000000 0.664266 0.650914
1.000000 0.924536 0.643617
1.000000 0.916176 0.865218
1.000000 0.816114 0.637286
1.000000 0.768595 0.953542
1.000000 0.812716 0.615849
1.000000 0.664449 0.978368
1.000000 0.391701 0.924366
1.000000 0.617503 0.642268
1.000000 0.637127 0.973879
1.000000 0.586176 0.962389
1.000000 0.885888 0.730830
1.000000 0.631174 0.488838
1.000000 0.676277 0.858149
1.000000 0.645433 0.748861
1.000000 0.716787 0.711318
1.000000 0.953084 0.590786
1.000000 0.626015 0.994035
1.000000 0.687629 0.690027
1.000000 0.806096 0.892980
1.000000 0.629394 0.630650
1.000000 0.823927 0.603306
1.000000 0.469473 0.987718
1.000000 0.529396 0.643064
1.000000 0.666304 0.606532
1.000000 0.530863 0.615871
1.000000 0.948307 0.798202
1.000000 0.762652 0.525754
1.000000 0.684487 0.563329
1.000000 0.517494 0.568842
1.000000 0.684944 0.715349
1.000000 0.543276 0.740781
1.000000 0.596493 0.978545
1.000000 0.959839 0.649444
1.000000 0.513086 0.988660
1.000000 0.765783 0.563079
1.000000 0.561761 0.513146
1.000000 0.820533 0.582284
1.000000 0.962825 0.613080
1.000000 0.783774 0.839508
1.000000 0.908110 0.628892
1.000000 0.935245 0.906945
1.000000 0.694200 0.990648
1.000000 0.676090 0.918616
1.000000 0.415860 0.774874
1.000000 0.906558 0.981165
1.000000 0.786864 0.967666
1.000000 0.611867 0.666194
1.000000 0.431318 0.747091
1.000000 0.834998 0.515710
1.000000 0.656345 0.739426
1.000000 0.494976 0.902537
1.000000 0.835197 0.983888
1.000000 0.555563 0.767558
1.000000 0.958102 0.618234
1.000000 0.659506 0.758983
1.000000 0.445090 0.956145
1.000000 0.776937 0.664113
1.000000 0.907149 0.867113
1.000000 0.677512 0.473379
1.000000 0.519489 0.800776
1.000000 0.835063 0.817224
1.000000 0.875741 0.759334
1.000000 0.865422 0.603914
1.000000 0.745937 0.965702
1.000000 0.471302 0.729374
1.000000 0.479108 0.854465
1.000000 0.594927 0.681490
1.000000 0.934827 0.880722
1.000000 0.643999 0.995502
1.000000 0.748372 0.842671
1.000000 0.676283 0.527275
1.000000 0.331430 0.968039
1.000000 0.835894 0.658529
1.000000 0.676163 0.569896
1.000000 0.631593 0.944872
1.000000 0.921801 0.801598
1.000000 0.428601 0.762295
1.000000 0.734728 0.959899
1.000000 0.760567 0.804886
1.000000 0.481191 0.731340
1.000000 0.686355 0.534324
1.000000 0.893454 0.800425
1.000000 0.956273 0.929226
1.000000 0.619475 0.724073
1.000000 0.675351 0.605761
1.000000 0.640029 0.977930
1.000000 0.563381 0.650362
1.000000 0.914143 0.629463
1.000000 0.886976 0.623907
1.000000 0.695213 0.821431
1.000000 0.796751 0.987529
1.000000 0.860562 0.932911
1.000000 0.799864 0.690917
1.000000 0.759785 0.796175
1.000000 0.532007 0.885041
1.000000 0.662298 0.834187
1.000000 0.881771 0.739070
1.000000 0.581854 0.720285
1.000000 0.732543 0.665231
1.000000 0.482957 0.723151
1.000000 0.510668 0.581968
1.000000 0.488267 0.997400
1.000000 0.915794 0.857161
1.000000 0.512994 0.695259
1.000000 0.568746 0.894059
1.000000 0.891061 0.952162
1.000000 0.879604 0.698872
1.000000 0.886746 0.926620
1.000000 0.595729 0.733957
1.000000 0.795392 0.699651
1.000000 0.610179 0.786424
1.000000 0.620971 0.841086
1.000000 0.740025 0.712954
1.000000 0.853795 0.631308
1.000000 0.884578 0.871798
1.000000 0.963540 0.699162
1.000000 0.630167 0.933719
1.000000 0.963868 0.754398
1.000000 0.772134 0.667337
1.000000 0.853827 0.800294
1.000000 0.554707 0.863175
1.000000 0.472842 0.982116
1.000000 0.641903 0.702889
1.000000 0.554280 0.744080
1.000000 0.581740 0.526256
1.000000 0.785091 0.779704
1.000000 0.723638 0.631345
1.000000 0.785014 0.805576
1.000000 0.771561 0.845275
1.000000 0.766363 0.792230
1.000000 0.657095 0.932152
1.000000 0.545132 0.628494
1.000000 0.818862 0.540548
1.000000 0.845475 0.518011
1.000000 0.723809 0.897155
1.000000 0.870799 0.681237
1.000000 0.765548 0.544756
1.000000 0.846154 0.643111
1.000000 0.588582 0.900541
1.000000 0.505643 0.839837
1.000000 0.927465 0.539363
1.000000 0.449746 0.762454
1.000000 0.414092 0.918794
1.000000 0.913765 0.867143
1.000000 0.734082 0.579173
1.000000 0.702893 0.797867
1.000000 0.417726 0.877227
1.000000 0.635035 0.496659
1.000000 0.569654 0.703232
1.000000 0.755224 0.492722
1.000000 0.787028 0.745044
1.000000 0.965492 0.797340
1.000000 0.431068 0.774900
1.000000 0.498497 0.914510
1.000000 0.395357 0.973085
1.000000 0.478066 0.853677
1.000000 0.579147 0.718033
1.000000 0.455848 0.759445
1.000000 0.404282 0.827624
1.000000 0.481190 0.577675
1.000000 0.459604 0.854221
1.000000 0.862002 0.751208
1.000000 0.629649 0.567953
1.000000 0.702341 0.658888
1.000000 0.924860 0.693725
1.000000 0.757951 0.832253
1.000000 0.565405 0.610794
1.000000 0.946153 0.579329
1.000000 0.492226 0.773282
1.000000 0.895049 0.938583
1.000000 0.332221 0.984610
1.000000 0.929864 0.844441
1.000000 0.641256 0.807024
1.000000 0.549445 0.816900
1.000000 0.582182 0.557412
1.000000 0.623516 0.609560
1.000000 0.475678 0.969350
1.000000 0.668386 0.828680
1.000000 0.613347 0.818675
1.000000 0.803830 0.539331
1.000000 0.866920 0.793395
1.000000 0.761807 0.766499
1.000000 0.860691 0.990407
1.000000 0.576764 0.786037
1.000000 0.842914 0.824529
1.000000 0.664856 0.520071
1.000000 0.956318 0.707674
1.000000 0.870557 0.958173
1.000000 0.736251 0.873772
1.000000 0.571260 0.565416
1.000000 0.920738 0.690238
1.000000 0.652988 0.682408
1.000000 0.873832 0.943398
1.000000 0.529524 0.900663
1.000000 0.513694 0.740570
1.000000 0.857228 0.608261
1.000000 0.818608 0.645415
1.000000 0.700701 0.968617
1.000000 0.960302 0.801243
1.000000 0.555135 0.624058
1.000000 0.639833 0.817846
1.000000 0.707537 0.979302
1.000000 0.623668 0.966498
1.000000 0.508653 0.863591
1.000000 0.814306 0.795757
1.000000 0.827350 0.745760
1.000000 0.876078 0.943959
1.000000 0.759711 0.881807
1.000000 0.660545 0.482003
1.000000 0.850857 0.855238
1.000000 0.613294 0.851593
1.000000 0.807682 0.973717
1.000000 0.834647 0.958019
1.000000 0.541181 0.554364
1.000000 0.792873 0.841256
1.000000 0.916732 0.909622
1.000000 0.757387 0.821401
1.000000 0.542801 0.770844
1.000000 0.495354 0.959329
1.000000 0.633744 0.952078
1.000000 0.603050 0.483337
1.000000 0.433672 0.837331
1.000000 0.622302 0.732726
1.000000 0.852740 0.656518
1.000000 0.935981 0.755572
1.000000 0.588441 0.787978
1.000000 0.648021 0.592946
1.000000 0.853341 0.939077
1.000000 0.586872 0.786102
1.000000 0.647810 0.537659
1.000000 0.692631 0.624637
1.000000 0.357906 0.980979
1.000000 0.799990 0.619995
1.000000 0.895791 0.838276
1.000000 0.611610 0.599515
1.000000 0.544668 0.768367
1.000000 0.472642 0.948988
1.000000 0.911664 0.734298
1.000000 0.562582 0.525889
1.000000 0.648436 0.665808
1.000000 0.440483 0.826212
1.000000 0.476501 0.969810
1.000000 0.677843 0.494394
1.000000 0.483782 0.622690
1.000000 0.896045 0.755772
1.000000 0.498236 0.587907
1.000000 0.951447 0.719502
1.000000 0.601135 0.893468
1.000000 0.894970 0.759945
1.000000 0.944655 0.966629
1.000000 0.932882 0.692219
1.000000 0.438800 0.905395
1.000000 0.472653 0.675984
1.000000 0.732293 0.765388
1.000000 0.744869 0.669894
1.000000 0.825006 0.927730
1.000000 0.748410 0.919914
1.000000 0.664402 0.991738
1.000000 0.384848 0.879801
1.000000 0.430267 0.923242
1.000000 0.643983 0.966285
1.000000 0.542220 0.863773
1.000000 0.606323 0.677428
1.000000 0.831585 0.606897
1.000000 0.459438 0.648527
1.000000 0.400245 0.854071
1.000000 0.537496 0.697118
1.000000 0.336727 0.995119
1.000000 0.770625 0.622756
1.000000 0.562753 0.864192
1.000000 0.793986 0.972895
1.000000 0.610089 0.614228
1.000000 0.916363 0.977567
1.000000 0.965326 0.845678
1.000000 0.506575 0.911549
1.000000 0.695941 0.939465
1.000000 0.768399 0.877173
1.000000 0.934322 0.654831
1.000000 0.891817 0.718092
1.000000 0.641253 0.763441
1.000000 0.833362 0.982020
1.000000 0.927375 0.729384
1.000000 0.754869 0.616299
1.000000 0.805183 0.688250
1.000000 0.609400 0.478164
1.000000 0.926359 0.605731
1.000000 0.667430 0.766069
1.000000 0.687870 0.854317
1.000000 0.831237 0.938764
1.000000 0.510184 0.805750
1.000000 0.434721 0.936159
1.000000 0.537920 0.467253
1.000000 0.793152 0.767922
1.000000 0.539169 0.857185
1.000000 0.740621 0.707419
1.000000 0.665998 0.471789
1.000000 0.832658 0.575808
1.000000 0.742981 0.702424
1.000000 0.693924 0.483794
1.000000 0.493352 0.695749
1.000000 0.769754 0.668227
1.000000 0.504955 0.762878
1.000000 0.650719 0.479077
1.000000 0.813636 0.917718
1.000000 0.788575 0.916693
1.000000 0.812289 0.780796
1.000000 0.962900 0.956907
1.000000 0.488634 0.715473
1.000000 0.621685 0.486177
1.000000 0.652740 0.553958
1.000000 0.873532 0.533972
1.000000 0.924156 0.784987
1.000000 0.623420 0.941438
1.000000 0.906214 0.837909
1.000000 0.902536 0.846986
1.000000 0.475202 0.675804
1.000000 0.905735 0.902795
1.000000 0.681061 0.663052
1.000000 0.748758 0.740479
1.000000 0.665743 0.530204
1.000000 0.690452 0.615511
1.000000 0.537265 0.679244
1.000000 0.957731 0.775928
1.000000 0.823771 0.721201
1.000000 0.573822 0.999462
1.000000 0.920398 0.871596
1.000000 0.754293 0.681437
1.000000 0.601311 0.772549
1.000000 0.797066 0.688797
1.000000 0.860658 0.616218
1.000000 0.762087 0.769377
1.000000 0.371106 0.927611
1.000000 0.899105 0.617518
1.000000 0.415697 0.754816
1.000000 0.719676 0.731743
1.000000 0.950022 0.639012
1.000000 0.552025 0.970726
1.000000 0.879728 0.598442
1.000000 0.515560 0.616804
1.000000 0.516112 0.799306
1.000000 0.929022 0.833276
1.000000 0.402989 0.888603
1.000000 0.675910 0.505030
1.000000 0.673876 0.978189
1.000000 0.433974 0.851175
1.000000 0.725996 0.587640
1.000000 0.656486 0.514558
1.000000 0.599141 0.487448
1.000000 0.731578 0.972626
1.000000 0.574585 0.789224
1.000000 0.633984 0.621162
1.000000 0.763667 0.981757
1.000000 0.588700 0.805486
1.000000 0.508092 0.629891
1.000000 0.561815 0.754255
1.000000 0.823173 0.730074
1.000000 0.878612 0.769437
1.000000 0.788934 0.725466
1.000000 0.673859 0.930061
1.000000 0.403329 0.938035
1.000000 0.450450 0.775211
1.000000 0.431886 0.820661
1.000000 0.613025 0.702963
1.000000 0.434098 0.920412
1.000000 0.537990 0.560359
1.000000 0.671569 0.628498
1.000000 0.800748 0.942850
1.000000 0.727499 0.726785
1.000000 0.505451 0.713409
1.000000 0.603308 0.775447
1.000000 0.473466 0.859641
1.000000 0.844723 0.852980
1.000000 0.611356 0.968599
1.000000 0.385391 0.980623
1.000000 0.601220 0.552754
1.000000 0.791654 0.766995
1.000000 0.629206 0.753558
1.000000 0.960382 0.645961
1.000000 0.939525 0.846283
1.000000 0.793359 0.624116
1.000000 0.962078 0.880691
1.000000 0.531559 0.523754
1.000000 0.652668 0.574062
1.000000 0.792501 0.636725
1.000000 0.759294 0.838566
1.000000 0.698024 0.628142
1.000000 0.672874 0.481960
1.000000 0.589148 0.887069
1.000000 0.797954 0.523218
1.000000 0.937495 0.791379
1.000000 0.720297 0.621301
1.000000 0.759670 0.982500
1.000000 0.922754 0.600562
1.000000 0.375689 0.913658
1.000000 0.958434 0.929725
1.000000 0.550633 0.713656
1.000000 0.586429 0.869373
1.000000 0.482532 0.774523
1.000000 0.747225 0.848447
1.000000 0.658872 0.690136
1.000000 0.577705 0.844404
1.000000 0.627908 0.546969
1.000000 0.878513 0.752198
1.000000 0.913312 0.749203
1.000000 0.873472 0.967822
1.000000 0.586714 0.785578
1.000000 0.807353 0.603631
1.000000 0.649383 0.603138
1.000000 0.541172 0.733898
1.000000 0.468635 0.848626
1.000000 0.671112 0.910146
1.000000 0.557342 0.633059
1.000000 0.721477 0.761119
1.000000 0.600191 0.952875
1.000000 0.920592 0.781893
1.000000 0.672734 0.911143
1.000000 0.654180 0.577457
1.000000 0.493141 0.928199
1.000000 0.554120 0.604017
1.000000 0.691973 0.618092
1.000000 0.685654 0.749806
1.000000 0.802479 0.546463
1.000000 0.905577 0.592217
1.000000 0.718679 0.984235
1.000000 0.878973 0.851036
1.000000 0.532126 0.830499
1.000000 0.576588 0.468258
1.000000 0.676967 0.554759
1.000000 0.492588 0.643040
1.000000 0.736476 0.538813
1.000000 0.508197 0.774149
1.000000 0.901937 0.672502
1.000000 0.506540 0.571867
1.000000 0.942784 0.861798
1.000000 0.526056 0.867459
1.000000 0.742863 0.951703
1.000000 0.931247 0.668881
1.000000 0.604567 0.928279
1.000000 0.854926 0.995790
1.000000 0.793581 0.720054
1.000000 0.877830 0.681333
1.000000 0.585783 0.697733
1.000000 0.897152 0.746338
1.000000 0.490004 0.678447
1.000000 0.460356 0.780172
1.000000 0.747880 0.778320
1.000000 0.479200 0.684849
1.000000 0.889913 0.668358
1.000000 0.637706 0.820315
1.000000 0.503361 0.906720
1.000000 0.876016 0.803337
1.000000 0.364440 0.965108
1.000000 0.768960 0.666025
1.000000 0.901146 0.926274
1.000000 0.588339 0.692984
1.000000 0.952580 0.589500
1.000000 0.806505 0.597224
1.000000 0.777535 0.756510
1.000000 0.673945 0.616587
1.000000 0.542341 0.638114
1.000000 0.655044 0.757220
1.000000 0.945066 0.876078
1.000000 0.455191 0.831249
1.000000 0.811940 0.805364
1.000000 0.474537 0.970254
1.000000 0.738325 0.991101
1.000000 0.752508 0.573261
1.000000 0.411812 0.764130
1.000000 0.736296 0.571289
1.000000 0.429786 0.966796
1.000000 0.805906 0.776126
1.000000 0.464844 0.732106
1.000000 0.957836 0.725869
1.000000 0.619711 0.715425
1.000000 0.636317 0.731056
1.000000 0.594442 0.518239
1.000000 0.682175 0.842016
1.000000 0.612576 0.899974
1.000000 0.704247 0.930272
1.000000 0.471535 0.785826
1.000000 0.488746 0.866797
1.000000 0.942462 0.820414
1.000000 0.695917 0.866970
1.000000 0.423526 0.728664
1.000000 0.914085 0.811610
1.000000 0.339531 0.954414
1.000000 0.815435 0.768962
1.000000 0.567985 0.445463
1.000000 0.826235 0.518122
1.000000 0.786198 0.829681
1.000000 0.523425 0.633965
1.000000 0.837888 0.627650
1.000000 0.631976 0.955160
1.000000 0.841340 0.896787
1.000000 0.823962 0.965054
1.000000 0.670102 0.715266
1.000000 0.514053 0.578366
1.000000 0.450161 0.881687
1.000000 0.917878 0.954269
1.000000 0.953692 0.681974
1.000000 0.944329 0.775156
1.000000 0.738524 0.683900
1.000000 0.964740 0.878621
1.000000 0.487623 0.656602
1.000000 0.805951 0.581617
1.000000 0.523659 0.864374
1.000000 0.549059 0.842025
1.000000 0.445739 0.733771
1.000000 0.734718 0.592421
1.000000 0.748145 0.741131
1.000000 0.901074 0.887320
1.000000 0.900396 0.835868
1.000000 0.713780 0.927727
1.000000 0.404630 0.833435
1.000000 0.524146 0.627194
1.000000 0.516389 0.933180
1.000000 0.432044 0.897666
1.000000 0.656743 0.994493
1.000000 0.613877 0.499791
1.000000 0.408937 0.849544
1.000000 0.723995 0.660069
1.000000 0.685468 0.827020
1.000000 0.680628 0.923695
1.000000 0.646926 0.896049
1.000000 0.721574 0.622050
1.000000 0.346795 0.989351
1.000000 0.710115 0.700820
1.000000 0.940668 0.667236
1.000000 0.714904 0.570818
1.000000 0.875847 0.637708
1.000000 0.871220 0.965375
1.000000 0.727724 0.546419
1.000000 0.643677 0.834297
1.000000 0.867593 0.886425
1.000000 0.656318 0.894571
1.000000 0.955518 0.627641
1.000000 0.781907 0.786677
1.000000 0.598649 0.659459
1.000000 0.964195 0.762270
1.000000 0.810195 0.945573
1.000000 0.923220 0.905168
1.000000 0.906350 0.555529
1.000000 0.678371 0.859253
1.000000 0.807642 0.701446
1.000000 0.732950 0.763418
1.000000 0.396633 0.970991
1.000000 0.878501 0.663931
1.000000 0.779246 0.565672
1.000000 0.714567 0.751491
1.000000 0.614164 0.713224
1.000000 0.611257 0.871027
1.000000 0.546861 0.660584
1.000000 0.789636 0.819392
1.000000 0.480715 0.677968
1.000000 0.623765 0.510348
1.000000 0.899875 0.935544
1.000000 0.912552 0.947285
1.000000 0.933713 0.736670
1.000000 0.724023 0.741620
1.000000 0.607036 0.534337
1.000000 0.674314 0.678203
1.000000 0.816065 0.939041
1.000000 0.618076 0.506616
1.000000 0.786338 0.583357
1.000000 0.617556 0.673949
1.000000 0.740394 0.948001
1.000000 0.614600 0.900973
1.000000 0.717182 0.806273
1.000000 0.946720 0.832739
1.000000 0.914765 0.775829
1.000000 0.866586 0.630513
1.000000 0.920922 0.648641
1.000000 0.908571 0.921011
1.000000 0.613712 0.920048
1.000000 0.502097 0.666565
1.000000 0.707530 0.656057
1.000000 0.932234 0.996680
1.000000 0.923133 0.925041
1.000000 0.662974 0.966111
1.000000 0.735845 0.754847
1.000000 0.466142 0.617947
1.000000 0.839112 0.528888
1.000000 0.687323 0.732947
1.000000 0.522328 0.688329
1.000000 0.907871 0.934548
1.000000 0.794101 0.597603
1.000000 0.939447 0.700168
1.000000 0.614548 0.763281
1.000000 0.576145 0.739449
1.000000 0.912807 0.568523
1.000000 0.352228 0.912493
1.000000 0.653177 0.520554
1.000000 0.869949 0.552003
1.000000 0.614965 0.680057
1.000000 0.875041 0.627724
1.000000 0.517708 0.896787
1.000000 0.921240 0.755534
1.000000 0.533889 0.562933
1.000000 0.566312 0.457904
1.000000 0.402898 0.890568
1.000000 0.563894 0.801767
1.000000 0.752502 0.957008
1.000000 0.636256 0.771307
1.000000 0.889661 0.952987
1.000000 0.772989 0.744368
1.000000 0.522192 0.481818
1.000000 0.463224 0.960747
1.000000 0.687168 0.976375
1.000000 0.461077 0.934825
1.000000 0.558434 0.659646
1.000000 0.842285 0.995755
1.000000 0.826437 0.821993
1.000000 0.501314 0.748372
1.000000 0.851245 0.810367
1.000000 0.561408 0.590314
1.000000 0.428081 0.829413
1.000000 0.526230 0.978791
1.000000 0.641439 0.559719
1.000000 0.568900 0.489965
1.000000 0.706077 0.832389
1.000000 0.559524 0.531274
1.000000 0.855010 0.557602
1.000000 0.626719 0.529651
1.000000 0.847158 0.867845
1.000000 0.786491 0.724780
1.000000 0.956237 0.558628
1.000000 0.649079 0.955560
1.000000 0.538599 0.786250
1.000000 0.661039 0.618618
1.000000 0.570779 0.627952
1.000000 0.828683 0.933945
1.000000 0.350111 0.935880
1.000000 0.521791 0.726524
1.000000 0.669819 0.868423
1.000000 0.681581 0.918764
1.000000 0.889092 0.690611
1.000000 0.434112 0.784672
1.000000 0.845804 0.992072
1.000000 0.669629 0.894641
1.000000 0.525599 0.761212
1.000000 0.537706 0.855658
1.000000 0.735647 0.631799
1.000000 0.782374 0.584376
1.000000 0.586052 0.886795
1.000000 0.923411 0.933679
1.000000 0.749240 0.810644
1.000000 0.524212 0.536722
1.000000 0.686641 0.848466
1.000000 0.797339 0.904419
1.000000 0.927386 0.546608
1.000000 0.502528 0.984893
1.000000 0.606228 0.518380
1.000000 0.754974 0.720644
1.000000 0.465305 0.614076
1.000000 0.856435 0.555425
1.000000 0.670501 0.537034
1.000000 0.650141 0.923581
1.000000 0.823663 0.593488
1.000000 0.484388 0.850609
1.000000 0.455495 0.979051
1.000000 0.817480 0.943848
1.000000 0.902353 0.563998
1.000000 0.933751 0.749783
1.000000 0.908236 0.808564
1.000000 0.541395 0.488825
1.000000 0.527614 0.922306
1.000000 0.825291 0.733621
1.000000 0.486313 0.623331
1.000000 0.963352 0.958987
1.000000 0.494295 0.984054
1.000000 0.465026 0.919303
1.000000 0.532144 0.581578
1.000000 0.445469 0.809656
1.000000 0.781430 0.730308
1.000000 0.494858 0.895835
1.000000 0.730995 0.703570
1.000000 0.533219 0.505833
1.000000 0.639147 0.562079
1.000000 0.573843 0.591309
1.000000 0.934794 0.757314
1.000000 0.718845 0.740394
1.000000 0.619190 0.800950
1.000000 0.385332 0.914047
1.000000 0.910055 0.577810
1.000000 0.882018 0.803525
1.000000 0.525411 0.711134
1.000000 0.502912 0.729358
1.000000 0.932545 0.900096
1.000000 0.832854 0.652073
1.000000 0.533153 0.747151
1.000000 0.901351 0.901738
1.000000 0.502825 0.650264
1.000000 0.433128 0.722050
1.000000 0.833000 0.810248
1.000000 0.674604 0.807462
1.000000 0.773113 0.988764
1.000000 0.922294 0.571467
1.000000 0.916803 0.945655
1.000000 0.682150 0.879559
1.000000 0.893965 0.941375
1.000000 0.929412 0.648242
1.000000 0.885763 0.808268
1.000000 0.476311 0.697215
1.000000 0.546970 0.491413
1.000000 0.681134 0.514128
1.000000 0.773564 0.543690
1.000000 0.677472 0.505043
1.000000 0.467425 0.949943
1.000000 0.639642 0.696917
1.000000 0.917743 0.852192
1.000000 0.629166 0.824471
1.000000 0.549948 0.974316
1.000000 0.762755 0.709077
1.000000 0.427870 0.922613
1.000000 0.603331 0.658278
1.000000 0.827784 0.688780
1.000000 0.822753 0.975872
1.000000 0.651323 0.748204
1.000000 0.698326 0.752204
1.000000 0.752015 0.792719
1.000000 0.681113 0.476519
1.000000 0.480950 0.721238
1.000000 0.733406 0.520880
1.000000 0.878304 0.924658
1.000000 0.651457 0.963773
1.000000 0.345679 0.985674
1.000000 0.363218 0.993015
1.000000 0.851059 0.925340
1.000000 0.408984 0.981073
1.000000 0.677129 0.683614
1.000000 0.935859 0.566405
1.000000 0.807688 0.983517
1.000000 0.439102 0.853255
1.000000 0.620873 0.699751
1.000000 0.471014 0.966203
1.000000 0.570642 0.793969
1.000000 0.572032 0.645274
1.000000 0.660098 0.739174
1.000000 0.439823 0.712365
1.000000 0.741327 0.759584
1.000000 0.814684 0.941197
1.000000 0.953163 0.638434
1.000000 0.582163 0.711272
1.000000 0.854246 0.894750
1.000000 0.571575 0.912508
1.000000 0.484273 0.613918
1.000000 0.825210 0.964124
1.000000 0.622129 0.916141
1.000000 0.776287 0.726689
1.000000 0.963325 0.760506
1.000000 0.500461 0.833862
1.000000 0.933768 0.976928
1.000000 0.899962 0.675559
1.000000 0.414453 0.845078
1.000000 0.486831 0.759622
1.000000 0.654186 0.590567
1.000000 0.888379 0.998706
1.000000 0.590129 0.493355
1.000000 0.923438 0.769084
1.000000 0.705925 0.658509
1.000000 0.615085 0.735560
1.000000 0.779556 0.972623
1.000000 0.730554 0.585237
1.000000 0.845663 0.750783
1.000000 0.720368 0.731413
1.000000 0.844410 0.917885
1.000000 0.732856 0.540189
1.000000 0.608327 0.670971
1.000000 0.485635 0.920465
1.000000 0.682754 0.669882
1.000000 0.928481 0.596036
1.000000 0.611522 0.842785
1.000000 0.665045 0.720814
1.000000 0.515396 0.805691
1.000000 0.464496 0.824487
1.000000 0.904839 0.929166
1.000000 0.920488 0.847022
1.000000 0.794466 0.869808
1.000000 0.613163 0.617753
1.000000 0.428024 0.820594
1.000000 0.821233 0.838108
1.000000 0.654014 0.528141
1.000000 0.754060 0.942049
1.000000 0.964888 0.893404
1.000000 0.809780 0.948156
1.000000 0.732726 0.686161
1.000000 0.871571 0.722004
1.000000 0.751433 0.870248
1.000000 0.681473 0.874607
1.000000 0.621867 0.733651
1.000000 0.914600 0.770100
1.000000 0.634262 0.933696
1.000000 0.954166 0.978066
1.000000 0.741458 0.937089
1.000000 0.670629 0.633768
1.000000 0.873396 0.754506
1.000000 0.820608 0.966611
1.000000 0.807206 0.770232
1.000000 0.505319 0.543119
1.000000 0.570455 0.693540
1.000000 0.863340 0.548826
1.000000 0.776149 0.927451
1.000000 0.695233 0.888651
1.000000 0.773065 0.966333
1.000000 0.677589 0.969728
1.000000 0.927700 0.683460
1.000000 0.455331 0.746316
1.000000 0.717127 0.696841
1.000000 0.668117 0.619273
1.000000 0.957148 0.823347
1.000000 0.945546 0.981882
1.000000 0.801577 0.601704
1.000000 0.465235 0.975156
1.000000 0.615797 0.793314
1.000000 0.801095 0.979384
1.000000 0.476988 0.860389
1.000000 0.601839 0.712034
1.000000 0.545713 0.801477
1.000000 0.517373 0.559481
1.000000 0.927148 0.990336
1.000000 0.579744 0.926178
1.000000 0.432969 0.763346
1.000000 0.676084 0.670178
1.000000 0.923541 0.980855
1.000000 0.732227 0.764823
1.000000 0.595082 0.978731
1.000000 0.584904 0.991250
1.000000 0.882803 0.611920
1.000000 0.425850 0.806527
1.000000 0.955627 0.976270
1.000000 0.687771 0.990682
1.000000 0.607721 0.891502
1.000000 0.660143 0.667376
1.000000 0.488613 0.694354
1.000000 0.513550 0.945563
1.000000 0.666875 0.988485
1.000000 0.729808 0.862286
1.000000 0.475942 0.963798
1.000000 0.711846 0.568227
1.000000 0.677872 0.530953
1.000000 0.638921 0.896120
1.000000 0.878662 0.774569
1.000000 0.798443 0.534508
1.000000 0.734610 0.545450
1.000000 0.545885 0.624141
1.000000 0.726961 0.858238
1.000000 0.414230 0.907987
1.000000 0.504824 0.620247
1.000000 0.611009 0.898950
1.000000 0.638134 0.693088
1.000000 0.810487 0.830008
1.000000 0.439480 0.978100
1.000000 0.655367 0.543016
1.000000 0.839978 0.688132
1.000000 0.497320 0.786267
1.000000 0.524536 0.763069
1.000000 0.699361 0.975995
1.000000 0.496204 0.896168
1.000000 0.900804 0.938913
1.000000 0.522679 0.881246
1.000000 0.779096 0.783649
1.000000 0.893198 0.552583
1.000000 0.543732 0.861158
1.000000 0.744858 0.799157
1.000000 0.689049 0.959626
1.000000 0.613037 0.660069
1.000000 0.674450 0.839412
1.000000 0.482187 0.588576
1.000000 0.876238 0.692022
1.000000 0.543573 0.719121
1.000000 0.725327 0.603428
1.000000 0.334178 0.967721
1.000000 0.509211 0.963113
1.000000 0.846419 0.837204
1.000000 0.962651 0.754642
1.000000 0.931155 0.726439
1.000000 0.892675 0.709350
1.000000 0.598482 0.648927
1.000000 0.602604 0.524537
1.000000 0.898476 0.891170
1.000000 0.491820 0.764999
1.000000 0.657099 0.978387
1.000000 0.426175 0.988327
1.000000 0.395549 0.905983
1.000000 0.730173 0.702225
1.000000 0.867405 0.606966
1.000000 0.892670 0.687804
1.000000 0.581431 0.520264
1.000000 0.445558 0.732443
1.000000 0.616330 0.842129
1.000000 0.670285 0.693550
1.000000 0.754954 0.651983
1.000000 0.426399 0.733235
1.000000 0.937111 0.749744
1.000000 0.559296 0.485455
1.000000 0.831292 0.583502
1.000000 0.441533 0.761884
1.000000 0.701870 0.751432
1.000000 0.510675 0.835275
1.000000 0.681305 0.617731
1.000000 0.702089 0.505447
1.000000 0.619097 0.834568
1.000000 0.740683 0.979829
1.000000 0.832409 0.836262
1.000000 0.696911 0.915178
1.000000 0.957823 0.874642
1.000000 0.702046 0.545655
1.000000 0.846407 0.929383
1.000000 0.667030 0.986431
1.000000 0.603679 0.930767
1.000000 0.846975 0.584813
1.000000 0.557976 0.939625
1.000000 0.934719 0.849384
1.000000 0.501093 0.827620
1.000000 0.619369 0.610347
1.000000 0.678445 0.535937
1.000000 0.681831 0.881458
1.000000 0.900998 0.939968
1.000000 0.887670 0.700217
1.000000 0.541755 0.614414
1.000000 0.862685 0.991793
1.000000 0.468763 0.647306
1.000000 0.741883 0.793874
1.000000 0.909446 0.639701
1.000000 0.613535 0.944262
1.000000 0.645047 0.818223
1.000000 0.957517 0.548952
1.000000 0.699592 0.718905
1.000000 0.509691 0.795382
1.000000 0.771508 0.746317
1.000000 0.582788 0.734388
1.000000 0.487209 0.772419
1.000000 0.467636 0.995955
1.000000 0.703180 0.985860
1.000000 0.429244 0.749252
1.000000 0.659050 0.893608
1.000000 0.949847 0.631928
1.000000 0.766783 0.516620
1.000000 0.555153 0.928301
1.000000 0.610043 0.533278
1.000000 0.958799 0.612360
1.000000 0.732982 0.939900
1.000000 0.797724 0.754991
1.000000 0.480421 0.717819
1.000000 0.400435 0.947544
1.000000 0.808050 0.523925
1.000000 0.926936 0.984904
1.000000 0.395249 0.806795
1.000000 0.428263 0.819648
1.000000 0.564935 0.957237
1.000000 0.801561 0.935239
1.000000 0.529638 0.858021
1.000000 0.896501 0.866556
1.000000 0.582168 0.925476
1.000000 0.736773 0.521946
1.000000 0.542724 0.836725
1.000000 0.664640 0.908599
1.000000 0.531756 0.702832
1.000000 0.477377 0.981450
1.000000 0.520973 0.837385
1.000000 0.902017 0.974692
1.000000 0.525133 0.534808
1.000000 0.488142 0.799259
1.000000 0.647348 0.561542
1.000000 0.565971 0.872439
1.000000 0.438068 0.809973
1.000000 0.596225 0.627334
1.000000 0.697353 0.703221
1.000000 0.887181 0.537715
1.000000 0.894806 0.711141
1.000000 0.696885 0.607544
1.000000 0.915814 0.816548
1.000000 0.677141 0.920595
1.000000 0.556150 0.524365
1.000000 0.503132 0.680619
1.000000 0.545112 0.515088
1.000000 0.647499 0.966524
1.000000 0.596146 0.769365
1.000000 0.450210 0.858735
1.000000 0.497113 0.741057
1.000000 0.555217 0.613083
1.000000 0.880088 0.706155
1.000000 0.477494 0.924402
1.000000 0.420565 0.932031
1.000000 0.759220 0.697609
1.000000 0.756503 0.885899
1.000000 0.496475 0.952272
1.000000 0.920575 0.692711
1.000000 0.449711 0.769216
1.000000 0.618639 0.668742
1.000000 0.543487 0.700990
1.000000 0.656721 0.564874
1.000000 0.466327 0.675373
1.000000 0.708332 0.507236
1.000000 0.883468 0.574163
1.000000 0.894472 0.734398
1.000000 0.757246 0.814484
1.000000 0.460885 0.724445
1.000000 0.700980 0.601471
1.000000 0.944252 0.825034
1.000000 0.557395 0.652739
1.000000 0.562913 0.482712
1.000000 0.902730 0.760059
1.000000 0.906886 0.624031
1.000000 0.639284 0.836010
1.000000 0.904741 0.742160
1.000000 0.629093 0.711442
1.000000 0.807876 0.977546
1.000000 0.677086 0.553762
1.000000 0.479353 0.601618
1.000000 0.579382 0.766149
1.000000 0.692308 0.694894
1.000000 0.708569 0.917942
1.000000 0.624681 0.877784
1.000000 0.909874 0.948759
1.000000 0.482441 0.756105
1.000000 0.760592 0.813504
1.000000 0.946653 0.887121
1.000000 0.432721 0.969887
1.000000 0.600630 0.679817
1.000000 0.783689 0.778863
1.000000 0.638524 0.968477
1.000000 0.703906 0.824624
1.000000 0.769260 0.584777
1.000000 0.787325 0.914641
1.000000 0.949520 0.874985
1.000000 0.505093 0.536858
1.000000 0.572373 0.700798
1.000000 0.883540 0.726957
1.000000 0.570478 0.923557
1.000000 0.529929 0.622107
1.000000 0.518562 0.958147
1.000000 0.600158 0.911155
1.000000 0.610508 0.724771
1.000000 0.586035 0.822462
1.000000 0.941457 0.636413
1.000000 0.643760 0.714764
1.000000 0.497416 0.847019
1.000000 0.789239 0.748195
1.000000 0.689505 0.907239
1.000000 0.728774 0.756156
1.000000 0.587554 0.615751
1.000000 0.674641 0.833746
1.000000 0.588529 0.496774
1.000000 0.643092 0.767576
1.000000 0.885782 0.566723
1.000000 0.881353 0.564801
1.000000 0.527498 0.521930
1.000000 0.860188 0.757138
1.000000 0.859572 0.594552
1.000000 0.925719 0.592654
1.000000 0.724713 0.719635
1.000000 0.847091 0.837246
1.000000 0.500038 0.879792
1.000000 0.619563 0.634735
1.000000 0.608849 0.618543
1.000000 0.772743 0.748681
1.000000 0.800142 0.614284
1.000000 0.561344 0.779827
1.000000 0.606497 0.748511
1.000000 0.824270 0.933393
1.000000 0.426208 0.828779
1.000000 0.401676 0.858702
1.000000 0.770090 0.779615
1.000000 0.727295 0.492937
1.000000 0.803853 0.554754
1.000000 0.564703 0.479164
1.000000 0.770108 0.812992
1.000000 0.675527 0.502970
1.000000 0.546877 0.496027
1.000000 0.956880 0.744589
1.000000 0.812587 0.831438
1.000000 0.726291 0.883031
1.000000 0.661835 0.656707
1.000000 0.876873 0.582213
1.000000 0.946656 0.947703
1.000000 0.742112 0.642551
1.000000 0.721727 0.846008
1.000000 0.587468 0.566109
1.000000 0.755078 0.753339
1.000000 0.503774 0.946325
1.000000 0.607129 0.568146
1.000000 0.635596 0.560336
1.000000 0.653123 0.938973
1.000000 0.556226 0.590494
1.000000 0.561544 0.507907
1.000000 0.586864 0.936770
1.000000 0.686837 0.723659
1.000000 0.792711 0.758539
1.000000 0.627303 0.959374
1.000000 0.632044 0.894040
1.000000 0.586390 0.715135
1.000000 0.697213 0.878398
1.000000 0.527568 0.563692
1.000000 0.789667 0.744679
1.000000 0.648517 0.571884
1.000000 0.957488 0.830032
1.000000 0.704836 0.813334
1.000000 0.471100 0.726511
1.000000 0.592366 0.731891
1.000000 0.507214 0.595088
1.000000 0.712058 0.884924
1.000000 0.464596 0.785551
1.000000 0.895357 0.617944
1.000000 0.462376 0.720442
1.000000 0.762466 0.591106
1.000000 0.587059 0.603825
1.000000 0.958555 0.755241
1.000000 0.618282 0.803026
1.000000 0.842712 0.527734
1.000000 0.760886 0.502138
1.000000 0.475668 0.723864
1.000000 0.690505 0.768670
1.000000 0.715722 0.828195
1.000000 0.617352 0.608177
1.000000 0.844313 0.893463
1.000000 0.563490 0.763487
1.000000 0.776282 0.655574
1.000000 0.403870 0.874312
1.000000 0.449635 0.947052
1.000000 0.893919 0.866939
1.000000 0.742572 0.890793
1.000000 0.566274 0.744816
1.000000 0.645100 0.827797
1.000000 0.920660 0.904467
1.000000 0.616139 0.690083
1.000000 0.634236 0.528112
1.000000 0.865985 0.762342
1.000000 0.557985 0.830583
1.000000 0.877860 0.801253
1.000000 0.633251 0.838907
1.000000 0.567569 0.856640
1.000000 0.562607 0.987147
1.000000 0.537572 0.850459
1.000000 0.497954 0.799301
1.000000 0.597972 0.822906
1.000000 0.527608 0.739992
1.000000 0.528690 0.725475
1.000000 0.505100 0.518359
1.000000 0.523612 0.949150
1.000000 0.704498 0.876101
1.000000 0.513205 0.502643
1.000000 0.447176 0.990878
1.000000 0.538158 0.495192
1.000000 0.573632 0.727346
1.000000 0.825166 0.589016
1.000000 0.659939 0.971975
1.000000 0.702701 0.906658
1.000000 0.766597 0.747917
1.000000 0.413438 0.793873
1.000000 0.417331 0.803231
1.000000 0.773156 0.928747
1.000000 0.794014 0.650380
1.000000 0.789901 0.738839
1.000000 0.947458 0.783941
1.000000 0.683555 0.482531
1.000000 0.402302 0.985186
1.000000 0.783124 0.938545
1.000000 0.713922 0.980421
1.000000 0.897137 0.551379
1.000000 0.939956 0.555138
1.000000 0.929657 0.928895
1.000000 0.495080 0.655428
1.000000 0.877748 0.813559
1.000000 0.688573 0.483852
1.000000 0.448185 0.970943
1.000000 0.848186 0.762351
1.000000 0.922775 0.590444
1.000000 0.846861 0.727767
1.000000 0.631437 0.511230
1.000000 0.951807 0.710227
1.000000 0.898154 0.760554
1.000000 0.727749 0.771144
1.000000 0.810667 0.906650
1.000000 0.592108 0.499686
1.000000 0.477218 0.628405
1.000000 0.616390 0.743899
1.000000 0.467139 0.683412
1.000000 0.800230 0.771605
1.000000 0.772770 0.567374
1.000000 0.529625 0.925136
1.000000 0.795256 0.618461
1.000000 0.802736 0.568622
1.000000 0.554817 0.532177
1.000000 0.859003 0.913731
1.000000 0.911911 0.860669
1.000000 0.591283 0.494802
1.000000 0.480718 0.827746
1.000000 0.905965 0.586510
1.000000 0.434514 0.948875
1.000000 0.796454 0.921503
1.000000 0.600502 0.816770
1.000000 0.565364 0.593321
1.000000 0.629306 0.553191
1.000000 0.744418 0.929610
1.000000 0.852724 0.853819
1.000000 0.551304 0.485307
1.000000 0.724276 0.590311
1.000000 0.856632 0.640495
1.000000 0.803541 0.682256
1.000000 0.868210 0.625436
1.000000 0.737710 0.839655
1.000000 0.753924 0.523140
1.000000 0.931168 0.989988
1.000000 0.490617 0.796647
1.000000 0.951655 0.957699
1.000000 0.649792 0.986607
1.000000 0.850749 0.983109
1.000000 0.546969 0.551329
1.000000 0.425152 0.828047
1.000000 0.723182 0.851381
1.000000 0.762695 0.797768
1.000000 0.678126 0.872813
1.000000 0.540326 0.974294
1.000000 0.634393 0.929450
1.000000 0.644819 0.680279
1.000000 0.554479 0.684337
1.000000 0.591315 0.493821
1.000000 0.927265 0.729654
1.000000 0.757942 0.605317
1.000000 0.819923 0.879113
1.000000 0.938690 0.703408
1.000000 0.532967 0.726368
1.000000 0.453323 0.828821
1.000000 0.358940 0.946829
1.000000 0.606761 0.838973
1.000000 0.805731 0.764174
1.000000 0.789042 0.685707
1.000000 0.556092 0.737581
1.000000 0.883928 0.678100
1.000000 0.637434 0.597433
1.000000 0.515053 0.614896
1.000000 0.899202 0.999148
1.000000 0.358614 0.927233
1.000000 0.575835 0.555849
1.000000 0.703081 0.609911
1.000000 0.600212 0.715951
1.000000 0.622371 0.460447
1.000000 0.824731 0.679225
1.000000 0.630886 0.748109
1.000000 0.772677 0.909204
1.000000 0.428888 0.860945
1.000000 0.797047 0.669122
1.000000 0.642083 0.513323
1.000000 0.818522 0.758823
1.000000 0.715138 0.718055
1.000000 0.765649 0.704890
1.000000 0.628454 0.633211
1.000000 0.424367 0.804628
1.000000 0.581290 0.954031
1.000000 0.418725 0.822291
1.000000 0.941218 0.890265
1.000000 0.751627 0.657197
1.000000 0.451457 0.791980
1.000000 0.752556 0.958253
1.000000 0.538023 0.507128
1.000000 0.526552 0.494333
1.000000 0.523347 0.788313
1.000000 0.954638 0.659117
1.000000 0.414110 0.765914
1.000000 0.946692 0.874303
1.000000 0.617878 0.557045
1.000000 0.816653 0.830254
1.000000 0.798498 0.722229
1.000000 0.769227 0.814149
1.000000 0.531876 0.816256
1.000000 0.534299 0.976088
1.000000 0.732622 0.909783
1.000000 0.847145 0.559106
1.000000 0.725267 0.827380
1.000000 0.525558 0.505273
1.000000 0.347651 0.975300
1.000000 0.460605 0.715753
1.000000 0.868801 0.802641
1.000000 0.563339 0.751550
1.000000 0.532718 0.618381
1.000000 0.777384 0.952803
1.000000 0.660162 0.528342
1.000000 0.823445 0.723118
1.000000 0.819860 0.607287
1.000000 0.747117 0.514311
1.000000 0.791785 0.837773
1.000000 0.903916 0.778512
1.000000 0.836699 0.828215
1.000000 0.678503 0.549389
1.000000 0.520591 0.552976
1.000000 0.487304 0.675203
1.000000 0.648075 0.585231
1.000000 0.565123 0.936474
1.000000 0.482681 0.735035
1.000000 0.714639 0.963099
1.000000 0.622337 0.719712
1.000000 0.955794 0.898025
1.000000 0.601354 0.901310
1.000000 0.620852 0.925366
1.000000 0.726322 0.660330
1.000000 0.764577 0.810583
1.000000 0.738538 0.492716
1.000000 0.821748 0.779943
1.000000 0.502486 0.671998
1.000000 0.457130 0.712512
1.000000 0.677409 0.656606
1.000000 0.584219 0.641819
1.000000 0.481757 0.813017
1.000000 0.753663 0.797407
1.000000 0.364532 0.902329
1.000000 0.797008 0.649563
1.000000 0.767451 0.924700
1.000000 0.661004 0.509223
1.000000 0.744140 0.774528
1.000000 0.674251 0.671444
1.000000 0.442023 0.711746
1.000000 0.650732 0.535969
1.000000 0.773683 0.815536
1.000000 0.448629 0.788162
1.000000 0.657365 0.735532
1.000000 0.517743 0.650802
1.000000 0.456346 0.863910
1.000000 0.547807 0.768814
1.000000 0.437196 0.852015
1.000000 0.664273 0.849642
1.000000 0.643290 0.589940
1.000000 0.445981 0.742487
1.000000 0.551071 0.618752
1.000000 0.832202 0.532835
1.000000 0.637831 0.603814
1.000000 0.905123 0.895720
1.000000 0.728610 0.689479
1.000000 0.775433 0.817471
1.000000 0.510807 0.560111
1.000000 0.646423 0.740364
1.000000 0.444414 0.967897
1.000000 0.564829 0.521159
1.000000 0.581289 0.853134
1.000000 0.759073 0.914234
1.000000 0.699074 0.566865
1.000000 0.764646 0.653795
1.000000 0.907515 0.964049
1.000000 0.423847 0.872901
1.000000 0.662186 0.683006
1.000000 0.681612 0.848011
1.000000 0.427524 0.733908
1.000000 0.604931 0.900018
1.000000 0.959463 0.802014
1.000000 0.711114 0.864295
1.000000 0.616189 0.666192
1.000000 0.922369 0.549379
1.000000 0.453390 0.793985
1.000000 0.904131 0.605395
1.000000 0.639256 0.821000
1.000000 0.561515 0.452474
1.000000 0.951309 0.826443
1.000000 0.832793 0.515079
1.000000 0.514517 0.901221
1.000000 0.948556 0.676252
1.000000 0.570474 0.828658
1.000000 0.727223 0.941151
1.000000 0.657327 0.698750
1.000000 0.676452 0.993029
1.000000 0.615004 0.736600
1.000000 0.964460 0.762272
1.000000 0.820435 0.908452
1.000000 0.402518 0.989888
1.000000 0.901134 0.782200
1.000000 0.835515 0.601855
1.000000 0.613110 0.537658
1.000000 0.501993 0.711316
1.000000 0.843851 0.560018
1.000000 0.895210 0.776864
1.000000 0.645383 0.518262
1.000000 0.607878 0.646799
1.000000 0.786472 0.828431
1.000000 0.806491 0.583889
1.000000 0.607555 0.461280
1.000000 0.459786 0.959970
1.000000 0.541928 0.708721
1.000000 0.543873 0.823674
1.000000 0.601456 0.643250
1.000000 0.356606 0.997964
1.000000 0.758214 0.692014
1.000000 0.727986 0.864993
1.000000 0.884124 0.632646
1.000000 0.828271 0.981751
1.000000 0.648506 0.888954
1.000000 0.559804 0.852705
1.000000 0.348527 0.962017
1.000000 0.802439 0.783267
1.000000 0.891228 0.990532
1.000000 0.633926 0.676408
1.000000 0.780491 0.955411
1.000000 0.721779 0.920429
1.000000 0.481105 0.701044
1.000000 0.684969 0.645010
1.000000 0.572919 0.860031
1.000000 0.508647 0.947228
1.000000 0.722364 0.904823
1.000000 0.930683 0.880443
1.000000 0.712201 0.774553
1.000000 0.938348 0.733597
1.000000 0.508685 0.619810
1.000000 0.671453 0.764582
1.000000 0.446325 0.737610
1.000000 0.805114 0.825208
1.000000 0.884449 0.785755
1.000000 0.461884 0.966437
1.000000 0.461814 0.714426
1.000000 0.632384 0.641210
1.000000 0.463676 0.784711
1.000000 0.509121 0.644196
1.000000 0.679477 0.526257
1.000000 0.645158 0.534222
1.000000 0.586533 0.673314
1.000000 0.929778 0.760557
1.000000 0.929214 0.600011
1.000000 0.532873 0.971039
1.000000 0.672705 0.825899
1.000000 0.557359 0.657284
1.000000 0.440767 0.807989
1.000000 0.936135 0.827990
1.000000 0.702631 0.991750
1.000000 0.584604 0.894244
1.000000 0.477398 0.740397
1.000000 0.688834 0.483405
1.000000 0.933135 0.601619
1.000000 0.913220 0.710876
1.000000 0.733894 0.587041
1.000000 0.424968 0.842495
1.000000 0.646739 0.840961
1.000000 0.457425 0.818373
1.000000 0.866243 0.541510
1.000000 0.612604 0.486271
1.000000 0.696639 0.545916
1.000000 0.522290 0.968773
1.000000 0.549740 0.678592
1.000000 0.538158 0.998939
1.000000 0.687168 0.573161
1.000000 0.950562 0.864869
1.000000 0.433246 0.908588
1.000000 0.640826 0.990552
1.000000 0.686470 0.491296
1.000000 0.746009 0.565054
1.000000 0.445938 0.925698
1.000000 0.513943 0.508171
1.000000 0.951875 0.982172
1.000000 0.494643 0.831492
1.000000 0.435861 0.972184
1.000000 0.464835 0.678077
1.000000 0.436472 0.766566
1.000000 0.921659 0.816995
1.000000 0.865096 0.916954
1.000000 0.437251 0.753278
1.000000 0.648536 0.514419
1.000000 0.851820 0.817887
1.000000 0.887014 0.699035
1.000000 0.611377 0.873797
1.000000 0.887141 0.838706
1.000000 0.591096 0.784298
1.000000 0.460417 0.644450
1.000000 0.533649 0.968958
1.000000 0.597120 0.564250
1.000000 0.668449 0.517064
1.000000 0.674301 0.557572
1.000000 0.498955 0.986453
1.000000 0.916588 0.593809
1.000000 0.480965 0.703740
1.000000 0.860662 0.738441
1.000000 0.913931 0.795626
1.000000 0.791493 0.821012
1.000000 0.527982 0.882291
1.000000 0.685521 0.933998
1.000000 0.496966 0.847542
1.000000 0.438139 0.993113
1.000000 0.919475 0.576989
1.000000 0.561329 0.879121
1.000000 0.741418 0.963489
1.000000 0.625529 0.990001
1.000000 0.660649 0.597870
1.000000 0.364840 0.996696
1.000000 0.611136 0.594363
1.000000 0.922261 0.712308
1.000000 0.550263 0.758052
1.000000 0.554135 0.946323
1.000000 0.697961 0.931666
1.000000 0.473789 0.629487
1.000000 0.654602 0.512765
1.000000 0.738328 0.939356
1.000000 0.704933 0.773658
1.000000 0.616910 0.665937
1.000000 0.909047 0.663539
1.000000 0.404706 0.958750
1.000000 0.589835 0.603601
1.000000 0.673023 0.620308
1.000000 0.479795 0.604029
1.000000 0.578418 0.508729
1.000000 0.565099 0.934155
1.000000 0.409187 0.929470
1.000000 0.644887 0.994214
1.000000 0.476961 0.696840
1.000000 0.742252 0.492165
1.000000 0.492108 0.908824
1.000000 0.900064 0.600115
1.000000 0.641884 0.466185
1.000000 0.903978 0.846506
1.000000 0.776409 0.764194
1.000000 0.429217 0.889694
1.000000 0.638494 0.945039
1.000000 0.928829 0.935717
1.000000 0.697607 0.997184
1.000000 0.595715 0.535607
1.000000 0.848269 0.759310
1.000000 0.726667 0.693613
1.000000 0.646993 0.857189
1.000000 0.590343 0.768002
1.000000 0.469564 0.637186
1.000000 0.445541 0.813374
1.000000 0.679100 0.738277
1.000000 0.432450 0.981054
1.000000 0.382429 0.864586
1.000000 0.584020 0.749987
1.000000 0.631553 0.822127
1.000000 0.896423 0.844687
1.000000 0.646403 0.962121
1.000000 0.939362 0.811050
1.000000 0.777254 0.897850
1.000000 0.564639 0.785849
1.000000 0.579721 0.942657
1.000000 0.955915 0.830154
1.000000 0.914063 0.868003
1.000000 0.958425 0.730060
1.000000 0.711605 0.671046
1.000000 0.760541 0.578067
1.000000 0.454385 0.905812
1.000000 0.675288 0.589233
1.000000 0.962377 0.700688
1.000000 0.911570 0.777560
1.000000 0.683987 0.498210
1.000000 0.862583 0.728459
1.000000 0.873432 0.921346
1.000000 0.391719 0.899800
1.000000 0.401061 0.867353
1.000000 0.641667 0.926561
1.000000 0.497661 0.794457
1.000000 0.734932 0.958312
1.000000 0.782218 0.763502
1.000000 0.864635 0.940187
1.000000 0.591791 0.979792
1.000000 0.560199 0.638384
1.000000 0.758775 0.800953
1.000000 0.783336 0.862584
1.000000 0.767687 0.946096
1.000000 0.890172 0.924051
1.000000 0.832487 0.632434
1.000000 0.903990 0.848433
1.000000 0.780484 0.874628
1.000000 0.783547 0.501145
1.000000 0.865887 0.787874
1.000000 0.547546 0.789949
1.000000 0.616579 0.940070
1.000000 0.899958 0.854397
1.000000 0.804599 0.612115
1.000000 0.730822 0.740934
