0.501692 1.000000 0.175662
0.106906 1.000000 0.310173
0.549824 1.000000 0.049633
0.847548 1.000000 0.044849
0.296114 1.000000 0.172600
0.195627 1.000000 0.628816
0.162309 1.000000 0.376444
0.556856 1.000000 0.218925
0.321207 1.000000 0.595313
0.442944 1.000000 0.061665
0.287167 1.000000 0.180928
0.346877 1.000000 0.118416
0.241913 1.000000 0.502165
0.555240 1.000000 0.237384
0.121757 1.000000 0.198130
0.587304 1.000000 0.242887
0.157362 1.000000 0.751061
0.576883 1.000000 0.345251
0.362942 1.000000 0.420679
0.797376 1.000000 0.060739
0.086409 1.000000 0.446256
0.708022 1.000000 0.081555
0.202734 1.000000 0.333228
0.555123 1.000000 0.103425
0.085207 1.000000 0.287080
0.117897 1.000000 0.731452
0.364201 1.000000 0.081474
0.171266 1.000000 0.569709
0.490862 1.000000 0.159315
0.053430 1.000000 0.269431
0.181295 1.000000 0.681135
0.220194 1.000000 0.473434
0.399794 1.000000 0.179624
0.474946 1.000000 0.222359
0.143215 1.000000 0.357666
0.584668 1.000000 0.276909
0.669880 1.000000 0.189465
0.251112 1.000000 0.455929
0.099368 1.000000 0.670639
0.775227 1.000000 0.040156
0.426993 1.000000 0.091987
0.175974 1.000000 0.049782
0.761935 1.000000 0.115097
0.649868 1.000000 0.326945
0.098150 1.000000 0.594967
0.188723 1.000000 0.415781
0.096436 1.000000 0.250786
0.526281 1.000000 0.304316
0.556431 1.000000 0.423788
0.109532 1.000000 0.305052
0.516971 1.000000 0.301311
0.175834 1.000000 0.760948
0.558993 1.000000 0.256056
0.135537 1.000000 0.727144
0.016439 1.000000 0.528714
0.169286 1.000000 0.344661
0.022465 1.000000 0.629471
0.008765 1.000000 0.080186
0.167360 1.000000 0.457531
0.251801 1.000000 0.347808
0.043876 1.000000 0.749256
0.470634 1.000000 0.448042
0.600557 1.000000 0.216224
0.429407 1.000000 0.509708
0.746699 1.000000 0.234742
0.484206 1.000000 0.216069
0.269358 1.000000 0.494553
0.091028 1.000000 0.618205
0.222433 1.000000 0.388847
0.481419 1.000000 0.272044
0.569453 1.000000 0.217809
0.681960 1.000000 0.165062
0.773199 1.000000 0.041078
0.650296 1.000000 0.109639
0.372152 1.000000 0.251502
0.017171 1.000000 0.412199
0.122250 1.000000 0.310427
0.175400 1.000000 0.229216
0.864341 1.000000 0.065349
0.742776 1.000000 0.097287
0.097890 1.000000 0.209646
0.331459 1.000000 0.236129
0.548210 1.000000 0.413344
0.225527 1.000000 0.614153
0.696741 1.000000 0.082925
0.118285 1.000000 0.521551
0.173051 1.000000 0.528894
0.678395 1.000000 0.146790
0.374364 1.000000 0.206626
0.346397 1.000000 0.437029
0.363504 1.000000 0.520122
0.615516 1.000000 0.175434
0.465750 1.000000 0.438718
0.374013 1.000000 0.461264
0.088124 1.000000 0.840301
0.364320 1.000000 0.317437
0.009794 1.000000 0.280776
0.318839 1.000000 0.457260
0.380986 1.000000 0.528076
0.554713 1.000000 0.407208
0.086081 1.000000 0.481030
0.635679 1.000000 0.344248
0.404167 1.000000 0.094143
0.091723 1.000000 0.278394
0.029137 1.000000 0.806320
0.666434 1.000000 0.124135
0.344190 1.000000 0.532303
0.370758 1.000000 0.517306
0.420779 1.000000 0.177513
0.877802 1.000000 0.100877
0.148552 1.000000 0.666874
0.483757 1.000000 0.313996
0.130332 1.000000 0.615450
0.331090 1.000000 0.573592
0.129792 1.000000 0.593593
0.507340 1.000000 0.109755
0.136753 1.000000 0.452297
0.383358 1.000000 0.456926
0.224903 1.000000 0.356122
0.129559 1.000000 0.548905
0.303141 1.000000 0.208004
0.108932 1.000000 0.158144
0.520445 1.000000 0.383470
0.088865 1.000000 0.837761
0.025597 1.000000 0.779394
0.655181 1.000000 0.170003
0.645067 1.000000 0.170258
0.022732 1.000000 0.524481
0.357187 1.000000 0.050798
0.448892 1.000000 0.312873
0.393207 1.000000 0.257831
0.365596 1.000000 0.111052
0.047502 1.000000 0.113802
0.273889 1.000000 0.475649
0.483458 1.000000 0.381010
0.182288 1.000000 0.148225
0.259677 1.000000 0.056067
0.328271 1.000000 0.269046
0.030497 1.000000 0.350704
0.771093 1.000000 0.202390
0.697845 1.000000 0.245601
0.347710 1.000000 0.066566
0.203519 1.000000 0.180002
0.259290 1.000000 0.670857
0.720937 1.000000 0.150119
0.440568 1.000000 0.177235
0.184232 1.000000 0.401172
0.485162 1.000000 0.051056
0.026029 1.000000 0.423552
0.138030 1.000000 0.687179
0.487772 1.000000 0.434228
0.886140 1.000000 0.109620
0.266684 1.000000 0.691342
0.072146 1.000000 0.305717
0.814329 1.000000 0.182072
0.214796 1.000000 0.701418
0.076501 1.000000 0.043158
0.333792 1.000000 0.428079
0.442338 1.000000 0.250546
0.710624 1.000000 0.281442
0.507981 1.000000 0.225956
0.297588 1.000000 0.135114
0.735796 1.000000 0.261742
0.095173 1.000000 0.838512
0.326189 1.000000 0.514669
0.315110 1.000000 0.589167
0.020326 1.000000 0.766589
0.451110 1.000000 0.169879
0.324661 1.000000 0.052551
0.066071 1.000000 0.422195
0.859595 1.000000 0.079130
0.590899 1.000000 0.249687
0.305425 1.000000 0.613842
0.178137 1.000000 0.380645
0.493508 1.000000 0.143630
0.018411 1.000000 0.287491
0.004775 1.000000 0.809640
0.674202 1.000000 0.321283
0.636257 1.000000 0.223863
0.787939 1.000000 0.068092
0.449369 1.000000 0.120413
0.153329 1.000000 0.190008
0.520669 1.000000 0.209931
0.255835 1.000000 0.611278
0.358085 1.000000 0.629159
0.001791 1.000000 0.325056
0.144547 1.000000 0.197198
0.576709 1.000000 0.281097
0.060929 1.000000 0.045672
0.345641 1.000000 0.475138
0.114075 1.000000 0.595010
0.228319 1.000000 0.206705
0.315702 1.000000 0.104953
0.093971 1.000000 0.126292
0.512387 1.000000 0.203258
0.473307 1.000000 0.158751
0.182067 1.000000 0.342295
0.458295 1.000000 0.468292
0.365672 1.000000 0.590379
0.056957 1.000000 0.710312
0.291821 1.000000 0.417992
0.298148 1.000000 0.097584
0.235646 1.000000 0.137205
0.308744 1.000000 0.197383
0.127594 1.000000 0.468332
0.633830 1.000000 0.062751
0.208478 1.000000 0.444729
0.515697 1.000000 0.132910
0.637018 1.000000 0.150302
0.092170 1.000000 0.599529
0.567617 1.000000 0.220220
0.121468 1.000000 0.431820
0.775872 1.000000 0.188575
0.112866 1.000000 0.766626
0.822294 1.000000 0.070965
0.092589 1.000000 0.518620
0.086432 1.000000 0.226233
0.692713 1.000000 0.086876
0.123756 1.000000 0.648822
0.331995 1.000000 0.621248
0.227223 1.000000 0.147913
0.058832 1.000000 0.729164
0.079822 1.000000 0.484163
0.029332 1.000000 0.183912
0.218633 1.000000 0.315650
0.403167 1.000000 0.169609
0.163048 1.000000 0.423255
0.022370 1.000000 0.696441
0.742244 1.000000 0.221736
0.343915 1.000000 0.142223
0.317326 1.000000 0.116350
0.675642 1.000000 0.264486
0.356779 1.000000 0.580754
0.510183 1.000000 0.321083
0.759634 1.000000 0.067972
0.518820 1.000000 0.077291
0.380419 1.000000 0.323345
0.230253 1.000000 0.503956
0.550520 1.000000 0.250672
0.819340 1.000000 0.159998
0.162636 1.000000 0.094291
0.100423 1.000000 0.249810
0.874887 1.000000 0.091432
0.212692 1.000000 0.394871
0.105183 1.000000 0.521726
0.147958 1.000000 0.814845
0.072460 1.000000 0.052144
0.171611 1.000000 0.087624
0.382880 1.000000 0.431532
0.114764 1.000000 0.043221
0.686462 1.000000 0.300861
0.767451 1.000000 0.190875
0.454787 1.000000 0.124195
0.379716 1.000000 0.506730
0.030366 1.000000 0.533526
0.386068 1.000000 0.478794
0.522968 1.000000 0.099626
0.411414 1.000000 0.383740
0.139964 1.000000 0.578346
0.355168 1.000000 0.495609
0.216730 1.000000 0.201147
0.324428 1.000000 0.661382
0.491167 1.000000 0.318801
0.244580 1.000000 0.534012
0.374806 1.000000 0.178907
0.255561 1.000000 0.126227
0.207221 1.000000 0.293865
0.337085 1.000000 0.257293
0.651606 1.000000 0.053023
0.079151 1.000000 0.228398
0.137765 1.000000 0.679956
0.259208 1.000000 0.528404
0.180681 1.000000 0.190596
0.003532 1.000000 0.180646
0.040374 1.000000 0.052447
0.072597 1.000000 0.837636
0.013270 1.000000 0.041174
0.372684 1.000000 0.363065
0.760147 1.000000 0.159308
0.271905 1.000000 0.453665
0.286072 1.000000 0.319666
0.535937 1.000000 0.423290
0.224140 1.000000 0.756376
0.035654 1.000000 0.576109
0.538397 1.000000 0.189032
0.714314 1.000000 0.183392
0.082627 1.000000 0.619039
0.055885 1.000000 0.770363
0.734215 1.000000 0.227285
0.102282 1.000000 0.236493
0.358496 1.000000 0.253569
0.499068 1.000000 0.321404
0.640578 1.000000 0.160527
0.167809 1.000000 0.234406
0.193517 1.000000 0.486036
0.409858 1.000000 0.572366
0.523089 1.000000 0.460771
0.356590 1.000000 0.555695
0.204717 1.000000 0.417653
0.234646 1.000000 0.182305
0.352816 1.000000 0.405289
0.227404 1.000000 0.209898
0.070715 1.000000 0.774512
0.286915 1.000000 0.274830
0.251171 1.000000 0.476365
0.060540 1.000000 0.500831
0.533173 1.000000 0.407348
0.650388 1.000000 0.082777
0.434706 1.000000 0.387748
0.533239 1.000000 0.253055
0.340848 1.000000 0.272231
0.352186 1.000000 0.251484
0.211532 1.000000 0.764847
0.701873 1.000000 0.155637
0.007582 1.000000 0.207351
0.341441 1.000000 0.328825
0.140211 1.000000 0.677884
0.640176 1.000000 0.174805
0.229366 1.000000 0.276018
0.188927 1.000000 0.303374
0.198748 1.000000 0.300905
0.469748 1.000000 0.104049
0.149840 1.000000 0.065954
0.597483 1.000000 0.224805
0.075994 1.000000 0.082512
0.332606 1.000000 0.186328
0.326986 1.000000 0.631695
0.081134 1.000000 0.054432
0.284226 1.000000 0.065238
0.206209 1.000000 0.051622
0.563476 1.000000 0.115976
0.305121 1.000000 0.524823
0.267257 1.000000 0.314761
0.083094 1.000000 0.654300
0.457822 1.000000 0.270468
0.219746 1.000000 0.590760
0.117022 1.000000 0.196822
0.173382 1.000000 0.587703
0.137477 1.000000 0.342933
0.134180 1.000000 0.101468
0.782438 1.000000 0.119964
0.416786 1.000000 0.460477
0.167937 1.000000 0.088837
0.223185 1.000000 0.240102
0.674561 1.000000 0.100656
0.057040 1.000000 0.412077
0.416053 1.000000 0.076121
0.648283 1.000000 0.120326
0.720730 1.000000 0.136822
0.882027 1.000000 0.065969
0.064588 1.000000 0.275101
0.765491 1.000000 0.101676
0.830061 1.000000 0.111625
0.536349 1.000000 0.049316
0.452298 1.000000 0.081280
0.532683 1.000000 0.126115
0.050602 1.000000 0.082869
0.316663 1.000000 0.658364
0.340346 1.000000 0.118033
0.023694 1.000000 0.600956
0.585949 1.000000 0.054947
0.092742 1.000000 0.710259
0.172842 1.000000 0.622334
0.531580 1.000000 0.456754
0.022381 1.000000 0.805042
0.552304 1.000000 0.439805
0.599111 1.000000 0.181086
0.152820 1.000000 0.361880
0.037138 1.000000 0.792043
0.660897 1.000000 0.171083
0.180704 1.000000 0.334137
0.531841 1.000000 0.281036
0.136341 1.000000 0.390579
0.107597 1.000000 0.119706
0.542509 1.000000 0.318816
0.317540 1.000000 0.451327
0.615381 1.000000 0.139047
0.636305 1.000000 0.095471
0.479169 1.000000 0.299023
0.743364 1.000000 0.243679
0.235735 1.000000 0.149223
0.544566 1.000000 0.415274
0.414352 1.000000 0.332983
0.048008 1.000000 0.596812
0.034582 1.000000 0.379849
0.122321 1.000000 0.442128
0.130258 1.000000 0.277834
0.504657 1.000000 0.061667
0.120342 1.000000 0.690672
0.480978 1.000000 0.243897
0.066575 1.000000 0.761182
0.539955 1.000000 0.160631
0.848283 1.000000 0.101985
0.605584 1.000000 0.314826
0.638108 1.000000 0.130834
0.220573 1.000000 0.383708
0.481144 1.000000 0.475317
0.093625 1.000000 0.082367
0.106592 1.000000 0.555891
0.219621 1.000000 0.233531
0.303970 1.000000 0.312729
0.420024 1.000000 0.079101
0.323781 1.000000 0.529138
0.596260 1.000000 0.315721
0.030638 1.000000 0.378013
0.034621 1.000000 0.658667
0.116575 1.000000 0.279740
0.695539 1.000000 0.247073
0.790933 1.000000 0.143826
0.699943 1.000000 0.101537
0.426368 1.000000 0.049689
0.307337 1.000000 0.177463
0.114437 1.000000 0.270728
0.405301 1.000000 0.496642
0.069238 1.000000 0.710142
0.420756 1.000000 0.140773
0.290123 1.000000 0.240931
0.006839 1.000000 0.445851
0.152446 1.000000 0.327381
0.558531 1.000000 0.287151
0.813945 1.000000 0.172332
0.687081 1.000000 0.260161
0.410725 1.000000 0.476872
0.297429 1.000000 0.385586
0.143318 1.000000 0.545955
0.512324 1.000000 0.169758
0.219390 1.000000 0.639917
0.317832 1.000000 0.633341
0.161174 1.000000 0.549227
0.628687 1.000000 0.352494
0.329541 1.000000 0.543335
0.010593 1.000000 0.581763
0.263526 1.000000 0.665057
0.591190 1.000000 0.338593
0.191700 1.000000 0.224177
0.735774 1.000000 0.050087
0.269942 1.000000 0.071925
0.005281 1.000000 0.307494
0.295242 1.000000 0.432130
0.131268 1.000000 0.499301
0.045811 1.000000 0.356051
0.121264 1.000000 0.260425
0.120897 1.000000 0.483311
0.286652 1.000000 0.360025
0.744356 1.000000 0.171289
0.201435 1.000000 0.621981
0.798356 1.000000 0.115750
0.152427 1.000000 0.617155
0.483158 1.000000 0.325940
0.449326 1.000000 0.056015
0.400912 1.000000 0.540293
0.559355 1.000000 0.355933
0.268965 1.000000 0.449555
0.602738 1.000000 0.232860
0.367811 1.000000 0.125752
0.061346 1.000000 0.736513
0.449839 1.000000 0.250287
0.654097 1.000000 0.247034
0.464167 1.000000 0.360902
0.270551 1.000000 0.607819
0.524023 1.000000 0.438846
0.032698 1.000000 0.285143
0.456608 1.000000 0.400834
0.222364 1.000000 0.206910
0.277325 1.000000 0.364826
0.250727 1.000000 0.212355
0.433305 1.000000 0.525662
0.578920 1.000000 0.237929
0.576755 1.000000 0.280643
0.321167 1.000000 0.053356
0.186974 1.000000 0.176361
0.205761 1.000000 0.670237
0.573909 1.000000 0.179884
0.463988 1.000000 0.274266
0.199540 1.000000 0.744789
0.858408 1.000000 0.100681
0.510024 1.000000 0.343893
0.316987 1.000000 0.503442
0.102196 1.000000 0.559078
0.703022 1.000000 0.245341
0.617374 1.000000 0.333573
0.221901 1.000000 0.096281
0.528934 1.000000 0.409208
0.106886 1.000000 0.346285
0.597210 1.000000 0.339603
0.251629 1.000000 0.057810
0.353878 1.000000 0.410576
0.234053 1.000000 0.416830
0.351503 1.000000 0.557273
0.085332 1.000000 0.755822
0.522374 1.000000 0.042944
0.809515 1.000000 0.092093
0.419517 1.000000 0.337813
0.164234 1.000000 0.661785
0.499075 1.000000 0.274114
0.178620 1.000000 0.305333
0.175014 1.000000 0.042051
0.146938 1.000000 0.199532
0.298526 1.000000 0.515590
0.344342 1.000000 0.552906
0.214425 1.000000 0.589656
0.252995 1.000000 0.742504
0.050256 1.000000 0.850883
0.525991 1.000000 0.139290
0.053927 1.000000 0.289132
0.225222 1.000000 0.298317
0.538612 1.000000 0.314941
0.630690 1.000000 0.275578
0.045248 1.000000 0.170940
0.179572 1.000000 0.808624
0.590511 1.000000 0.265321
0.057263 1.000000 0.224171
0.142616 1.000000 0.063113
0.128103 1.000000 0.228180
0.310030 1.000000 0.209751
0.089823 1.000000 0.586685
0.833457 1.000000 0.092989
0.494942 1.000000 0.040992
0.155100 1.000000 0.815946
0.070332 1.000000 0.722024
0.260627 1.000000 0.174094
0.464898 1.000000 0.441564
0.631114 1.000000 0.052419
0.374679 1.000000 0.207998
0.486290 1.000000 0.109804
0.391917 1.000000 0.544486
0.648775 1.000000 0.132341
0.706517 1.000000 0.055948
0.318031 1.000000 0.082962
0.246976 1.000000 0.320100
0.066864 1.000000 0.567324
0.016318 1.000000 0.407911
0.187071 1.000000 0.551878
0.689809 1.000000 0.152574
0.117402 1.000000 0.757789
0.018197 1.000000 0.510688
0.026588 1.000000 0.462759
0.057564 1.000000 0.215932
0.209238 1.000000 0.338309
0.069746 1.000000 0.532041
0.225862 1.000000 0.321687
0.295721 1.000000 0.169199
0.122550 1.000000 0.672149
0.244027 1.000000 0.670245
0.506982 1.000000 0.316189
0.834380 1.000000 0.112607
0.597034 1.000000 0.336812
0.516582 1.000000 0.151997
0.276891 1.000000 0.044446
0.040751 1.000000 0.555553
0.195070 1.000000 0.610485
0.407533 1.000000 0.298352
0.449743 1.000000 0.406673
0.492560 1.000000 0.490246
0.656608 1.000000 0.097698
0.563700 1.000000 0.375492
0.686531 1.000000 0.281605
0.558851 1.000000 0.334179
0.601103 1.000000 0.379074
0.531205 1.000000 0.043509
0.522832 1.000000 0.321552
0.132864 1.000000 0.630881
0.320942 1.000000 0.390832
0.022357 1.000000 0.362637
0.165699 1.000000 0.155053
0.048464 1.000000 0.091608
0.551272 1.000000 0.196597
0.267916 1.000000 0.452307
0.232910 1.000000 0.734659
0.610344 1.000000 0.145991
0.117265 1.000000 0.783124
0.413420 1.000000 0.064784
0.049036 1.000000 0.417983
0.102388 1.000000 0.448499
0.129149 1.000000 0.426802
0.806686 1.000000 0.042668
0.901120 1.000000 0.053913
0.065585 1.000000 0.114290
0.182376 1.000000 0.347253
0.256722 1.000000 0.079411
0.369802 1.000000 0.328381
0.139662 1.000000 0.738644
0.056491 1.000000 0.640967
0.867454 1.000000 0.122106
0.392915 1.000000 0.197402
0.590182 1.000000 0.278330
0.104237 1.000000 0.144785
0.601417 1.000000 0.196864
0.063995 1.000000 0.285408
0.414556 1.000000 0.099986
0.375822 1.000000 0.149410
0.364408 1.000000 0.152940
0.324365 1.000000 0.581822
0.690349 1.000000 0.246955
0.299959 1.000000 0.150462
0.161718 1.000000 0.442343
0.309035 1.000000 0.236994
0.367488 1.000000 0.361301
0.477002 1.000000 0.109586
0.440911 1.000000 0.134298
0.137451 1.000000 0.160751
0.182300 1.000000 0.095883
0.869409 1.000000 0.124947
0.298737 1.000000 0.493211
0.279237 1.000000 0.190759
0.652378 1.000000 0.228283
0.490790 1.000000 0.147791
0.537134 1.000000 0.061553
0.234548 1.000000 0.119857
0.560532 1.000000 0.183535
0.547532 1.000000 0.363828
0.442177 1.000000 0.382902
0.010887 1.000000 0.264588
0.067400 1.000000 0.427156
0.270611 1.000000 0.204888
0.297703 1.000000 0.227958
0.448013 1.000000 0.086550
0.311249 1.000000 0.207045
0.126378 1.000000 0.325629
0.026010 1.000000 0.747230
0.284161 1.000000 0.654599
0.127842 1.000000 0.094805
0.350161 1.000000 0.529575
0.691600 1.000000 0.198829
0.124699 1.000000 0.579749
0.453656 1.000000 0.460110
0.560734 1.000000 0.046047
0.110459 1.000000 0.129887
0.278890 1.000000 0.573630
0.418321 1.000000 0.157662
0.192943 1.000000 0.508247
0.512667 1.000000 0.319750
0.717778 1.000000 0.102849
0.651239 1.000000 0.235860
0.482807 1.000000 0.139510
0.550705 1.000000 0.129228
0.139602 1.000000 0.550990
0.134463 1.000000 0.120369
0.452538 1.000000 0.206977
0.393133 1.000000 0.498881
0.042423 1.000000 0.812422
0.856743 1.000000 0.056769
0.456830 1.000000 0.348882
0.275276 1.000000 0.327249
0.282768 1.000000 0.642661
0.602289 1.000000 0.395935
0.069474 1.000000 0.742181
0.034457 1.000000 0.493414
0.379183 1.000000 0.110791
0.018243 1.000000 0.192412
0.574006 1.000000 0.132512
0.350677 1.000000 0.290955
0.028937 1.000000 0.860322
0.586580 1.000000 0.155248
0.268275 1.000000 0.452518
0.639494 1.000000 0.300045
0.421628 1.000000 0.162063
0.147035 1.000000 0.641156
0.244207 1.000000 0.375374
0.277053 1.000000 0.575533
0.384769 1.000000 0.580343
0.242136 1.000000 0.405068
0.363687 1.000000 0.516871
0.468868 1.000000 0.300683
0.053117 1.000000 0.356820
0.128351 1.000000 0.544172
0.249634 1.000000 0.539358
0.760110 1.000000 0.124094
0.026049 1.000000 0.077860
0.436422 1.000000 0.213598
0.069296 1.000000 0.141489
0.520898 1.000000 0.386337
0.038393 1.000000 0.401826
0.549250 1.000000 0.427170
0.018616 1.000000 0.419348
0.299807 1.000000 0.514628
0.281625 1.000000 0.187734
0.076761 1.000000 0.310413
0.512682 1.000000 0.079207
0.235784 1.000000 0.235567
0.242983 1.000000 0.188475
0.002761 1.000000 0.076831
0.120973 1.000000 0.210137
0.782942 1.000000 0.166331
0.411612 1.000000 0.451748
0.377637 1.000000 0.271777
0.462924 1.000000 0.247943
0.323565 1.000000 0.211967
0.020019 1.000000 0.074256
0.012303 1.000000 0.052394
0.030532 1.000000 0.633569
0.282284 1.000000 0.062060
0.448308 1.000000 0.243967
0.688510 1.000000 0.050995
0.367244 1.000000 0.586983
0.064300 1.000000 0.803951
0.323071 1.000000 0.050415
0.028825 1.000000 0.150795
0.159156 1.000000 0.140740
0.209298 1.000000 0.096405
0.076860 1.000000 0.403335
0.301658 1.000000 0.387884
0.007667 1.000000 0.844296
0.332846 1.000000 0.456549
0.086294 1.000000 0.633288
0.709429 1.000000 0.156973
0.488821 1.000000 0.395714
0.899495 1.000000 0.082251
0.304668 1.000000 0.679372
0.152986 1.000000 0.353335
0.121884 1.000000 0.090080
0.081181 1.000000 0.321793
0.065220 1.000000 0.802343
0.517478 1.000000 0.250641
0.341433 1.000000 0.343039
0.424403 1.000000 0.523482
0.630663 1.000000 0.350357
0.205937 1.000000 0.573227
0.661247 1.000000 0.098046
0.077501 1.000000 0.111641
0.294282 1.000000 0.524577
0.314637 1.000000 0.060044
0.227646 1.000000 0.595715
0.163487 1.000000 0.354508
0.652641 1.000000 0.212379
0.122025 1.000000 0.715759
0.238146 1.000000 0.149266
0.071149 1.000000 0.148470
0.716439 1.000000 0.156461
0.223726 1.000000 0.107373
0.199053 1.000000 0.733984
0.136965 1.000000 0.829740
0.680678 1.000000 0.109166
0.492935 1.000000 0.307498
0.147789 1.000000 0.746785
0.207961 1.000000 0.789514
0.237862 1.000000 0.742710
0.653205 1.000000 0.158279
0.270631 1.000000 0.626436
0.416510 1.000000 0.529283
0.232364 1.000000 0.534956
0.528192 1.000000 0.392757
0.372039 1.000000 0.072647
0.379462 1.000000 0.520753
0.176833 1.000000 0.340174
0.200488 1.000000 0.647688
0.597595 1.000000 0.377355
0.816565 1.000000 0.083671
0.278291 1.000000 0.485870
0.084957 1.000000 0.591414
0.060509 1.000000 0.511272
0.409118 1.000000 0.276165
0.642330 1.000000 0.291382
0.065772 1.000000 0.799300
0.106544 1.000000 0.787649
0.511509 1.000000 0.376831
0.194525 1.000000 0.328742
0.292329 1.000000 0.693116
0.612600 1.000000 0.373166
0.012431 1.000000 0.314229
0.131797 1.000000 0.569792
0.614731 1.000000 0.187939
0.296292 1.000000 0.207672
0.040279 1.000000 0.249470
0.174108 1.000000 0.189322
0.143583 1.000000 0.767138
0.491933 1.000000 0.500203
0.271927 1.000000 0.130144
0.076843 1.000000 0.563559
0.078553 1.000000 0.484651
0.176427 1.000000 0.604828
0.359773 1.000000 0.248110
0.659265 1.000000 0.266371
0.539735 1.000000 0.178248
0.243951 1.000000 0.534190
0.486078 1.000000 0.147016
0.501810 1.000000 0.065061
0.043334 1.000000 0.146256
0.309271 1.000000 0.399633
0.181873 1.000000 0.158280
0.187534 1.000000 0.704979
0.417197 1.000000 0.137457
0.101699 1.000000 0.411478
0.023796 1.000000 0.061312
0.291654 1.000000 0.698301
0.501667 1.000000 0.355844
0.543724 1.000000 0.110673
0.375089 1.000000 0.516072
0.068850 1.000000 0.255225
0.191284 1.000000 0.630243
0.568445 1.000000 0.148829
0.855132 1.000000 0.061369
0.253733 1.000000 0.651387
0.383391 1.000000 0.280363
0.586977 1.000000 0.253276
0.392624 1.000000 0.603040
0.439734 1.000000 0.473223
0.080180 1.000000 0.547370
0.232055 1.000000 0.491569
0.105270 1.000000 0.077416
0.240332 1.000000 0.385453
0.458192 1.000000 0.509161
0.369664 1.000000 0.574207
0.215286 1.000000 0.201560
0.477309 1.000000 0.147465
0.517861 1.000000 0.278758
0.078750 1.000000 0.321749
0.061428 1.000000 0.844046
0.526934 1.000000 0.147828
0.323162 1.000000 0.357714
0.247471 1.000000 0.699685
0.201007 1.000000 0.127168
0.244335 1.000000 0.359109
0.068182 1.000000 0.220547
0.780762 1.000000 0.215799
0.137590 1.000000 0.507167
0.397888 1.000000 0.265497
0.292547 1.000000 0.674575
0.255260 1.000000 0.297257
0.261199 1.000000 0.424684
0.095136 1.000000 0.211013
0.434372 1.000000 0.384856
0.165313 1.000000 0.551666
0.168616 1.000000 0.040131
0.013673 1.000000 0.276010
0.012798 1.000000 0.363225
0.217670 1.000000 0.749316
0.592340 1.000000 0.185111
0.334322 1.000000 0.138252
0.067170 1.000000 0.300726
0.158938 1.000000 0.208811
0.145248 1.000000 0.283638
0.786037 1.000000 0.088294
0.055274 1.000000 0.686438
0.457803 1.000000 0.134320
0.541684 1.000000 0.100638
0.665993 1.000000 0.045407
0.475524 1.000000 0.249110
0.194274 1.000000 0.496981
0.616713 1.000000 0.119764
0.125850 1.000000 0.752328
0.533546 1.000000 0.059645
0.061020 1.000000 0.420434
0.253421 1.000000 0.301916
0.168788 1.000000 0.253541
0.878470 1.000000 0.075012
0.015219 1.000000 0.813194
0.098133 1.000000 0.432354
0.236541 1.000000 0.303249
0.297562 1.000000 0.700828
0.232682 1.000000 0.353397
0.100199 1.000000 0.065681
0.055636 1.000000 0.282973
0.198749 1.000000 0.310912
0.033799 1.000000 0.802544
0.667443 1.000000 0.229609
0.083241 1.000000 0.500035
0.215178 1.000000 0.507219
0.744849 1.000000 0.073080
0.270439 1.000000 0.289454
0.158848 1.000000 0.163164
0.678726 1.000000 0.306914
0.133089 1.000000 0.269452
0.808419 1.000000 0.093853
0.484873 1.000000 0.167708
0.483279 1.000000 0.372174
0.365025 1.000000 0.162212
0.333398 1.000000 0.207052
0.459875 1.000000 0.450033
0.767361 1.000000 0.156292
0.223984 1.000000 0.565080
0.455901 1.000000 0.364686
0.532811 1.000000 0.408629
0.249578 1.000000 0.312210
0.055491 1.000000 0.073279
0.266614 1.000000 0.596283
0.894982 1.000000 0.051531
0.019587 1.000000 0.477056
0.610452 1.000000 0.378744
0.757211 1.000000 0.172451
0.714368 1.000000 0.243066
0.077198 1.000000 0.312369
0.153138 1.000000 0.159731
0.201253 1.000000 0.531045
0.034760 1.000000 0.638316
0.106175 1.000000 0.602177
0.165908 1.000000 0.326023
0.825377 1.000000 0.142112
0.749056 1.000000 0.216300
0.446987 1.000000 0.297687
0.545911 1.000000 0.305372
0.218088 1.000000 0.575772
0.204806 1.000000 0.171886
0.854229 1.000000 0.131020
0.520473 1.000000 0.451131
0.915999 1.000000 0.077858
0.118272 1.000000 0.424651
0.042650 1.000000 0.689757
0.423893 1.000000 0.336711
0.370635 1.000000 0.522906
0.206516 1.000000 0.331662
0.584099 1.000000 0.400798
0.438599 1.000000 0.115037
0.632673 1.000000 0.118702
0.264595 1.000000 0.433124
0.109057 1.000000 0.587507
0.407769 1.000000 0.455098
0.025977 1.000000 0.707640
0.155659 1.000000 0.408315
0.616440 1.000000 0.075322
0.030189 1.000000 0.405393
0.018561 1.000000 0.299075
0.315151 1.000000 0.226031
0.658414 1.000000 0.328333
0.293728 1.000000 0.124632
0.148257 1.000000 0.386933
0.196725 1.000000 0.725767
0.905609 1.000000 0.065046
0.623319 1.000000 0.370616
0.345036 1.000000 0.644048
0.160720 1.000000 0.195015
0.073451 1.000000 0.582399
0.665446 1.000000 0.045665
0.152282 1.000000 0.575779
0.183209 1.000000 0.208572
0.261608 1.000000 0.283970
0.004845 1.000000 0.601770
0.236117 1.000000 0.253610
0.485205 1.000000 0.252698
0.136287 1.000000 0.315232
0.090629 1.000000 0.266758
0.524732 1.000000 0.083405
0.334632 1.000000 0.257431
0.347204 1.000000 0.165567
0.521805 1.000000 0.116884
0.438056 1.000000 0.113780
0.175280 1.000000 0.600057
0.647736 1.000000 0.051319
0.322571 1.000000 0.103525
0.640997 1.000000 0.344940
0.090496 1.000000 0.713696
0.033144 1.000000 0.107711
0.209733 1.000000 0.302750
0.339079 1.000000 0.432975
0.010009 1.000000 0.644930
0.068464 1.000000 0.429107
0.008851 1.000000 0.102655
0.330898 1.000000 0.389575
0.199023 1.000000 0.273865
0.355275 1.000000 0.607014
0.417185 1.000000 0.507529
0.115318 1.000000 0.224445
0.093586 1.000000 0.210735
0.284864 1.000000 0.166332
0.274128 1.000000 0.603575
0.189910 1.000000 0.490032
0.319877 1.000000 0.349775
0.128208 1.000000 0.658708
0.241963 1.000000 0.520503
0.087711 1.000000 0.777029
0.116809 1.000000 0.475615
0.034192 1.000000 0.524572
0.100735 1.000000 0.678970
0.418113 1.000000 0.340200
0.587330 1.000000 0.406890
0.040174 1.000000 0.489637
0.234795 1.000000 0.158318
0.396168 1.000000 0.064538
0.058690 1.000000 0.730360
0.100097 1.000000 0.806631
0.407220 1.000000 0.386816
0.826400 1.000000 0.125995
0.151507 1.000000 0.232206
0.431501 1.000000 0.041602
0.443831 1.000000 0.153618
0.345892 1.000000 0.213678
0.362694 1.000000 0.258649
0.302873 1.000000 0.212822
0.088269 1.000000 0.475116
0.197780 1.000000 0.497714
0.289336 1.000000 0.504712
0.122424 1.000000 0.455707
0.216023 1.000000 0.531292
0.193577 1.000000 0.207611
0.502002 1.000000 0.437691
0.321918 1.000000 0.289128
0.048363 1.000000 0.193547
0.368847 1.000000 0.179519
0.141575 1.000000 0.260353
0.155378 1.000000 0.714784
0.330127 1.000000 0.575703
0.121753 1.000000 0.678974
0.194343 1.000000 0.425236
0.028942 1.000000 0.084519
0.163929 1.000000 0.447220
0.183224 1.000000 0.283946
0.563519 1.000000 0.084443
0.198514 1.000000 0.066621
0.156595 1.000000 0.810966
0.637585 1.000000 0.090563
0.403601 1.000000 0.533644
0.533469 1.000000 0.401212
0.203959 1.000000 0.281611
0.357099 1.000000 0.634863
0.445489 1.000000 0.445498
0.815119 1.000000 0.134141
0.012477 1.000000 0.397338
0.443275 1.000000 0.503663
0.187511 1.000000 0.737153
0.219467 1.000000 0.323079
0.158541 1.000000 0.741043
0.079969 1.000000 0.830251
0.036000 1.000000 0.124772
0.724190 1.000000 0.057926
0.060951 1.000000 0.079538
0.187100 1.000000 0.523178
0.330552 1.000000 0.449759
0.223940 1.000000 0.094711
0.128224 1.000000 0.635792
0.515441 1.000000 0.125053
0.150890 1.000000 0.589365
0.278536 1.000000 0.649342
0.041703 1.000000 0.565009
0.203944 1.000000 0.199408
0.384281 1.000000 0.607525
0.524885 1.000000 0.207932
0.058411 1.000000 0.340394
0.379022 1.000000 0.362371
0.395065 1.000000 0.432725
0.013583 1.000000 0.131673
0.295006 1.000000 0.383883
0.083635 1.000000 0.746286
0.418439 1.000000 0.557496
0.660526 1.000000 0.150119
0.542850 1.000000 0.287673
0.832888 1.000000 0.082783
0.789102 1.000000 0.068547
0.088677 1.000000 0.352241
0.030394 1.000000 0.157492
0.400364 1.000000 0.250435
0.761683 1.000000 0.099001
0.637575 1.000000 0.272457
0.371079 1.000000 0.501163
0.079961 1.000000 0.684942
0.495573 1.000000 0.126348
0.593998 1.000000 0.165485
0.348858 1.000000 0.523763
0.086334 1.000000 0.802707
0.408025 1.000000 0.200234
0.186175 1.000000 0.618236
0.843534 1.000000 0.041928
0.509718 1.000000 0.384747
0.053878 1.000000 0.143717
0.021548 1.000000 0.700424
0.479768 1.000000 0.278176
0.471574 1.000000 0.209443
0.710420 1.000000 0.044900
0.135031 1.000000 0.706857
0.050969 1.000000 0.200662
0.456582 1.000000 0.204153
0.397285 1.000000 0.320112
0.424363 1.000000 0.265473
0.771831 1.000000 0.098021
0.154334 1.000000 0.822845
0.368488 1.000000 0.614187
0.418110 1.000000 0.219103
0.057893 1.000000 0.653859
0.545734 1.000000 0.157613
0.040795 1.000000 0.729255
0.302890 1.000000 0.333466
0.258325 1.000000 0.690488
0.276599 1.000000 0.179284
0.440937 1.000000 0.144287
0.560653 1.000000 0.187160
0.008081 1.000000 0.628151
0.263287 1.000000 0.602392
0.494653 1.000000 0.163708
0.711633 1.000000 0.269632
0.130547 1.000000 0.112890
0.201520 1.000000 0.739991
0.437229 1.000000 0.456114
0.076463 1.000000 0.239432
0.227025 1.000000 0.403270
0.413620 1.000000 0.234794
0.097829 1.000000 0.449787
0.517117 1.000000 0.298573
0.336330 1.000000 0.613992
0.010738 1.000000 0.699125
0.206698 1.000000 0.200357
0.280532 1.000000 0.310053
0.500576 1.000000 0.401842
0.872660 1.000000 0.062871
0.086076 1.000000 0.218767
0.221967 1.000000 0.075030
0.293888 1.000000 0.502029
0.168178 1.000000 0.272938
0.657139 1.000000 0.141391
0.528045 1.000000 0.386924
0.629154 1.000000 0.126685
0.273017 1.000000 0.093192
0.413145 1.000000 0.441049
0.152932 1.000000 0.409774
0.226107 1.000000 0.447167
0.541400 1.000000 0.305032
0.702907 1.000000 0.198213
0.136293 1.000000 0.331920
0.345960 1.000000 0.157658
0.371094 1.000000 0.443059
0.092694 1.000000 0.277726
0.492822 1.000000 0.065223
0.257960 1.000000 0.620132
0.734781 1.000000 0.213368
0.172894 1.000000 0.255137
0.474497 1.000000 0.209655
0.316771 1.000000 0.220065
0.079712 1.000000 0.615543
0.505621 1.000000 0.056166
0.104061 1.000000 0.139230
0.584620 1.000000 0.157753
0.415127 1.000000 0.481381
0.386285 1.000000 0.593170
0.226870 1.000000 0.287311
0.253907 1.000000 0.490128
0.242425 1.000000 0.361483
0.493372 1.000000 0.448447
0.243503 1.000000 0.235784
0.230542 1.000000 0.522873
0.326717 1.000000 0.485639
0.176845 1.000000 0.615175
0.401615 1.000000 0.319997
0.422007 1.000000 0.224824
0.055771 1.000000 0.742467
0.303215 1.000000 0.575055
0.656981 1.000000 0.097745
0.562726 1.000000 0.073291
0.773069 1.000000 0.110824
0.698212 1.000000 0.197855
0.312150 1.000000 0.229924
0.117351 1.000000 0.833848
0.422532 1.000000 0.290712
0.235082 1.000000 0.691322
0.105657 1.000000 0.612289
0.393662 1.000000 0.091965
0.239104 1.000000 0.657340
0.038738 1.000000 0.309579
0.585766 1.000000 0.265033
0.496110 1.000000 0.462898
0.241008 1.000000 0.106755
0.346241 1.000000 0.601822
0.775545 1.000000 0.108766
0.192989 1.000000 0.321081
0.408163 1.000000 0.542922
0.020817 1.000000 0.485102
0.085813 1.000000 0.537595
0.006085 1.000000 0.533229
0.497527 1.000000 0.159851
0.132790 1.000000 0.517307
0.482171 1.000000 0.217965
0.040308 1.000000 0.691110
0.213075 1.000000 0.120453
0.228477 1.000000 0.105619
0.921935 1.000000 0.056463
0.166722 1.000000 0.497025
0.114044 1.000000 0.541474
0.037898 1.000000 0.188631
0.408915 1.000000 0.262709
0.226759 1.000000 0.590629
0.286415 1.000000 0.557878
0.206228 1.000000 0.455807
0.006112 1.000000 0.434723
0.113734 1.000000 0.608199
0.825239 1.000000 0.143587
0.016153 1.000000 0.387399
0.079829 1.000000 0.534892
0.020607 1.000000 0.180758
0.251288 1.000000 0.310161
0.219174 1.000000 0.522833
0.363154 1.000000 0.268194
0.291447 1.000000 0.113690
0.190332 1.000000 0.452570
0.202966 1.000000 0.498136
0.758918 1.000000 0.205694
0.834855 1.000000 0.056892
0.424104 1.000000 0.461228
0.143254 1.000000 0.538962
0.065058 1.000000 0.770648
0.360612 1.000000 0.196648
0.084666 1.000000 0.594322
0.571669 1.000000 0.217746
0.833528 1.000000 0.154921
0.023304 1.000000 0.194707
0.526929 1.000000 0.218862
0.021793 1.000000 0.781077
0.136886 1.000000 0.659171
0.176848 1.000000 0.225362
0.112676 1.000000 0.093400
0.038517 1.000000 0.105747
0.125189 1.000000 0.782292
0.422980 1.000000 0.482947
0.148949 1.000000 0.385566
0.643721 1.000000 0.161810
0.859964 1.000000 0.127902
0.172640 1.000000 0.249700
0.096727 1.000000 0.541723
0.327896 1.000000 0.262028
0.160483 1.000000 0.720473
0.223620 1.000000 0.207611
0.194206 1.000000 0.699949
0.035870 1.000000 0.544298
0.571488 1.000000 0.358717
0.017915 1.000000 0.109381
0.151966 1.000000 0.530886
0.369734 1.000000 0.587739
0.059412 1.000000 0.085531
0.657106 1.000000 0.232477
0.425125 1.000000 0.455345
0.741376 1.000000 0.122767
0.131711 1.000000 0.407136
0.516161 1.000000 0.382118
0.014619 1.000000 0.473079
0.221759 1.000000 0.670727
0.811704 1.000000 0.178597
0.740600 1.000000 0.072234
0.252846 1.000000 0.387225
0.336622 1.000000 0.132966
0.762238 1.000000 0.224900
0.370954 1.000000 0.474851
0.289546 1.000000 0.371069
0.155148 1.000000 0.522753
0.556950 1.000000 0.190431
0.096442 1.000000 0.420792
0.678639 1.000000 0.067052
0.061063 1.000000 0.263457
0.349259 1.000000 0.605614
0.588878 1.000000 0.339660
0.112441 1.000000 0.719020
0.358622 1.000000 0.080582
0.055787 1.000000 0.797293
0.242323 1.000000 0.565781
0.433262 1.000000 0.054029
0.283959 1.000000 0.449221
0.296916 1.000000 0.140668
0.538193 1.000000 0.345251
0.051815 1.000000 0.636774
0.760381 1.000000 0.235992
0.448535 1.000000 0.359291
0.183673 1.000000 0.665940
0.124044 1.000000 0.765635
0.439739 1.000000 0.046001
0.192187 1.000000 0.665802
0.580198 1.000000 0.106543
0.093168 1.000000 0.291508
0.384888 1.000000 0.148344
0.645350 1.000000 0.339603
0.495173 1.000000 0.112317
0.617217 1.000000 0.354270
0.637400 1.000000 0.172841
0.293066 1.000000 0.578703
0.762680 1.000000 0.232127
0.508818 1.000000 0.266750
0.358123 1.000000 0.264932
0.193085 1.000000 0.677570
0.248026 1.000000 0.414203
0.513352 1.000000 0.080505
0.574473 1.000000 0.328621
0.012207 1.000000 0.624188
0.136677 1.000000 0.808265
0.060457 1.000000 0.762314
0.716261 1.000000 0.078546
0.336180 1.000000 0.218877
0.591532 1.000000 0.074802
0.109308 1.000000 0.672557
0.246670 1.000000 0.110182
0.674438 1.000000 0.046179
0.365797 1.000000 0.152328
0.031101 1.000000 0.801804
0.288057 1.000000 0.219608
0.126789 1.000000 0.553367
0.468488 1.000000 0.227345
0.201239 1.000000 0.187811
0.064715 1.000000 0.696673
0.050395 1.000000 0.567434
0.200722 1.000000 0.538653
0.579430 1.000000 0.303090
0.071290 1.000000 0.667036
0.098446 1.000000 0.163997
0.641082 1.000000 0.178507
0.402341 1.000000 0.279517
0.463308 1.000000 0.166337
0.709164 1.000000 0.143865
0.138136 1.000000 0.657339
0.245738 1.000000 0.187145
0.181661 1.000000 0.195020
0.402487 1.000000 0.582135
0.072766 1.000000 0.759000
0.166078 1.000000 0.684485
0.650150 1.000000 0.063446
0.172735 1.000000 0.415906
0.434702 1.000000 0.541328
0.311280 1.000000 0.238447
0.624593 1.000000 0.065175
0.185678 1.000000 0.806975
0.199502 1.000000 0.056434
0.469636 1.000000 0.283508
0.373229 1.000000 0.574439
0.003148 1.000000 0.713992
0.787613 1.000000 0.041806
0.076966 1.000000 0.129618
0.414063 1.000000 0.360370
0.322479 1.000000 0.511764
0.378300 1.000000 0.128025
0.558254 1.000000 0.265628
0.389028 1.000000 0.510869
0.006807 1.000000 0.076748
0.726994 1.000000 0.140335
0.296722 1.000000 0.225580
0.107046 1.000000 0.217445
0.304189 1.000000 0.320664
0.777873 1.000000 0.105834
0.399173 1.000000 0.497478
0.709002 1.000000 0.193009
0.551593 1.000000 0.429371
0.309614 1.000000 0.565597
0.488085 1.000000 0.492773
0.613386 1.000000 0.201598
0.422682 1.000000 0.125999
0.086702 1.000000 0.430474
0.599972 1.000000 0.091126
0.024540 1.000000 0.634670
0.032050 1.000000 0.314914
0.205761 1.000000 0.298615
0.055244 1.000000 0.218506
0.348132 1.000000 0.061835
0.644646 1.000000 0.176845
0.602754 1.000000 0.211176
0.602987 1.000000 0.164895
0.040985 1.000000 0.420994
0.045925 1.000000 0.807758
0.114585 1.000000 0.803990
0.508684 1.000000 0.425154
0.111108 1.000000 0.615666
0.787016 1.000000 0.184779
0.248823 1.000000 0.453397
0.692716 1.000000 0.078008
0.114854 1.000000 0.639339
0.075351 1.000000 0.389131
0.306412 1.000000 0.562304
0.553712 1.000000 0.300122
0.755503 1.000000 0.222012
0.479418 1.000000 0.468502
0.827633 1.000000 0.108880
0.535191 1.000000 0.391698
0.469619 1.000000 0.183938
0.125564 1.000000 0.692413
0.588661 1.000000 0.087582
0.309502 1.000000 0.507016
0.238796 1.000000 0.118378
0.585309 1.000000 0.129672
0.073697 1.000000 0.283351
0.175898 1.000000 0.049606
0.262329 1.000000 0.619838
0.346500 1.000000 0.587428
0.299443 1.000000 0.493478
0.085342 1.000000 0.835209
0.293729 1.000000 0.208538
0.286863 1.000000 0.421556
0.043120 1.000000 0.740230
0.289486 1.000000 0.696680
0.227500 1.000000 0.188375
0.865150 1.000000 0.053104
0.407022 1.000000 0.220957
0.885189 1.000000 0.098174
0.823410 1.000000 0.103784
0.647356 1.000000 0.141908
0.296447 1.000000 0.101211
0.202751 1.000000 0.178782
0.760122 1.000000 0.189474
0.493952 1.000000 0.221339
0.272656 1.000000 0.545279
0.058166 1.000000 0.557241
0.132244 1.000000 0.766337
0.074946 1.000000 0.346141
0.026498 1.000000 0.557425
0.153153 1.000000 0.731364
0.954597 1.000000 0.044319
0.323667 1.000000 0.407447
0.222951 1.000000 0.479996
0.249508 1.000000 0.120101
0.411756 1.000000 0.364433
0.306783 1.000000 0.255952
0.170812 1.000000 0.524774
0.587914 1.000000 0.405567
0.349533 1.000000 0.317166
0.449759 1.000000 0.365039
0.391256 1.000000 0.384310
0.288084 1.000000 0.247482
0.643349 1.000000 0.245874
0.055276 1.000000 0.284080
0.750712 1.000000 0.162376
0.501696 1.000000 0.306672
0.543126 1.000000 0.236942
0.591052 1.000000 0.219674
0.307747 1.000000 0.091964
0.552519 1.000000 0.056574
0.332988 1.000000 0.235307
0.332791 1.000000 0.479156
0.645318 1.000000 0.324164
0.386129 1.000000 0.583469
0.096088 1.000000 0.206892
0.603599 1.000000 0.341514
0.396469 1.000000 0.381471
0.090992 1.000000 0.593589
0.058256 1.000000 0.199588
0.562867 1.000000 0.211704
0.599387 1.000000 0.077945
0.228552 1.000000 0.760843
0.215738 1.000000 0.530787
0.144090 1.000000 0.463952
0.619925 1.000000 0.358969
0.219172 1.000000 0.722969
0.202936 1.000000 0.302901
0.221605 1.000000 0.642576
0.505835 1.000000 0.186737
0.304108 1.000000 0.502843
0.029350 1.000000 0.488103
0.637095 1.000000 0.052845
0.778656 1.000000 0.167654
0.795936 1.000000 0.188338
0.710032 1.000000 0.128599
0.579284 1.000000 0.132429
0.439507 1.000000 0.215292
0.117156 1.000000 0.105550
0.043739 1.000000 0.343856
0.401526 1.000000 0.197866
0.060237 1.000000 0.502280
0.220659 1.000000 0.629060
0.115018 1.000000 0.419949
0.139933 1.000000 0.791321
0.623672 1.000000 0.298634
0.703793 1.000000 0.211852
0.096994 1.000000 0.740323
0.491205 1.000000 0.397737
0.373610 1.000000 0.488964
0.231469 1.000000 0.264408
0.721946 1.000000 0.243986
0.033913 1.000000 0.469488
0.208293 1.000000 0.387094
0.379817 1.000000 0.477461
0.076563 1.000000 0.723417
0.125519 1.000000 0.409020
0.023138 1.000000 0.507785
0.359564 1.000000 0.381696
0.193209 1.000000 0.511600
0.164338 1.000000 0.667750
0.757287 1.000000 0.114715
0.339580 1.000000 0.558423
0.220290 1.000000 0.256018
0.105875 1.000000 0.675239
0.041235 1.000000 0.677976
0.224706 1.000000 0.179090
0.300368 1.000000 0.136813
0.380269 1.000000 0.288818
0.192815 1.000000 0.400862
0.086915 1.000000 0.139072
0.152470 1.000000 0.475359
0.076511 1.000000 0.550936
0.003323 1.000000 0.536652
0.117500 1.000000 0.463697
0.271347 1.000000 0.524426
0.188536 1.000000 0.681645
0.088715 1.000000 0.346815
0.083573 1.000000 0.727253
0.480277 1.000000 0.504671
0.518534 1.000000 0.122995
0.474705 1.000000 0.362512
0.053169 1.000000 0.687483
0.003668 1.000000 0.861473
0.139035 1.000000 0.454093
0.102660 1.000000 0.770354
0.236625 1.000000 0.715705
0.110733 1.000000 0.804495
0.135975 1.000000 0.710078
0.005595 1.000000 0.498062
0.583325 1.000000 0.063954
0.323172 1.000000 0.284553
0.198568 1.000000 0.794212
0.075290 1.000000 0.352560
0.526212 1.000000 0.428055
0.374917 1.000000 0.379711
0.129705 1.000000 0.097441
0.019484 1.000000 0.193896
0.250104 1.000000 0.355707
0.501861 1.000000 0.109885
0.499463 1.000000 0.422079
0.091866 1.000000 0.471406
0.077011 1.000000 0.558026
0.865693 1.000000 0.066940
0.027301 1.000000 0.525502
0.624013 1.000000 0.271795
0.232255 1.000000 0.234116
0.527950 1.000000 0.321724
0.119015 1.000000 0.564901
0.080943 1.000000 0.442609
0.082632 1.000000 0.738712
0.125188 1.000000 0.217330
0.138070 1.000000 0.463356
0.019332 1.000000 0.492193
0.147138 1.000000 0.752240
0.395875 1.000000 0.575851
0.142972 1.000000 0.450430
0.051374 1.000000 0.831057
0.780505 1.000000 0.216739
0.444410 1.000000 0.108806
0.011649 1.000000 0.093538
0.298586 1.000000 0.458863
0.716121 1.000000 0.108439
0.185303 1.000000 0.059687
0.100835 1.000000 0.496215
0.085548 1.000000 0.673484
0.349671 1.000000 0.640819
0.604654 1.000000 0.116024
0.480761 1.000000 0.399672
0.807955 1.000000 0.049685
0.391127 1.000000 0.404738
0.291319 1.000000 0.238057
0.753623 1.000000 0.117070
0.505863 1.000000 0.492779
0.374599 1.000000 0.516412
0.009438 1.000000 0.269431
0.192239 1.000000 0.571425
0.243661 1.000000 0.631579
0.176309 1.000000 0.657891
0.454467 1.000000 0.409019
0.493587 1.000000 0.232900
0.178017 1.000000 0.214597
0.328244 1.000000 0.422016
0.168922 1.000000 0.731157
0.668319 1.000000 0.179029
0.044247 1.000000 0.238117
0.217582 1.000000 0.113552
0.650343 1.000000 0.305673
0.689280 1.000000 0.193492
0.315956 1.000000 0.559084
0.049386 1.000000 0.821904
0.115728 1.000000 0.365954
0.133428 1.000000 0.110895
0.288645 1.000000 0.660291
0.281279 1.000000 0.142642
0.194446 1.000000 0.168658
0.798774 1.000000 0.109357
0.605486 1.000000 0.144496
0.271092 1.000000 0.400710
0.302320 1.000000 0.223244
0.028089 1.000000 0.575886
0.544536 1.000000 0.135111
0.216170 1.000000 0.320739
0.152013 1.000000 0.371552
0.153283 1.000000 0.454362
0.136643 1.000000 0.086347
0.578119 1.000000 0.113692
0.275297 1.000000 0.471273
0.328445 1.000000 0.400296
0.342920 1.000000 0.603004
0.624501 1.000000 0.315996
0.027871 1.000000 0.421855
0.252031 1.000000 0.591456
0.172829 1.000000 0.367598
0.454632 1.000000 0.233857
0.019171 1.000000 0.557539
0.380621 1.000000 0.084387
0.201778 1.000000 0.236647
0.179538 1.000000 0.684866
0.140127 1.000000 0.195897
0.524091 1.000000 0.118687
0.043921 1.000000 0.116469
0.317471 1.000000 0.184201
0.269139 1.000000 0.486380
0.689232 1.000000 0.300202
0.046745 1.000000 0.299820
0.024903 1.000000 0.642501
0.062743 1.000000 0.241903
0.891328 1.000000 0.040107
0.244965 1.000000 0.476024
0.213554 1.000000 0.368602
0.251493 1.000000 0.288178
0.342847 1.000000 0.215199
0.336598 1.000000 0.435077
0.039773 1.000000 0.562381
0.005234 1.000000 0.059942
0.330322 1.000000 0.245248
0.476922 1.000000 0.080122
0.402937 1.000000 0.288966
0.334703 1.000000 0.153487
0.868820 1.000000 0.093171
0.092417 1.000000 0.608172
0.596233 1.000000 0.135849
0.531410 1.000000 0.093448
0.236608 1.000000 0.607126
0.146021 1.000000 0.171712
0.476940 1.000000 0.444390
0.499787 1.000000 0.224849
0.494638 1.000000 0.286807
0.352358 1.000000 0.269677
0.410781 1.000000 0.335688
0.623704 1.000000 0.107855
0.135832 1.000000 0.224212
0.594110 1.000000 0.179261
0.049652 1.000000 0.415439
0.569508 1.000000 0.253768
0.529141 1.000000 0.256061
0.444604 1.000000 0.518209
0.423895 1.000000 0.124959
0.273145 1.000000 0.350666
0.009862 1.000000 0.664812
0.510928 1.000000 0.220330
0.268698 1.000000 0.346598
0.202685 1.000000 0.626484
0.497818 1.000000 0.094492
0.461170 1.000000 0.317745
0.729560 1.000000 0.207848
0.121324 1.000000 0.463687
0.935733 1.000000 0.051803
0.320721 1.000000 0.188977
0.466042 1.000000 0.071789
0.414251 1.000000 0.480617
0.527150 1.000000 0.181684
0.232823 1.000000 0.269526
0.131485 1.000000 0.696294
0.155621 1.000000 0.454221
0.143059 1.000000 0.489205
0.185083 1.000000 0.212749
0.427916 1.000000 0.319956
0.534216 1.000000 0.250198
0.446346 1.000000 0.213365
0.216583 1.000000 0.556551
0.069581 1.000000 0.815777
0.432137 1.000000 0.393276
0.523506 1.000000 0.351888
0.089474 1.000000 0.585525
0.418780 1.000000 0.143928
0.259859 1.000000 0.056408
0.481924 1.000000 0.304433
0.311237 1.000000 0.149744
0.292158 1.000000 0.542384
0.071491 1.000000 0.496839
0.103384 1.000000 0.651574
0.174275 1.000000 0.239968
0.576139 1.000000 0.158861
0.413353 1.000000 0.583265
0.070877 1.000000 0.343780
0.185018 1.000000 0.065598
0.106968 1.000000 0.834174
0.277436 1.000000 0.195414
0.554604 1.000000 0.434446
0.813144 1.000000 0.123189
0.516141 1.000000 0.053495
0.619285 1.000000 0.102655
0.390815 1.000000 0.178717
0.138030 1.000000 0.082401
0.030712 1.000000 0.197710
0.528864 1.000000 0.212580
0.013783 1.000000 0.663917
0.661948 1.000000 0.320157
0.195048 1.000000 0.685431
0.618483 1.000000 0.125987
0.624914 1.000000 0.246980
0.392745 1.000000 0.109651
0.314378 1.000000 0.152120
0.045627 1.000000 0.834387
0.292073 1.000000 0.054234
0.343931 1.000000 0.074423
0.283597 1.000000 0.553345
0.399474 1.000000 0.271370
0.055110 1.000000 0.827192
0.004213 1.000000 0.806896
0.407869 1.000000 0.095306
0.210307 1.000000 0.081940
0.319862 1.000000 0.440487
0.287215 1.000000 0.521006
0.346591 1.000000 0.064644
0.055680 1.000000 0.461581
0.131219 1.000000 0.104841
0.380635 1.000000 0.144469
0.270402 1.000000 0.048239
0.274571 1.000000 0.265629
0.333732 1.000000 0.456705
0.565757 1.000000 0.101142
0.322865 1.000000 0.614828
0.123553 1.000000 0.264827
0.487127 1.000000 0.071569
0.898333 1.000000 0.069606
0.130279 1.000000 0.232398
0.703477 1.000000 0.155944
0.329609 1.000000 0.225353
0.246302 1.000000 0.741229
0.366142 1.000000 0.481400
0.715204 1.000000 0.163853
0.530100 1.000000 0.101712
0.348305 1.000000 0.133365
0.233502 1.000000 0.445391
0.751819 1.000000 0.220425
0.029678 1.000000 0.067878
0.375781 1.000000 0.180486
0.481325 1.000000 0.322462
0.558725 1.000000 0.048353
0.197435 1.000000 0.397740
0.073731 1.000000 0.532377
0.858783 1.000000 0.057554
0.364730 1.000000 0.174553
0.694669 1.000000 0.231163
0.205333 1.000000 0.484662
0.271763 1.000000 0.528651
0.065405 1.000000 0.457101
0.038145 1.000000 0.591573
0.702221 1.000000 0.158037
0.314956 1.000000 0.141166
0.045519 1.000000 0.337375
0.224474 1.000000 0.561975
0.009391 1.000000 0.308067
0.624198 1.000000 0.045623
0.064385 1.000000 0.263420
0.503103 1.000000 0.327738
0.513201 1.000000 0.264398
0.676277 1.000000 0.149202
0.366534 1.000000 0.446418
0.155732 1.000000 0.387571
0.172967 1.000000 0.224268
0.335152 1.000000 0.609894
0.702399 1.000000 0.141441
0.139491 1.000000 0.363134
0.354851 1.000000 0.430050
0.411144 1.000000 0.177879
0.074840 1.000000 0.698868
0.567660 1.000000 0.361175
0.061484 1.000000 0.712950
0.353515 1.000000 0.437452
0.064290 1.000000 0.748612
0.516691 1.000000 0.247276
0.619943 1.000000 0.338137
0.348384 1.000000 0.414154
0.680323 1.000000 0.068184
0.640338 1.000000 0.196003
0.562127 1.000000 0.042996
0.538441 1.000000 0.352884
0.174338 1.000000 0.209263
0.209914 1.000000 0.186841
0.004751 1.000000 0.781872
0.193994 1.000000 0.762562
0.011011 1.000000 0.163958
0.032112 1.000000 0.570582
0.043143 1.000000 0.524865
0.157380 1.000000 0.234987
0.030521 1.000000 0.397933
0.411983 1.000000 0.379686
0.784888 1.000000 0.182405
0.187668 1.000000 0.393276
0.467851 1.000000 0.345952
0.115850 1.000000 0.663074
0.527922 1.000000 0.446745
0.289248 1.000000 0.606481
0.151357 1.000000 0.610589
0.209598 1.000000 0.386836
0.412572 1.000000 0.346411
0.088182 1.000000 0.807801
0.042515 1.000000 0.052947
0.744106 1.000000 0.054814
0.093799 1.000000 0.536215
0.228386 1.000000 0.517164
0.577147 1.000000 0.236746
0.644587 1.000000 0.165876
0.552810 1.000000 0.178850
0.683377 1.000000 0.047954
0.041323 1.000000 0.528638
0.131649 1.000000 0.306885
0.311939 1.000000 0.395335
0.124594 1.000000 0.221586
0.233933 1.000000 0.719158
