0.000000 0.964739 0.956265
0.000000 0.963104 0.961882
0.000000 0.962385 0.958313
0.000000 0.965512 0.959672
1.000000 0.618029 0.994854
1.000000 0.848018 0.985493
1.000000 0.454322 0.962104
1.000000 0.764688 0.993094
1.000000 0.693308 0.999559
1.000000 0.330547 0.983678
1.000000 0.348351 0.963244
1.000000 0.790649 0.971146
1.000000 0.378544 0.972670
1.000000 0.831501 0.992734
1.000000 0.877699 0.985922
1.000000 0.541800 0.996021
1.000000 0.843733 0.961970
1.000000 0.852100 0.991844
1.000000 0.749172 0.997824
1.000000 0.544173 0.986149
1.000000 0.809154 0.967066
1.000000 0.416051 0.970546
1.000000 0.632096 0.996795
1.000000 0.684870 0.968839
1.000000 0.367058 0.977222
1.000000 0.370549 0.994977
1.000000 0.473209 0.975961
1.000000 0.349619 0.968009
1.000000 0.958311 0.995704
1.000000 0.462150 0.982770
1.000000 0.700819 0.964382
1.000000 0.395449 0.966092
1.000000 0.641390 0.959583
1.000000 0.613112 0.982326
1.000000 0.758546 0.968534
1.000000 0.447167 0.982230
1.000000 0.591076 0.998709
1.000000 0.550697 0.982121
1.000000 0.370893 0.966041
1.000000 0.644617 0.970157
1.000000 0.502664 0.993661
1.000000 0.411032 0.971581
1.000000 0.448675 0.959310
1.000000 0.907570 0.996978
1.000000 0.428458 0.997059
1.000000 0.693500 0.993936
1.000000 0.783638 0.987114
1.000000 0.755913 0.978720
1.000000 0.945266 0.960351
1.000000 0.388769 0.973545
1.000000 0.452853 0.963551
1.000000 0.430494 0.971177
1.000000 0.780263 0.994381
1.000000 0.484461 0.965396
1.000000 0.692679 0.998944
1.000000 0.720333 0.957988
1.000000 0.436028 0.981663
1.000000 0.818857 0.997270
1.000000 0.749461 0.991255
1.000000 0.426334 0.992390
1.000000 0.383954 0.974041
1.000000 0.591489 0.978121
1.000000 0.621090 0.977186
1.000000 0.603581 0.962591
1.000000 0.652139 0.960876
1.000000 0.410454 0.980783
1.000000 0.758654 0.968288
1.000000 0.942394 0.973617
1.000000 0.435207 0.988811
1.000000 0.481866 0.993236
1.000000 0.438510 0.972363
1.000000 0.486323 0.969668
1.000000 0.427615 0.990700
1.000000 0.704082 0.964474
1.000000 0.449970 0.991168
1.000000 0.721459 0.961582
1.000000 0.960222 0.986467
1.000000 0.790139 0.957381
1.000000 0.706424 0.964970
1.000000 0.402077 0.960708
1.000000 0.874845 0.977821
1.000000 0.482926 0.994488
1.000000 0.759784 0.963176
1.000000 0.468842 0.964038
1.000000 0.632353 0.992579
1.000000 0.908614 0.973187
1.000000 0.527733 0.986292
1.000000 0.739015 0.967206
1.000000 0.640629 0.987809
1.000000 0.387928 0.996713
1.000000 0.873899 0.986601
1.000000 0.674350 0.988893
1.000000 0.839856 0.965162
1.000000 0.941353 0.964269
1.000000 0.408637 0.970125
1.000000 0.471063 0.995059
1.000000 0.417853 0.998973
1.000000 0.360024 0.988647
1.000000 0.749013 0.994160
1.000000 0.885099 0.966542
1.000000 0.410841 0.959327
1.000000 0.680500 0.967092
1.000000 0.758690 0.967416
1.000000 0.666766 0.975270
1.000000 0.764929 0.989159
1.000000 0.422058 0.990590
1.000000 0.576001 0.969553
1.000000 0.651151 0.961427
1.000000 0.483959 0.987938
1.000000 0.707731 0.968626
1.000000 0.686661 0.999790
1.000000 0.515441 0.958783
1.000000 0.897006 0.989347
1.000000 0.721693 0.980871
1.000000 0.953401 0.964786
1.000000 0.747028 0.974423
1.000000 0.542939 0.964307
1.000000 0.440554 0.991228
1.000000 0.959875 0.957442
1.000000 0.755986 0.971372
1.000000 0.860607 0.995411
1.000000 0.696152 0.980501
1.000000 0.330581 0.984025
1.000000 0.621403 0.985020
1.000000 0.721849 0.956845
1.000000 0.368658 0.983632
1.000000 0.631726 0.971553
1.000000 0.515986 0.960913
1.000000 0.482936 0.992487
1.000000 0.347481 0.994714
1.000000 0.600868 0.990986
1.000000 0.722901 0.994116
1.000000 0.518183 0.965885
1.000000 0.429331 0.993147
1.000000 0.415286 0.997798
1.000000 0.900420 0.970786
1.000000 0.430687 0.977427
1.000000 0.694541 0.981614
1.000000 0.689465 0.956132
1.000000 0.598466 0.966518
1.000000 0.933021 0.977739
1.000000 0.715814 0.987257
1.000000 0.871930 0.980482
1.000000 0.853271 0.963384
1.000000 0.846372 0.979017
1.000000 0.954688 0.983640
1.000000 0.673253 0.986268
1.000000 0.807713 0.970388
1.000000 0.681917 0.995144
1.000000 0.430989 0.997312
1.000000 0.965501 0.959797
1.000000 0.542388 0.963571
1.000000 0.351527 0.989949
1.000000 0.460375 0.960761
1.000000 0.634031 0.996454
1.000000 0.612642 0.991981
1.000000 0.484359 0.993394
1.000000 0.949391 0.963246
1.000000 0.673903 0.995648
1.000000 0.426740 0.965842
1.000000 0.412599 0.965836
1.000000 0.703217 0.978718
1.000000 0.359961 0.998444
1.000000 0.902746 0.998538
1.000000 0.700368 0.988361
1.000000 0.734956 0.991274
1.000000 0.855240 0.969521
1.000000 0.869622 0.975679
1.000000 0.480494 0.958163
1.000000 0.536709 0.990459
1.000000 0.516788 0.985222
1.000000 0.541379 0.968781
1.000000 0.745549 0.983057
1.000000 0.921217 0.997091
1.000000 0.887367 0.978704
1.000000 0.711602 0.989897
1.000000 0.477964 0.970052
1.000000 0.947952 0.992678
1.000000 0.701105 0.998869
1.000000 0.569079 0.984099
1.000000 0.445226 0.998072
1.000000 0.368684 0.958977
1.000000 0.679843 0.970523
1.000000 0.579052 0.958326
1.000000 0.544614 0.988786
1.000000 0.447079 0.959135
1.000000 0.429511 0.963920
1.000000 0.603210 0.978428
1.000000 0.398710 0.972501
1.000000 0.531668 0.974530
1.000000 0.768514 0.978162
1.000000 0.903232 0.969380
1.000000 0.601912 0.967745
1.000000 0.390250 0.966529
1.000000 0.503076 0.977664
1.000000 0.937628 0.966125
1.000000 0.378527 0.982344
1.000000 0.832112 0.978802
1.000000 0.542807 0.966350
1.000000 0.411705 0.982492
1.000000 0.566992 0.959470
1.000000 0.782241 0.975391
1.000000 0.834635 0.958820
1.000000 0.712946 0.957224
1.000000 0.433778 0.985406
1.000000 0.932204 0.970670
1.000000 0.403087 0.973035
1.000000 0.726390 0.999567
1.000000 0.441287 0.970414
1.000000 0.509014 0.982385
1.000000 0.572598 0.988408
1.000000 0.642855 0.999947
1.000000 0.369118 0.959161
1.000000 0.738955 0.969620
1.000000 0.803142 0.961824
1.000000 0.832897 0.968579
1.000000 0.794764 0.973200
1.000000 0.602046 0.970929
1.000000 0.339472 0.963250
1.000000 0.435968 0.977144
1.000000 0.952960 0.977104
1.000000 0.676088 0.995028
1.000000 0.649743 0.969052
1.000000 0.743237 0.974867
1.000000 0.386645 0.965218
1.000000 0.945907 0.997156
1.000000 0.518064 0.976489
1.000000 0.731865 0.983533
1.000000 0.639073 0.990180
1.000000 0.655812 0.980883
1.000000 0.928883 0.959601
1.000000 0.443838 0.984932
1.000000 0.350024 0.982856
1.000000 0.619702 0.991963
1.000000 0.715167 0.993051
1.000000 0.841185 0.996561
1.000000 0.622366 0.958623
1.000000 0.463210 0.977947
1.000000 0.798661 0.964486
1.000000 0.586226 0.956253
1.000000 0.761550 0.982588
1.000000 0.631227 0.960400
1.000000 0.608193 0.981237
1.000000 0.442622 0.984621
1.000000 0.867958 0.975390
1.000000 0.769457 0.978877
1.000000 0.552989 0.983795
1.000000 0.823432 0.995577
1.000000 0.565547 0.990780
1.000000 0.735090 0.976395
1.000000 0.671619 0.992048
1.000000 0.419882 0.997867
1.000000 0.713937 0.958407
1.000000 0.655609 0.990030
1.000000 0.926810 0.968342
1.000000 0.953173 0.992403
1.000000 0.634319 0.992689
1.000000 0.511001 0.980320
1.000000 0.687212 0.973839
1.000000 0.775918 0.972172
1.000000 0.414974 0.967410
1.000000 0.399177 0.963412
1.000000 0.417716 0.985289
1.000000 0.900717 0.970350
1.000000 0.963277 0.966184
1.000000 0.549753 0.965331
1.000000 0.416858 0.959302
1.000000 0.689741 0.987997
1.000000 0.632769 0.999285
1.000000 0.565114 0.998623
1.000000 0.773347 0.995422
1.000000 0.711431 0.991794
1.000000 0.789736 0.963375
1.000000 0.630539 0.962167
1.000000 0.466358 0.964082
1.000000 0.591195 0.979576
1.000000 0.583313 0.988643
1.000000 0.767215 0.967561
1.000000 0.867757 0.986321
1.000000 0.368313 0.989122
1.000000 0.695307 0.984290
1.000000 0.809734 0.998614
1.000000 0.668886 0.980916
1.000000 0.360096 0.961720
1.000000 0.551407 0.979283
1.000000 0.952486 0.963708
1.000000 0.745241 0.978465
1.000000 0.565665 0.972153
1.000000 0.387600 0.990878
1.000000 0.511642 0.965503
1.000000 0.559997 0.975112
1.000000 0.355071 0.998929
1.000000 0.595534 0.969772
1.000000 0.731966 0.996143
1.000000 0.334756 0.969665
1.000000 0.903157 0.957705
1.000000 0.643522 0.996183
1.000000 0.508783 0.996708
1.000000 0.445840 0.963814
1.000000 0.380739 0.972151
1.000000 0.647318 0.961236
1.000000 0.629713 0.974882
1.000000 0.622918 0.983567
1.000000 0.649728 0.975295
1.000000 0.801891 0.956466
1.000000 0.758601 0.957295
1.000000 0.770142 0.968529
1.000000 0.776549 0.986025
1.000000 0.463079 0.999844
1.000000 0.651398 0.976654
1.000000 0.823060 0.958583
1.000000 0.523591 0.967767
1.000000 0.361756 0.986355
1.000000 0.327073 0.990510
1.000000 0.835551 0.957349
1.000000 0.647279 0.960508
1.000000 0.464851 0.958290
1.000000 0.366478 0.962665
1.000000 0.556848 0.988922
1.000000 0.593961 0.973561
1.000000 0.432507 0.964981
1.000000 0.712554 0.982699
1.000000 0.684535 0.993694
1.000000 0.578088 0.974594
1.000000 0.658641 0.986262
1.000000 0.579574 0.957812
1.000000 0.700862 0.990570
1.000000 0.894541 0.959440
1.000000 0.930457 0.969775
1.000000 0.593411 0.996579
1.000000 0.671031 0.968740
1.000000 0.756590 0.968862
1.000000 0.517046 0.971480
1.000000 0.711090 0.976749
1.000000 0.494080 0.966812
1.000000 0.644698 0.988083
1.000000 0.357435 0.993212
1.000000 0.916379 0.964912
1.000000 0.737073 0.980072
1.000000 0.701120 0.974749
1.000000 0.872144 0.973007
1.000000 0.617457 0.997521
1.000000 0.943824 0.993952
1.000000 0.858188 0.996647
1.000000 0.367155 0.993190
1.000000 0.580720 0.976195
1.000000 0.624043 0.961391
1.000000 0.361098 0.985065
1.000000 0.882216 0.965592
1.000000 0.354178 0.964619
1.000000 0.900072 0.998079
1.000000 0.763600 0.956103
1.000000 0.553781 0.978871
1.000000 0.564968 0.980299
1.000000 0.358213 0.975616
1.000000 0.663333 0.957534
1.000000 0.833544 0.970451
1.000000 0.761231 0.958616
1.000000 0.597465 0.976999
1.000000 0.612931 0.995088
1.000000 0.646633 0.980558
1.000000 0.701639 0.971089
1.000000 0.740004 0.987804
1.000000 0.935342 0.987884
1.000000 0.354341 0.969639
1.000000 0.535242 0.974223
1.000000 0.598585 0.998744
1.000000 0.479724 0.977595
1.000000 0.528543 0.995564
1.000000 0.879427 0.965365
1.000000 0.426473 0.986563
1.000000 0.490505 0.998523
1.000000 0.781595 0.957725
1.000000 0.623326 0.963088
1.000000 0.449834 0.990659
1.000000 0.727866 0.983621
1.000000 0.513612 0.983158
1.000000 0.605945 0.984667
1.000000 0.474226 0.973048
1.000000 0.651106 0.990848
1.000000 0.612689 0.997296
1.000000 0.528056 0.969879
1.000000 0.700433 0.960947
1.000000 0.454402 0.975733
1.000000 0.686412 0.992773
1.000000 0.325787 0.982583
1.000000 0.494748 0.971621
1.000000 0.542614 0.967788
1.000000 0.711327 0.977393
1.000000 0.706300 0.976096
1.000000 0.520406 0.996785
1.000000 0.899472 0.979270
1.000000 0.689650 0.969770
1.000000 0.942475 0.991525
1.000000 0.912891 0.964307
1.000000 0.542505 0.995471
1.000000 0.934557 0.970377
1.000000 0.732280 0.960656
1.000000 0.426908 0.985152
1.000000 0.928254 0.986778
1.000000 0.509426 0.966359
1.000000 0.721065 0.985562
1.000000 0.397118 0.970161
1.000000 0.337830 0.977493
1.000000 0.801248 0.991416
1.000000 0.522745 0.980875
1.000000 0.549004 0.968786
1.000000 0.756628 0.971198
1.000000 0.890623 0.966676
1.000000 0.347511 0.958970
1.000000 0.496738 0.972806
1.000000 0.580299 0.962575
1.000000 0.917296 0.956512
1.000000 0.901732 0.964153
1.000000 0.661887 0.984155
1.000000 0.535747 0.997522
1.000000 0.854221 0.974924
1.000000 0.857803 0.970984
1.000000 0.762096 0.964362
1.000000 0.414610 0.977163
1.000000 0.763218 0.990834
1.000000 0.526385 0.985594
1.000000 0.893064 0.960795
1.000000 0.780145 0.985428
1.000000 0.472311 0.963243
1.000000 0.430524 0.973328
1.000000 0.923464 0.965187
1.000000 0.767574 0.977044
1.000000 0.664393 0.992941
1.000000 0.793476 0.957123
1.000000 0.749470 0.983088
1.000000 0.710885 0.969401
1.000000 0.575151 0.964341
1.000000 0.468292 0.970326
1.000000 0.484433 0.997605
1.000000 0.464929 0.972157
1.000000 0.337666 0.984468
1.000000 0.799491 0.999515
1.000000 0.777705 0.967227
1.000000 0.712245 0.960554
1.000000 0.550424 0.989246
1.000000 0.685038 0.976193
1.000000 0.676585 0.971438
1.000000 0.632913 0.987850
1.000000 0.784611 0.979716
1.000000 0.379786 0.974316
1.000000 0.692780 0.970542
1.000000 0.808962 0.985630
1.000000 0.825486 0.990303
1.000000 0.386661 0.992295
1.000000 0.414164 0.967834
1.000000 0.579119 0.998939
1.000000 0.597033 0.959517
1.000000 0.370884 0.965148
1.000000 0.353540 0.988991
1.000000 0.675171 0.963178
1.000000 0.533411 0.983832
1.000000 0.706236 0.974741
1.000000 0.535753 0.994682
1.000000 0.400713 0.980439
1.000000 0.485439 0.996612
1.000000 0.438983 0.961338
1.000000 0.590078 0.980963
1.000000 0.370139 0.995350
1.000000 0.564621 0.969195
1.000000 0.898231 0.964364
1.000000 0.642876 0.960334
1.000000 0.439900 0.967456
1.000000 0.771148 0.991800
1.000000 0.471589 0.977501
1.000000 0.712131 0.959420
1.000000 0.940760 0.980851
1.000000 0.757637 0.990341
1.000000 0.627913 0.965105
1.000000 0.867660 0.974142
1.000000 0.485460 0.983220
1.000000 0.519305 0.999222
1.000000 0.589790 0.976378
1.000000 0.645970 0.967533
1.000000 0.395979 0.977773
1.000000 0.751805 0.983024
1.000000 0.721579 0.974280
1.000000 0.510760 0.970183
1.000000 0.384175 0.978723
1.000000 0.366024 0.983694
1.000000 0.449172 0.996270
1.000000 0.719382 0.997330
1.000000 0.560460 0.982815
1.000000 0.876369 0.968228
1.000000 0.441414 0.994508
1.000000 0.366218 0.990212
1.000000 0.381654 0.968384
1.000000 0.682691 0.978489
1.000000 0.458437 0.987608
1.000000 0.750268 0.976837
1.000000 0.471819 0.961751
1.000000 0.508976 0.970795
1.000000 0.921989 0.959517
1.000000 0.786569 0.967851
1.000000 0.452242 0.962303
1.000000 0.419006 0.978752
1.000000 0.842152 0.968135
1.000000 0.708134 0.991484
1.000000 0.399966 0.969706
1.000000 0.722944 0.999113
1.000000 0.406629 0.977247
1.000000 0.530864 0.963408
1.000000 0.690106 0.962741
1.000000 0.716834 0.976476
1.000000 0.869615 0.974617
1.000000 0.456803 0.970354
1.000000 0.853155 0.968869
1.000000 0.538926 0.982035
1.000000 0.342879 0.982011
1.000000 0.827436 0.994147
1.000000 0.705881 0.959999
1.000000 0.564923 0.956757
1.000000 0.631691 0.998265
1.000000 0.587119 0.969904
1.000000 0.822500 0.964909
1.000000 0.958574 0.958738
1.000000 0.580304 0.964977
1.000000 0.416690 0.989153
1.000000 0.797828 0.996755
1.000000 0.907986 0.992966
1.000000 0.801315 0.999797
1.000000 0.396009 0.969728
1.000000 0.719662 0.974462
1.000000 0.772322 0.963158
1.000000 0.407790 0.975075
1.000000 0.376439 0.964601
1.000000 0.718195 0.993785
1.000000 0.642907 0.972884
1.000000 0.564897 0.978360
1.000000 0.833267 0.968765
1.000000 0.584627 0.982384
1.000000 0.515670 0.971309
1.000000 0.920721 0.975425
1.000000 0.847202 0.963452
1.000000 0.597985 0.985602
1.000000 0.887074 0.983261
1.000000 0.945592 0.988733
1.000000 0.706128 0.961057
1.000000 0.754124 0.972577
1.000000 0.797145 0.991386
1.000000 0.582896 0.975562
1.000000 0.592709 0.993190
1.000000 0.448863 0.990923
1.000000 0.361870 0.993351
1.000000 0.753786 0.981968
1.000000 0.814742 0.993846
1.000000 0.471740 0.990192
1.000000 0.572147 0.970139
1.000000 0.438166 0.964824
1.000000 0.747894 0.986609
1.000000 0.594972 0.988752
1.000000 0.529919 0.988645
1.000000 0.550923 0.971932
1.000000 0.767279 0.995104
1.000000 0.812064 0.998866
1.000000 0.374416 0.960078
1.000000 0.362130 0.966616
1.000000 0.928486 0.974543
1.000000 0.805113 0.982242
1.000000 0.453674 0.985724
1.000000 0.962038 0.964065
1.000000 0.840106 0.977424
1.000000 0.955819 0.969127
1.000000 0.612530 0.967019
1.000000 0.957986 0.991656
1.000000 0.355916 0.997376
1.000000 0.493290 0.997466
1.000000 0.433776 0.980849
1.000000 0.666054 0.982113
1.000000 0.353337 0.984411
1.000000 0.699421 0.993246
1.000000 0.956909 0.992519
1.000000 0.371784 0.997117
1.000000 0.869958 0.975707
1.000000 0.748076 0.991751
1.000000 0.817525 0.991327
1.000000 0.942544 0.964999
1.000000 0.722846 0.959104
1.000000 0.829186 0.978537
1.000000 0.402184 0.995756
1.000000 0.689928 0.991132
1.000000 0.378385 0.965986
1.000000 0.537563 0.957170
1.000000 0.387212 0.976623
1.000000 0.960739 0.965802
1.000000 0.424535 0.996285
1.000000 0.871944 0.964852
1.000000 0.612663 0.979727
1.000000 0.759308 0.987237
1.000000 0.360307 0.996908
1.000000 0.783331 0.977029
1.000000 0.506380 0.975844
1.000000 0.797558 0.991010
1.000000 0.810378 0.983580
1.000000 0.926126 0.964241
1.000000 0.348374 0.959766
1.000000 0.761000 0.991901
1.000000 0.332543 0.965536
1.000000 0.486651 0.979105
1.000000 0.689471 0.963381
1.000000 0.334239 0.979081
1.000000 0.532095 0.965973
1.000000 0.352433 0.978288
1.000000 0.905256 0.981404
1.000000 0.876184 0.987471
1.000000 0.815094 0.982867
1.000000 0.559131 0.960561
1.000000 0.927516 0.985569
1.000000 0.694930 0.993293
1.000000 0.642398 0.993423
1.000000 0.476481 0.988450
1.000000 0.472956 0.983710
1.000000 0.470956 0.979126
1.000000 0.480746 0.959468
1.000000 0.545545 0.970111
1.000000 0.965411 0.987233
1.000000 0.637403 0.981192
1.000000 0.923818 0.970070
1.000000 0.548009 0.973930
1.000000 0.846487 0.985449
1.000000 0.452575 0.991913
1.000000 0.381884 0.992237
1.000000 0.658291 0.990987
1.000000 0.485069 0.989845
1.000000 0.687974 0.981676
1.000000 0.619066 0.983214
1.000000 0.690269 0.988197
1.000000 0.875698 0.982272
1.000000 0.515440 0.965661
1.000000 0.598064 0.972713
1.000000 0.674004 0.973227
1.000000 0.581526 0.961481
1.000000 0.749051 0.964458
1.000000 0.965014 0.993847
1.000000 0.544776 0.960381
1.000000 0.543161 0.969913
1.000000 0.678460 0.961884
1.000000 0.640167 0.970783
1.000000 0.945843 0.971129
1.000000 0.450575 0.979506
1.000000 0.325251 0.997303
1.000000 0.555793 0.961870
1.000000 0.951539 0.963765
1.000000 0.745474 0.960868
1.000000 0.489665 0.962212
1.000000 0.527853 0.964733
1.000000 0.657159 0.971592
1.000000 0.399531 0.998565
1.000000 0.856129 0.958876
1.000000 0.344353 0.968796
1.000000 0.911677 0.981290
1.000000 0.453660 0.997548
1.000000 0.769366 0.976955
1.000000 0.702166 0.990831
1.000000 0.479191 0.978805
1.000000 0.525686 0.962574
1.000000 0.713687 0.986212
1.000000 0.491265 0.986377
1.000000 0.557445 0.957153
1.000000 0.844029 0.986094
1.000000 0.426160 0.973729
1.000000 0.768268 0.992471
1.000000 0.333777 0.970806
1.000000 0.421987 0.996706
1.000000 0.487764 0.994815
1.000000 0.712550 0.984820
1.000000 0.727848 0.994380
1.000000 0.783650 0.976723
1.000000 0.528021 0.993975
1.000000 0.510336 0.968636
1.000000 0.345493 0.998317
1.000000 0.925621 0.986879
1.000000 0.617759 0.980642
1.000000 0.899732 0.966267
1.000000 0.520937 0.961734
1.000000 0.610103 0.978696
1.000000 0.449862 0.988607
1.000000 0.889731 0.978226
1.000000 0.937058 0.986239
1.000000 0.408805 0.958005
1.000000 0.804519 0.975514
1.000000 0.882693 0.978378
1.000000 0.680642 0.959926
1.000000 0.542884 0.985594
1.000000 0.695690 0.969384
1.000000 0.712226 0.985952
1.000000 0.901322 0.978316
1.000000 0.665779 0.995949
1.000000 0.735223 0.978616
1.000000 0.823984 0.957067
1.000000 0.455291 0.983381
1.000000 0.459259 0.960803
1.000000 0.388009 0.998018
1.000000 0.896995 0.971071
1.000000 0.846092 0.972536
1.000000 0.432510 0.957482
1.000000 0.375829 0.975160
1.000000 0.929846 0.995238
1.000000 0.538198 0.956011
1.000000 0.886710 0.981797
1.000000 0.783427 0.982553
1.000000 0.727206 0.965198
1.000000 0.749134 0.982716
1.000000 0.328322 0.989885
1.000000 0.730816 0.985974
1.000000 0.623975 0.983196
1.000000 0.851440 0.985022
1.000000 0.688457 0.992611
1.000000 0.451229 0.966872
1.000000 0.432436 0.967324
1.000000 0.743630 0.970902
1.000000 0.443247 0.977463
1.000000 0.722225 0.991231
1.000000 0.705263 0.988026
1.000000 0.856138 0.989416
1.000000 0.880586 0.982911
1.000000 0.927099 0.957787
1.000000 0.500867 0.993846
1.000000 0.391258 0.967760
1.000000 0.905519 0.975351
1.000000 0.839098 0.985073
1.000000 0.495292 0.970699
1.000000 0.809391 0.990610
1.000000 0.659289 0.957180
1.000000 0.647872 0.990929
1.000000 0.642776 0.980338
1.000000 0.444747 0.978412
1.000000 0.632564 0.999499
1.000000 0.642815 0.984242
1.000000 0.348952 0.975364
1.000000 0.720779 0.985005
1.000000 0.502985 0.964531
1.000000 0.337214 0.977233
1.000000 0.937707 0.993055
1.000000 0.864363 0.993624
1.000000 0.610098 0.958087
1.000000 0.676117 0.964890
1.000000 0.433040 0.998793
1.000000 0.684916 0.988238
1.000000 0.955909 0.971014
1.000000 0.340145 0.998814
1.000000 0.830119 0.964243
1.000000 0.545873 0.981042
1.000000 0.902883 0.991855
1.000000 0.690155 0.976535
1.000000 0.664449 0.978368
1.000000 0.637127 0.973879
1.000000 0.586176 0.962389
1.000000 0.626015 0.994035
1.000000 0.469473 0.987718
1.000000 0.596493 0.978545
1.000000 0.513086 0.988660
1.000000 0.694200 0.990648
1.000000 0.906558 0.981165
1.000000 0.786864 0.967666
1.000000 0.835197 0.983888
1.000000 0.445090 0.956145
1.000000 0.745937 0.965702
1.000000 0.643999 0.995502
1.000000 0.331430 0.968039
1.000000 0.734728 0.959899
1.000000 0.640029 0.977930
1.000000 0.796751 0.987529
1.000000 0.488267 0.997400
1.000000 0.472842 0.982116
1.000000 0.395357 0.973085
1.000000 0.332221 0.984610
1.000000 0.475678 0.969350
1.000000 0.860691 0.990407
1.000000 0.870557 0.958173
1.000000 0.700701 0.968617
1.000000 0.707537 0.979302
1.000000 0.623668 0.966498
1.000000 0.807682 0.973717
1.000000 0.834647 0.958019
1.000000 0.495354 0.959329
1.000000 0.357906 0.980979
1.000000 0.476501 0.969810
1.000000 0.944655 0.966629
1.000000 0.664402 0.991738
1.000000 0.643983 0.966285
1.000000 0.336727 0.995119
1.000000 0.793986 0.972895
1.000000 0.916363 0.977567
1.000000 0.833362 0.982020
1.000000 0.962900 0.956907
1.000000 0.573822 0.999462
1.000000 0.552025 0.970726
1.000000 0.673876 0.978189
1.000000 0.731578 0.972626
1.000000 0.763667 0.981757
1.000000 0.611356 0.968599
1.000000 0.385391 0.980623
1.000000 0.759670 0.982500
1.000000 0.873472 0.967822
1.000000 0.718679 0.984235
1.000000 0.854926 0.995790
1.000000 0.364440 0.965108
1.000000 0.474537 0.970254
1.000000 0.738325 0.991101
1.000000 0.429786 0.966796
1.000000 0.823962 0.965054
1.000000 0.656743 0.994493
1.000000 0.346795 0.989351
1.000000 0.871220 0.965375
1.000000 0.396633 0.970991
1.000000 0.932234 0.996680
1.000000 0.662974 0.966111
1.000000 0.752502 0.957008
1.000000 0.463224 0.960747
1.000000 0.687168 0.976375
1.000000 0.842285 0.995755
1.000000 0.526230 0.978791
1.000000 0.845804 0.992072
1.000000 0.502528 0.984893
1.000000 0.455495 0.979051
1.000000 0.963352 0.958987
1.000000 0.494295 0.984054
1.000000 0.773113 0.988764
1.000000 0.549948 0.974316
1.000000 0.822753 0.975872
1.000000 0.651457 0.963773
1.000000 0.345679 0.985674
1.000000 0.363218 0.993015
1.000000 0.408984 0.981073
1.000000 0.807688 0.983517
1.000000 0.471014 0.966203
1.000000 0.825210 0.964124
1.000000 0.933768 0.976928
1.000000 0.888379 0.998706
1.000000 0.779556 0.972623
1.000000 0.954166 0.978066
1.000000 0.820608 0.966611
1.000000 0.773065 0.966333
1.000000 0.677589 0.969728
1.000000 0.945546 0.981882
1.000000 0.465235 0.975156
1.000000 0.801095 0.979384
1.000000 0.927148 0.990336
1.000000 0.923541 0.980855
1.000000 0.595082 0.978731
1.000000 0.584904 0.991250
1.000000 0.955627 0.976270
1.000000 0.687771 0.990682
1.000000 0.666875 0.988485
1.000000 0.475942 0.963798
1.000000 0.439480 0.978100
1.000000 0.699361 0.975995
1.000000 0.689049 0.959626
1.000000 0.334178 0.967721
1.000000 0.509211 0.963113
1.000000 0.657099 0.978387
1.000000 0.426175 0.988327
1.000000 0.740683 0.979829
1.000000 0.667030 0.986431
1.000000 0.862685 0.991793
1.000000 0.467636 0.995955
1.000000 0.703180 0.985860
1.000000 0.926936 0.984904
1.000000 0.564935 0.957237
1.000000 0.477377 0.981450
1.000000 0.902017 0.974692
1.000000 0.647499 0.966524
1.000000 0.807876 0.977546
1.000000 0.432721 0.969887
1.000000 0.638524 0.968477
1.000000 0.518562 0.958147
1.000000 0.627303 0.959374
1.000000 0.562607 0.987147
1.000000 0.447176 0.990878
1.000000 0.659939 0.971975
1.000000 0.402302 0.985186
1.000000 0.713922 0.980421
1.000000 0.448185 0.970943
1.000000 0.931168 0.989988
1.000000 0.951655 0.957699
1.000000 0.649792 0.986607
1.000000 0.850749 0.983109
1.000000 0.540326 0.974294
1.000000 0.899202 0.999148
1.000000 0.752556 0.958253
1.000000 0.534299 0.976088
1.000000 0.347651 0.975300
1.000000 0.714639 0.963099
1.000000 0.444414 0.967897
1.000000 0.907515 0.964049
1.000000 0.676452 0.993029
1.000000 0.402518 0.989888
1.000000 0.459786 0.959970
1.000000 0.356606 0.997964
1.000000 0.828271 0.981751
1.000000 0.348527 0.962017
1.000000 0.891228 0.990532
1.000000 0.461884 0.966437
1.000000 0.532873 0.971039
1.000000 0.702631 0.991750
1.000000 0.522290 0.968773
1.000000 0.538158 0.998939
1.000000 0.640826 0.990552
1.000000 0.951875 0.982172
1.000000 0.435861 0.972184
1.000000 0.533649 0.968958
1.000000 0.498955 0.986453
1.000000 0.438139 0.993113
1.000000 0.741418 0.963489
1.000000 0.625529 0.990001
1.000000 0.364840 0.996696
1.000000 0.404706 0.958750
1.000000 0.644887 0.994214
1.000000 0.697607 0.997184
1.000000 0.432450 0.981054
1.000000 0.646403 0.962121
1.000000 0.734932 0.958312
1.000000 0.591791 0.979792
1.000000 0.681845 0.958030
1.000000 0.712689 0.971395
1.000000 0.663745 0.978753
1.000000 0.474306 0.956460
1.000000 0.635540 0.978898
1.000000 0.369712 0.963423
1.000000 0.931113 0.978968
1.000000 0.505890 0.993143
1.000000 0.439715 0.958592
1.000000 0.780471 0.990604
1.000000 0.337742 0.984933
1.000000 0.686611 0.994415
1.000000 0.781806 0.994527
1.000000 0.418553 0.967615
1.000000 0.458980 0.985047
1.000000 0.917152 0.988550
1.000000 0.684487 0.994993
1.000000 0.851246 0.961463
1.000000 0.898774 0.965362
1.000000 0.547413 0.960684
1.000000 0.847806 0.999370
1.000000 0.628971 0.991767
1.000000 0.614718 0.988747
1.000000 0.486197 0.983195
1.000000 0.612564 0.983919
1.000000 0.759511 0.996452
1.000000 0.910667 0.962123
1.000000 0.504753 0.979318
1.000000 0.538823 0.985753
1.000000 0.698130 0.962900
1.000000 0.491028 0.958566
1.000000 0.467500 0.971463
1.000000 0.776651 0.956983
1.000000 0.937006 0.973396
1.000000 0.849530 0.989487
1.000000 0.482371 0.989928
1.000000 0.738982 0.979351
1.000000 0.386691 0.969795
1.000000 0.859338 0.992852
1.000000 0.733329 0.998902
1.000000 0.414278 0.990765
1.000000 0.937793 0.996474
1.000000 0.348088 0.972724
1.000000 0.806274 0.964351
1.000000 0.778738 0.971058
1.000000 0.743228 0.980952
1.000000 0.367830 0.969771
1.000000 0.691949 0.981015
1.000000 0.651940 0.966358
1.000000 0.570305 0.968341
1.000000 0.552364 0.969725
1.000000 0.515026 0.969917
1.000000 0.603367 0.961227
1.000000 0.826955 0.978236
1.000000 0.899944 0.963849
1.000000 0.361016 0.993430
1.000000 0.632527 0.994847
1.000000 0.668426 0.957206
1.000000 0.912286 0.979343
1.000000 0.855110 0.982719
1.000000 0.462128 0.983177
1.000000 0.398192 0.997639
1.000000 0.821421 0.967544
1.000000 0.679841 0.998336
1.000000 0.517295 0.959704
1.000000 0.940102 0.982144
1.000000 0.534719 0.977681
1.000000 0.513197 0.991500
1.000000 0.576469 0.999639
1.000000 0.709967 0.991881
1.000000 0.749859 0.963791
1.000000 0.963154 0.995971
1.000000 0.706308 0.974901
1.000000 0.752888 0.979259
1.000000 0.453818 0.980098
1.000000 0.755311 0.957791
1.000000 0.536708 0.978341
1.000000 0.548132 0.972825
1.000000 0.398424 0.961404
1.000000 0.626349 0.969303
1.000000 0.693662 0.969105
1.000000 0.736593 0.968953
1.000000 0.382204 0.988258
1.000000 0.769094 0.963940
1.000000 0.348622 0.957222
1.000000 0.571975 0.960045
1.000000 0.504761 0.967847
1.000000 0.666442 0.968403
1.000000 0.598031 0.957410
1.000000 0.690440 0.966043
1.000000 0.687070 0.967792
1.000000 0.939461 0.968923
1.000000 0.596937 0.990039
1.000000 0.727763 0.966377
1.000000 0.840354 0.972984
1.000000 0.752962 0.980075
1.000000 0.775508 0.974289
1.000000 0.357872 0.982125
1.000000 0.794490 0.991281
1.000000 0.535737 0.962415
1.000000 0.862668 0.979173
1.000000 0.611225 0.959280
1.000000 0.365024 0.957326
1.000000 0.816714 0.986187
1.000000 0.359788 0.960012
1.000000 0.404662 0.988584
1.000000 0.721599 0.986228
1.000000 0.619499 0.973652
1.000000 0.464428 0.991555
1.000000 0.592612 0.992693
1.000000 0.914916 0.973873
1.000000 0.729829 0.976902
1.000000 0.389646 0.990200
1.000000 0.713086 0.978591
1.000000 0.597270 0.987472
1.000000 0.329163 0.990899
1.000000 0.920739 0.983891
1.000000 0.571537 0.989116
1.000000 0.955513 0.987111
1.000000 0.487474 0.998567
1.000000 0.831940 0.989089
1.000000 0.597028 0.973986
1.000000 0.363877 0.964219
1.000000 0.369375 0.987697
1.000000 0.839545 0.989187
1.000000 0.381510 0.985498
1.000000 0.738034 0.997089
1.000000 0.408559 0.956863
1.000000 0.428797 0.995172
1.000000 0.695942 0.980527
1.000000 0.775580 0.956602
1.000000 0.394535 0.985325
1.000000 0.477056 0.972921
1.000000 0.501281 0.993961
1.000000 0.700549 0.993687
1.000000 0.456915 0.992057
1.000000 0.895787 0.959653
1.000000 0.407260 0.979729
1.000000 0.804600 0.979415
1.000000 0.541386 0.976033
1.000000 0.489117 0.992527
1.000000 0.435120 0.980605
1.000000 0.336386 0.964669
1.000000 0.416491 0.994004
1.000000 0.691818 0.974851
1.000000 0.603907 0.972683
1.000000 0.827592 0.971141
1.000000 0.835701 0.976455
1.000000 0.890687 0.983362
1.000000 0.663467 0.964119
1.000000 0.831099 0.978419
1.000000 0.955514 0.991971
1.000000 0.597625 0.987189
1.000000 0.840552 0.959541
1.000000 0.324171 0.999146
1.000000 0.543398 0.969871
1.000000 0.393143 0.997491
1.000000 0.743340 0.986598
1.000000 0.899946 0.983447
1.000000 0.950514 0.961546
1.000000 0.545393 0.995672
1.000000 0.823319 0.969915
1.000000 0.519937 0.998257
1.000000 0.583216 0.990056
1.000000 0.812658 0.979486
1.000000 0.554169 0.977236
1.000000 0.325137 0.991432
1.000000 0.602024 0.987472
1.000000 0.706043 0.970749
1.000000 0.714926 0.969732
1.000000 0.496704 0.992785
1.000000 0.948289 0.965862
1.000000 0.918112 0.996089
1.000000 0.701508 0.980758
1.000000 0.585897 0.961773
1.000000 0.832956 0.964712
1.000000 0.339277 0.981312
1.000000 0.680297 0.980210
1.000000 0.769639 0.981860
1.000000 0.689409 0.998415
1.000000 0.692601 0.980391
1.000000 0.787802 0.981191
1.000000 0.830019 0.977466
1.000000 0.502746 0.986630
1.000000 0.955421 0.973844
1.000000 0.721719 0.966206
1.000000 0.913748 0.989741
1.000000 0.947752 0.974479
1.000000 0.802849 0.966154
1.000000 0.397808 0.962616
1.000000 0.334871 0.973907
1.000000 0.705630 0.983923
1.000000 0.630840 0.969141
1.000000 0.691065 0.967922
1.000000 0.949343 0.975101
1.000000 0.486853 0.991426
1.000000 0.365886 0.986460
1.000000 0.607657 0.962342
1.000000 0.807448 0.984076
1.000000 0.788045 0.973896
1.000000 0.795500 0.993905
1.000000 0.817772 0.984444
1.000000 0.420117 0.960107
1.000000 0.498450 0.988281
1.000000 0.765540 0.991640
1.000000 0.578542 0.961578
1.000000 0.805940 0.992983
1.000000 0.706620 0.966053
1.000000 0.371653 0.963532
1.000000 0.600623 0.971235
1.000000 0.695098 0.974008
1.000000 0.343631 0.984284
1.000000 0.742647 0.989734
1.000000 0.392764 0.958836
1.000000 0.839279 0.986913
1.000000 0.655209 0.957977
1.000000 0.563598 0.968287
1.000000 0.930099 0.972963
1.000000 0.464932 0.974750
1.000000 0.683196 0.993199
1.000000 0.519440 0.959277
1.000000 0.623266 0.964740
1.000000 0.559435 0.967776
1.000000 0.358623 0.992476
1.000000 0.934740 0.968141
1.000000 0.494738 0.989523
1.000000 0.814666 0.959094
1.000000 0.579488 0.962356
1.000000 0.879285 0.977849
1.000000 0.875489 0.962101
1.000000 0.538371 0.963346
1.000000 0.439099 0.962911
1.000000 0.482876 0.995298
1.000000 0.805020 0.988059
1.000000 0.364690 0.963341
1.000000 0.340888 0.974723
1.000000 0.668406 0.970223
1.000000 0.658882 0.976165
1.000000 0.912107 0.957449
1.000000 0.960382 0.979049
1.000000 0.414342 0.972116
1.000000 0.448231 0.974325
1.000000 0.610978 0.976198
1.000000 0.830721 0.980879
1.000000 0.499163 0.981012
1.000000 0.348621 0.988889
1.000000 0.954873 0.969563
1.000000 0.861396 0.996738
1.000000 0.574561 0.972044
1.000000 0.470279 0.983246
1.000000 0.772521 0.961364
1.000000 0.965581 0.990667
1.000000 0.364334 0.979617
1.000000 0.744282 0.967176
1.000000 0.590689 0.994686
1.000000 0.726024 0.981785
1.000000 0.354376 0.964757
1.000000 0.697412 0.964827
1.000000 0.455124 0.959014
1.000000 0.657649 0.988581
1.000000 0.365534 0.959288
1.000000 0.524828 0.980489
1.000000 0.668462 0.966896
1.000000 0.655999 0.999008
1.000000 0.956988 0.964114
1.000000 0.700555 0.999220
1.000000 0.512711 0.997138
1.000000 0.775810 0.962557
1.000000 0.379597 0.970507
1.000000 0.948660 0.979654
1.000000 0.355146 0.981777
1.000000 0.646937 0.965459
1.000000 0.762302 0.961973
1.000000 0.819058 0.981849
1.000000 0.949728 0.991158
1.000000 0.924735 0.970461
1.000000 0.751567 0.962899
1.000000 0.807388 0.967976
1.000000 0.654231 0.975973
1.000000 0.871998 0.983316
1.000000 0.626095 0.971314
1.000000 0.765641 0.966594
1.000000 0.469347 0.978708
1.000000 0.780519 0.957795
1.000000 0.913325 0.986102
1.000000 0.829067 0.974311
1.000000 0.871920 0.983888
1.000000 0.888839 0.982721
1.000000 0.459814 0.967690
1.000000 0.523655 0.980298
1.000000 0.649154 0.984774
1.000000 0.571756 0.968409
1.000000 0.536878 0.963459
1.000000 0.545250 0.967234
1.000000 0.930556 0.966327
1.000000 0.469849 0.992941
1.000000 0.403690 0.975378
1.000000 0.377902 0.993872
1.000000 0.524649 0.996345
1.000000 0.337472 0.968409
1.000000 0.477767 0.988424
1.000000 0.391839 0.993276
1.000000 0.483098 0.977511
1.000000 0.551683 0.967399
1.000000 0.387054 0.966371
1.000000 0.371151 0.991585
1.000000 0.767749 0.997667
1.000000 0.682553 0.959209
1.000000 0.726696 0.984938
1.000000 0.539905 0.977043
1.000000 0.885731 0.963865
1.000000 0.480524 0.960047
1.000000 0.370796 0.958784
1.000000 0.784847 0.980038
1.000000 0.429648 0.965157
1.000000 0.873898 0.970324
1.000000 0.798876 0.992880
1.000000 0.868635 0.996074
1.000000 0.903887 0.957385
1.000000 0.485399 0.982648
1.000000 0.756816 0.991076
1.000000 0.639185 0.976782
1.000000 0.624575 0.961318
1.000000 0.931652 0.978818
1.000000 0.878165 0.999898
1.000000 0.684894 0.971510
1.000000 0.559261 0.992085
1.000000 0.851173 0.972881
1.000000 0.907173 0.964200
1.000000 0.426184 0.959103
1.000000 0.837903 0.994545
1.000000 0.530229 0.983214
1.000000 0.679780 0.997133
1.000000 0.842152 0.995433
1.000000 0.951550 0.992603
1.000000 0.826084 0.957444
1.000000 0.470226 0.993644
1.000000 0.678822 0.998107
1.000000 0.645140 0.989644
1.000000 0.696509 0.999205
1.000000 0.874341 0.995682
1.000000 0.335605 0.962851
1.000000 0.754207 0.993969
1.000000 0.815993 0.987665
1.000000 0.777279 0.999915
1.000000 0.539071 0.987373
1.000000 0.584056 0.976580
1.000000 0.579628 0.990379
1.000000 0.686275 0.965453
1.000000 0.946503 0.976605
1.000000 0.459891 0.972536
1.000000 0.825649 0.990748
1.000000 0.674029 0.956748
1.000000 0.475866 0.997695
1.000000 0.934320 0.997312
1.000000 0.507891 0.978830
1.000000 0.412484 0.988490
1.000000 0.577253 0.981982
1.000000 0.749769 0.981583
1.000000 0.677543 0.974333
1.000000 0.928611 0.980081
1.000000 0.519274 0.994078
1.000000 0.473547 0.967470
1.000000 0.781948 0.964303
1.000000 0.546198 0.978219
1.000000 0.512656 0.969618
1.000000 0.908584 0.995534
1.000000 0.337780 0.994620
1.000000 0.720385 0.980706
1.000000 0.906229 0.977851
1.000000 0.373756 0.994705
1.000000 0.867897 0.999926
1.000000 0.399045 0.985848
1.000000 0.959707 0.986429
1.000000 0.420240 0.966705
1.000000 0.848178 0.965323
1.000000 0.842535 0.968920
1.000000 0.491952 0.960709
1.000000 0.931848 0.980294
1.000000 0.891920 0.969313
1.000000 0.649110 0.985022
1.000000 0.756258 0.987385
1.000000 0.641545 0.989836
1.000000 0.648572 0.960849
1.000000 0.851273 0.967385
1.000000 0.841252 0.970281
1.000000 0.659878 0.965187
1.000000 0.453840 0.961714
1.000000 0.810043 0.995034
1.000000 0.802254 0.959284
1.000000 0.684351 0.968932
1.000000 0.646671 0.992240
1.000000 0.539128 0.970514
1.000000 0.744912 0.961373
1.000000 0.578594 0.991907
1.000000 0.362665 0.968777
1.000000 0.588838 0.959341
1.000000 0.621642 0.967838
1.000000 0.507086 0.968147
1.000000 0.832914 0.995965
1.000000 0.691797 0.980425
1.000000 0.513957 0.970621
1.000000 0.797118 0.963083
1.000000 0.844274 0.956700
1.000000 0.657750 0.961638
1.000000 0.941281 0.985127
1.000000 0.369263 0.967801
1.000000 0.352548 0.963551
1.000000 0.660361 0.956629
1.000000 0.359080 0.989235
1.000000 0.453434 0.956318
1.000000 0.606301 0.977244
1.000000 0.486046 0.982921
1.000000 0.462396 0.980782
1.000000 0.728694 0.989035
1.000000 0.534302 0.990881
1.000000 0.330432 0.976675
1.000000 0.379598 0.960075
1.000000 0.891942 0.975355
1.000000 0.963387 0.991353
1.000000 0.611972 0.985776
1.000000 0.886837 0.957832
1.000000 0.806388 0.973118
1.000000 0.833678 0.975391
1.000000 0.378274 0.997606
1.000000 0.751275 0.971457
1.000000 0.550831 0.960030
1.000000 0.493184 0.991969
1.000000 0.706600 0.993908
1.000000 0.335969 0.989132
1.000000 0.744551 0.962748
1.000000 0.868738 0.985945
1.000000 0.487850 0.974560
1.000000 0.539945 0.969065
1.000000 0.544834 0.986089
1.000000 0.896810 0.993119
1.000000 0.492814 0.973268
1.000000 0.741922 0.973858
1.000000 0.885162 0.987727
1.000000 0.659248 0.957916
1.000000 0.910085 0.959177
1.000000 0.522454 0.957841
1.000000 0.818016 0.975822
1.000000 0.885692 0.987199
1.000000 0.806118 0.963280
1.000000 0.402595 0.971240
1.000000 0.404552 0.960158
1.000000 0.940366 0.956582
1.000000 0.381624 0.991214
1.000000 0.368327 0.999622
1.000000 0.476791 0.963833
1.000000 0.583244 0.979035
1.000000 0.775531 0.979447
1.000000 0.647503 0.975581
1.000000 0.486346 0.996333
1.000000 0.690772 0.981103
1.000000 0.522504 0.958514
1.000000 0.545568 0.956100
1.000000 0.412863 0.965617
1.000000 0.845584 0.983501
1.000000 0.453454 0.956766
1.000000 0.919684 0.988721
1.000000 0.387958 0.987372
1.000000 0.407552 0.960756
1.000000 0.926794 0.989944
1.000000 0.464193 0.971746
1.000000 0.486129 0.957382
1.000000 0.651065 0.963612
1.000000 0.818241 0.956326
1.000000 0.349209 0.992060
1.000000 0.681746 0.994971
1.000000 0.804425 0.999066
1.000000 0.394979 0.987603
1.000000 0.722005 0.978821
1.000000 0.911847 0.978468
1.000000 0.655307 0.958144
1.000000 0.946555 0.965192
1.000000 0.564366 0.998772
1.000000 0.676137 0.991802
1.000000 0.467353 0.976393
1.000000 0.822718 0.972666
1.000000 0.776366 0.983164
1.000000 0.898749 0.983658
1.000000 0.617345 0.984062
1.000000 0.898293 0.984432
1.000000 0.869962 0.984536
1.000000 0.889609 0.966780
1.000000 0.420698 0.957685
1.000000 0.812226 0.995217
1.000000 0.479182 0.956791
1.000000 0.482140 0.985808
1.000000 0.946868 0.962400
1.000000 0.639678 0.976202
1.000000 0.753397 0.988830
1.000000 0.812805 0.958758
1.000000 0.658220 0.957139
1.000000 0.439882 0.962619
1.000000 0.964454 0.974616
1.000000 0.490776 0.981083
1.000000 0.815799 0.985427
1.000000 0.506367 0.989551
1.000000 0.343634 0.993490
1.000000 0.954930 0.989717
1.000000 0.864427 0.979871
1.000000 0.372570 0.998984
1.000000 0.524856 0.963294
1.000000 0.849702 0.967395
1.000000 0.832758 0.973092
1.000000 0.767575 0.957020
1.000000 0.866746 0.963167
1.000000 0.850197 0.959204
1.000000 0.749736 0.959525
1.000000 0.749817 0.993338
1.000000 0.894898 0.963596
1.000000 0.530794 0.999695
1.000000 0.678772 0.957042
1.000000 0.714329 0.964160
1.000000 0.885845 0.958565
1.000000 0.791465 0.972581
1.000000 0.577214 0.975243
1.000000 0.937385 0.981887
1.000000 0.345425 0.991798
1.000000 0.709781 0.992408
1.000000 0.373897 0.968200
1.000000 0.454500 0.964751
1.000000 0.536498 0.996776
1.000000 0.780820 0.980160
1.000000 0.649333 0.976325
1.000000 0.640320 0.989071
1.000000 0.903858 0.958871
1.000000 0.913385 0.962355
1.000000 0.826971 0.999209
1.000000 0.591597 0.996645
1.000000 0.757248 0.986533
1.000000 0.686099 0.992997
1.000000 0.677483 0.978238
1.000000 0.944437 0.994218
1.000000 0.955181 0.993457
1.000000 0.830237 0.971215
1.000000 0.485203 0.974070
1.000000 0.340156 0.963161
1.000000 0.513394 0.980578
1.000000 0.623323 0.999084
1.000000 0.807471 0.988277
1.000000 0.403811 0.970032
1.000000 0.579889 0.998207
1.000000 0.694395 0.956143
1.000000 0.952957 0.965854
1.000000 0.327180 0.997346
1.000000 0.923468 0.977840
1.000000 0.874238 0.969669
1.000000 0.861132 0.998458
1.000000 0.953000 0.963292
1.000000 0.466281 0.991411
1.000000 0.411861 0.992013
1.000000 0.529951 0.978533
1.000000 0.645349 0.974462
1.000000 0.822308 0.989880
1.000000 0.491746 0.994859
1.000000 0.677367 0.993574
1.000000 0.620153 0.987097
1.000000 0.541810 0.969557
1.000000 0.421137 0.981832
1.000000 0.945166 0.994716
1.000000 0.551292 0.970791
1.000000 0.446013 0.959737
1.000000 0.451661 0.959978
1.000000 0.840312 0.994304
1.000000 0.748304 0.961131
1.000000 0.504330 0.969641
1.000000 0.717064 0.967663
1.000000 0.743018 0.973421
1.000000 0.367709 0.977731
1.000000 0.819539 0.977038
1.000000 0.639193 0.977315
1.000000 0.901660 0.974657
1.000000 0.668869 0.982559
1.000000 0.571388 0.993023
1.000000 0.710391 0.997991
1.000000 0.365190 0.957198
1.000000 0.465967 0.959615
1.000000 0.595154 0.966498
1.000000 0.376391 0.957245
1.000000 0.411639 0.978528
1.000000 0.465672 0.984389
1.000000 0.784709 0.980845
1.000000 0.826264 0.978252
1.000000 0.447998 0.963799
1.000000 0.700061 0.957786
1.000000 0.684326 0.981251
1.000000 0.965828 0.967727
1.000000 0.430179 0.959189
1.000000 0.556586 0.998082
1.000000 0.549634 0.983003
1.000000 0.321341 0.997484
1.000000 0.874771 0.976532
1.000000 0.608221 0.958412
1.000000 0.321824 0.997496
1.000000 0.474547 0.959988
1.000000 0.903790 0.981848
1.000000 0.940917 0.986989
1.000000 0.371921 0.978908
1.000000 0.557050 0.972734
1.000000 0.417668 0.963123
1.000000 0.625417 0.966994
1.000000 0.772224 0.984440
1.000000 0.844799 0.966193
1.000000 0.630018 0.970796
1.000000 0.712627 0.988632
1.000000 0.479994 0.989898
1.000000 0.374795 0.996964
1.000000 0.936163 0.991921
1.000000 0.705456 0.960584
1.000000 0.957008 0.972004
1.000000 0.947422 0.997760
1.000000 0.890276 0.958575
1.000000 0.792865 0.983334
1.000000 0.959875 0.976744
1.000000 0.602651 0.958415
1.000000 0.419102 0.966510
1.000000 0.618535 0.957711
1.000000 0.603618 0.987521
1.000000 0.355799 0.977281
1.000000 0.901235 0.992521
1.000000 0.750074 0.963989
1.000000 0.570646 0.965738
1.000000 0.460601 0.970946
1.000000 0.546786 0.978070
1.000000 0.532806 0.989179
1.000000 0.586849 0.956172
1.000000 0.358084 0.989093
1.000000 0.484927 0.982236
1.000000 0.403154 0.981174
1.000000 0.636323 0.959192
1.000000 0.408084 0.992162
1.000000 0.850804 0.962773
1.000000 0.883517 0.978229
1.000000 0.390922 0.989685
1.000000 0.901514 0.966322
1.000000 0.611790 0.983610
1.000000 0.850900 0.988870
1.000000 0.822517 0.961163
1.000000 0.661852 0.979582
1.000000 0.960195 0.974845
1.000000 0.797076 0.967367
1.000000 0.721580 0.999241
1.000000 0.732499 0.991610
1.000000 0.902063 0.990657
1.000000 0.588813 0.984445
1.000000 0.865222 0.980660
1.000000 0.379242 0.992955
1.000000 0.433621 0.983680
1.000000 0.397830 0.959597
1.000000 0.893804 0.965522
1.000000 0.498180 0.982991
1.000000 0.692808 0.993676
1.000000 0.956414 0.968344
1.000000 0.790055 0.961670
1.000000 0.594517 0.968153
1.000000 0.644125 0.993387
1.000000 0.895229 0.997014
1.000000 0.586715 0.983827
1.000000 0.495614 0.978886
1.000000 0.463466 0.956611
1.000000 0.852696 0.966374
1.000000 0.843569 0.959620
1.000000 0.906338 0.965988
1.000000 0.348217 0.973843
1.000000 0.605040 0.963877
1.000000 0.432810 0.984039
1.000000 0.589082 0.956296
1.000000 0.938330 0.970353
1.000000 0.936801 0.961070
1.000000 0.554342 0.961337
1.000000 0.705684 0.994426
1.000000 0.696977 0.992659
1.000000 0.909645 0.957538
1.000000 0.345897 0.992120
1.000000 0.876864 0.980018
1.000000 0.498867 0.957658
1.000000 0.423253 0.995273
1.000000 0.771096 0.981933
1.000000 0.854170 0.973763
1.000000 0.577888 0.984471
1.000000 0.401197 0.960234
1.000000 0.384046 0.996309
1.000000 0.873480 0.995771
1.000000 0.641320 0.987198
1.000000 0.876693 0.978391
1.000000 0.475689 0.981111
1.000000 0.414317 0.978671
1.000000 0.531385 0.999160
1.000000 0.370821 0.998062
1.000000 0.792202 0.998205
1.000000 0.380252 0.979633
1.000000 0.884813 0.962253
1.000000 0.879592 0.991200
1.000000 0.844832 0.959571
1.000000 0.622424 0.968418
1.000000 0.551112 0.964599
1.000000 0.674416 0.962373
1.000000 0.829892 0.976589
1.000000 0.588020 0.991711
1.000000 0.502313 0.968517
1.000000 0.327034 0.998303
1.000000 0.810991 0.969899
1.000000 0.860356 0.975176
1.000000 0.596349 0.996832
1.000000 0.737347 0.966066
1.000000 0.535461 0.971338
1.000000 0.742191 0.986210
1.000000 0.925917 0.970778
1.000000 0.675935 0.992739
1.000000 0.759814 0.984815
1.000000 0.905804 0.999592
1.000000 0.536346 0.986772
1.000000 0.356184 0.975929
1.000000 0.935516 0.956362
1.000000 0.830021 0.997294
1.000000 0.818574 0.998036
1.000000 0.638736 0.974664
1.000000 0.938770 0.981264
1.000000 0.716941 0.976762
1.000000 0.334046 0.998795
1.000000 0.828982 0.978302
1.000000 0.913723 0.984584
1.000000 0.850892 0.959389
1.000000 0.787291 0.993703
1.000000 0.581087 0.999553
1.000000 0.450588 0.981376
1.000000 0.772428 0.967639
1.000000 0.488298 0.956140
1.000000 0.943669 0.992370
1.000000 0.885228 0.970243
1.000000 0.576937 0.989141
1.000000 0.642126 0.960103
1.000000 0.422625 0.962167
1.000000 0.680701 0.980540
1.000000 0.366765 0.974862
1.000000 0.584266 0.978303
1.000000 0.640007 0.987761
1.000000 0.815161 0.965332
1.000000 0.554346 0.972881
1.000000 0.775934 0.997831
1.000000 0.668551 0.993657
1.000000 0.933086 0.987899
1.000000 0.650234 0.971636
1.000000 0.483748 0.970750
1.000000 0.756483 0.989767
1.000000 0.879282 0.960648
1.000000 0.797620 0.961041
1.000000 0.951465 0.992715
1.000000 0.443512 0.971484
1.000000 0.729110 0.961635
1.000000 0.788356 0.996385
1.000000 0.702828 0.964472
1.000000 0.961824 0.971175
1.000000 0.732766 0.996165
1.000000 0.455478 0.976614
1.000000 0.883217 0.986491
1.000000 0.555978 0.966836
1.000000 0.740482 0.991953
1.000000 0.900212 0.984307
1.000000 0.660261 0.974581
1.000000 0.878334 0.997449
1.000000 0.888602 0.965891
1.000000 0.894005 0.977610
1.000000 0.500094 0.973939
1.000000 0.581683 0.997493
1.000000 0.562321 0.993572
1.000000 0.604584 0.991863
1.000000 0.841622 0.992524
1.000000 0.667979 0.980959
1.000000 0.648421 0.964188
1.000000 0.385523 0.964595
1.000000 0.637977 0.998578
1.000000 0.466050 0.968600
1.000000 0.739353 0.981902
1.000000 0.493201 0.959081
1.000000 0.477982 0.988370
1.000000 0.392781 0.983857
1.000000 0.890717 0.962956
1.000000 0.680759 0.973953
1.000000 0.786220 0.956430
1.000000 0.550585 0.959820
1.000000 0.438533 0.993783
1.000000 0.822787 0.963535
1.000000 0.941675 0.961963
1.000000 0.427014 0.979394
1.000000 0.833497 0.970276
1.000000 0.669006 0.998499
1.000000 0.944951 0.963803
1.000000 0.450992 0.983836
1.000000 0.361396 0.983517
1.000000 0.797645 0.989432
1.000000 0.952196 0.971312
1.000000 0.533161 0.971957
1.000000 0.590279 0.962126
1.000000 0.925190 0.970653
1.000000 0.516185 0.980873
1.000000 0.719443 0.963227
1.000000 0.896178 0.989359
1.000000 0.833291 0.987862
1.000000 0.495115 0.963543
1.000000 0.692162 0.964362
1.000000 0.381436 0.969583
1.000000 0.891580 0.963788
1.000000 0.894287 0.980370
1.000000 0.934808 0.980010
1.000000 0.918031 0.997464
1.000000 0.772895 0.974327
1.000000 0.426985 0.963790
1.000000 0.751797 0.975642
1.000000 0.441681 0.957289
1.000000 0.450553 0.974582
1.000000 0.886674 0.974352
1.000000 0.691779 0.990256
1.000000 0.702027 0.980423
1.000000 0.828083 0.988365
1.000000 0.759119 0.997439
1.000000 0.342473 0.988766
1.000000 0.751583 0.964955
1.000000 0.797432 0.989960
1.000000 0.536077 0.992944
1.000000 0.571281 0.989878
1.000000 0.659554 0.969321
1.000000 0.342945 0.996557
1.000000 0.770145 0.981227
1.000000 0.854333 0.967822
1.000000 0.861715 0.978889
1.000000 0.362143 0.977303
1.000000 0.427647 0.993955
1.000000 0.540691 0.996064
1.000000 0.367637 0.980568
1.000000 0.640149 0.969942
1.000000 0.677556 0.998802
1.000000 0.483962 0.959584
1.000000 0.346146 0.960329
1.000000 0.428688 0.998152
1.000000 0.729221 0.991913
1.000000 0.421427 0.970806
1.000000 0.576353 0.964811
1.000000 0.745115 0.969047
1.000000 0.585235 0.968472
1.000000 0.348909 0.970606
1.000000 0.655661 0.999697
1.000000 0.912701 0.982558
1.000000 0.863616 0.971128
1.000000 0.625536 0.964528
1.000000 0.447412 0.984770
1.000000 0.401468 0.985446
1.000000 0.504946 0.960308
1.000000 0.622324 0.981972
1.000000 0.687163 0.970137
1.000000 0.350599 0.995914
1.000000 0.485350 0.984070
1.000000 0.460090 0.994355
1.000000 0.628576 0.996538
