0.032372 1.000000 0.745586
0.032395 1.000000 0.594194
0.016326 1.000000 0.827346
0.013135 1.000000 0.521557
0.021950 1.000000 0.825240
0.003875 1.000000 0.570191
0.011386 1.000000 0.585947
0.005133 1.000000 0.595428
0.010390 1.000000 0.326519
0.011515 1.000000 0.272735
0.023848 1.000000 0.667983
0.011714 1.000000 0.184337
0.016529 1.000000 0.746163
0.001766 1.000000 0.119168
0.033810 1.000000 0.380390
0.010330 1.000000 0.135738
0.041086 1.000000 0.631264
0.001733 1.000000 0.846396
0.014305 1.000000 0.312215
0.018211 1.000000 0.673798
0.021766 1.000000 0.235715
0.036940 1.000000 0.065455
0.042426 1.000000 0.228922
0.008827 1.000000 0.092859
0.038130 1.000000 0.668492
0.027596 1.000000 0.247078
0.022432 1.000000 0.805388
0.016694 1.000000 0.687234
0.001887 1.000000 0.795307
0.027945 1.000000 0.539237
0.019765 1.000000 0.468490
0.044798 1.000000 0.434641
0.035404 1.000000 0.529120
0.021953 1.000000 0.070893
0.020458 1.000000 0.756233
0.004923 1.000000 0.237428
0.022016 1.000000 0.270529
0.030725 1.000000 0.359915
0.007304 1.000000 0.351344
0.012604 1.000000 0.272489
0.028089 1.000000 0.056814
0.039564 1.000000 0.265350
0.029849 1.000000 0.407086
0.029668 1.000000 0.705874
0.000664 1.000000 0.290027
0.020203 1.000000 0.666007
0.000920 1.000000 0.787432
0.004437 1.000000 0.395925
0.029656 1.000000 0.539815
0.024833 1.000000 0.687521
0.010489 1.000000 0.756045
0.027970 1.000000 0.465951
0.043003 1.000000 0.313064
0.020963 1.000000 0.141737
0.019514 1.000000 0.643647
0.015972 1.000000 0.677941
0.022457 1.000000 0.172349
0.040656 1.000000 0.439410
0.036592 1.000000 0.126724
0.021078 1.000000 0.690451
0.008056 1.000000 0.168073
0.012689 1.000000 0.355540
0.012773 1.000000 0.759201
0.032788 1.000000 0.047458
0.028794 1.000000 0.798442
0.043641 1.000000 0.358051
0.025709 1.000000 0.253906
0.035674 1.000000 0.513987
0.045391 1.000000 0.317108
0.018915 1.000000 0.437595
0.010888 1.000000 0.143270
0.017480 1.000000 0.336066
0.020574 1.000000 0.845641
0.038258 1.000000 0.049680
0.040459 1.000000 0.766366
0.024456 1.000000 0.336785
0.022095 1.000000 0.052649
0.010763 1.000000 0.455280
0.029442 1.000000 0.223481
0.037799 1.000000 0.704253
0.004454 1.000000 0.071615
0.006966 1.000000 0.389747
0.044666 1.000000 0.615031
0.024636 1.000000 0.145931
0.005153 1.000000 0.481297
0.014423 1.000000 0.289315
0.006339 1.000000 0.698571
0.040636 1.000000 0.699936
0.015613 1.000000 0.490016
0.023936 1.000000 0.133222
0.013704 1.000000 0.482336
0.042925 1.000000 0.067255
0.034236 1.000000 0.290216
0.036945 1.000000 0.413602
0.038048 1.000000 0.811085
0.029080 1.000000 0.832619
0.014054 1.000000 0.516569
0.028048 1.000000 0.232050
0.005913 1.000000 0.569071
0.004672 1.000000 0.205252
0.043453 1.000000 0.270432
0.018353 1.000000 0.491951
0.045326 1.000000 0.635147
0.019431 1.000000 0.795841
0.042425 1.000000 0.255701
0.004999 1.000000 0.698495
0.027447 1.000000 0.320919
0.031858 1.000000 0.796119
0.038393 1.000000 0.163934
0.007090 1.000000 0.717419
0.042684 1.000000 0.062264
0.040507 1.000000 0.131383
0.002598 1.000000 0.286028
0.034258 1.000000 0.176534
0.021341 1.000000 0.297729
0.045805 1.000000 0.157910
0.043345 1.000000 0.303228
0.019726 1.000000 0.540491
0.001956 1.000000 0.369209
0.016575 1.000000 0.484174
0.019763 1.000000 0.082243
0.008015 1.000000 0.863948
0.024742 1.000000 0.480269
0.018817 1.000000 0.420890
0.025596 1.000000 0.777925
0.012925 1.000000 0.512365
0.034725 1.000000 0.503928
0.030031 1.000000 0.361766
0.035067 1.000000 0.758992
0.009798 1.000000 0.699460
0.034706 1.000000 0.116009
0.046534 1.000000 0.070800
0.019204 1.000000 0.468131
0.005707 1.000000 0.285895
0.034642 1.000000 0.215060
0.037900 1.000000 0.266936
0.001351 1.000000 0.441490
0.042384 1.000000 0.502601
0.027095 1.000000 0.727908
0.014570 1.000000 0.656412
0.027731 1.000000 0.419609
0.025324 1.000000 0.640234
0.008170 1.000000 0.456288
0.017378 1.000000 0.604382
0.030513 1.000000 0.279236
0.042716 1.000000 0.722764
0.039880 1.000000 0.156865
0.039687 1.000000 0.440937
0.017804 1.000000 0.830834
0.010585 1.000000 0.408182
0.016647 1.000000 0.523061
0.019534 1.000000 0.395406
0.010079 1.000000 0.088561
0.026642 1.000000 0.566269
0.033977 1.000000 0.413928
0.035168 1.000000 0.125242
0.002814 1.000000 0.144947
0.029498 1.000000 0.615706
0.039276 1.000000 0.281215
0.042638 1.000000 0.419101
0.029044 1.000000 0.205975
0.022972 1.000000 0.515602
0.045317 1.000000 0.502136
0.025801 1.000000 0.746044
0.025338 1.000000 0.369269
0.028942 1.000000 0.451022
0.022650 1.000000 0.263068
0.043236 1.000000 0.785133
0.016790 1.000000 0.614470
0.023588 1.000000 0.412311
0.033281 1.000000 0.048645
0.040087 1.000000 0.474810
0.011668 1.000000 0.784734
0.031206 1.000000 0.132729
0.005556 1.000000 0.842986
0.029031 1.000000 0.229797
0.016820 1.000000 0.458991
0.021286 1.000000 0.428010
0.030953 1.000000 0.611974
0.022913 1.000000 0.454021
0.036458 1.000000 0.834985
0.010185 1.000000 0.801649
0.018601 1.000000 0.515945
0.036417 1.000000 0.174159
0.014487 1.000000 0.868781
0.014840 1.000000 0.813060
0.027765 1.000000 0.563191
0.041233 1.000000 0.336471
0.029991 1.000000 0.343771
0.020614 1.000000 0.234777
0.009139 1.000000 0.445376
0.012661 1.000000 0.079218
0.020515 1.000000 0.789213
0.021869 1.000000 0.467869
0.008523 1.000000 0.775737
0.041809 1.000000 0.726611
0.023487 1.000000 0.120197
0.014048 1.000000 0.132350
0.013268 1.000000 0.137433
0.001323 1.000000 0.090485
0.046394 1.000000 0.415315
0.007159 1.000000 0.649425
0.012429 1.000000 0.101918
0.026822 1.000000 0.564448
0.032495 1.000000 0.259809
0.016691 1.000000 0.723056
0.030973 1.000000 0.242832
0.014085 1.000000 0.609172
0.025897 1.000000 0.706603
0.015520 1.000000 0.300311
0.008746 1.000000 0.822026
0.030753 1.000000 0.275873
0.034363 1.000000 0.139861
0.017153 1.000000 0.712130
0.022054 1.000000 0.525488
0.030030 1.000000 0.419237
0.031498 1.000000 0.617005
0.014660 1.000000 0.625373
0.045968 1.000000 0.786581
0.003327 1.000000 0.796718
0.046361 1.000000 0.692204
0.038336 1.000000 0.053207
0.020176 1.000000 0.236713
0.002849 1.000000 0.403499
0.044774 1.000000 0.120256
0.034109 1.000000 0.811578
0.038021 1.000000 0.727484
0.026011 1.000000 0.750542
0.038485 1.000000 0.402547
0.009107 1.000000 0.148944
0.027405 1.000000 0.269044
0.037855 1.000000 0.456286
0.045637 1.000000 0.855466
0.019050 1.000000 0.838570
0.043721 1.000000 0.417826
0.027449 1.000000 0.730165
0.027653 1.000000 0.822356
0.042972 1.000000 0.361643
0.024043 1.000000 0.689908
0.004455 1.000000 0.081715
0.009167 1.000000 0.593389
0.005661 1.000000 0.170562
0.026175 1.000000 0.044891
0.019613 1.000000 0.306191
0.017291 1.000000 0.155698
0.004117 1.000000 0.492635
0.032984 1.000000 0.569554
0.032241 1.000000 0.573371
0.028958 1.000000 0.388346
0.002341 1.000000 0.755469
0.011526 1.000000 0.456947
0.015883 1.000000 0.387931
0.034300 1.000000 0.514544
0.004138 1.000000 0.811385
0.037049 1.000000 0.060333
0.006922 1.000000 0.494601
0.013625 1.000000 0.079936
0.018338 1.000000 0.047782
0.034521 1.000000 0.736009
0.041734 1.000000 0.719981
0.038919 1.000000 0.071793
0.014790 1.000000 0.126641
0.040706 1.000000 0.564838
0.037370 1.000000 0.534089
0.001793 1.000000 0.237728
0.033765 1.000000 0.665923
0.029281 1.000000 0.282864
0.014033 1.000000 0.141659
0.020026 1.000000 0.403282
0.012620 1.000000 0.671834
0.033484 1.000000 0.225100
0.039502 1.000000 0.242160
0.001730 1.000000 0.107236
0.019088 1.000000 0.544793
0.033419 1.000000 0.833004
0.018577 1.000000 0.446948
0.017408 1.000000 0.602008
0.033825 1.000000 0.412086
0.016285 1.000000 0.200023
0.027871 1.000000 0.077317
0.041653 1.000000 0.803627
0.043470 1.000000 0.293986
0.000196 1.000000 0.725728
0.018844 1.000000 0.440973
0.009150 1.000000 0.424110
0.008899 1.000000 0.621590
0.023883 1.000000 0.159679
0.001475 1.000000 0.339173
0.044418 1.000000 0.419695
0.021580 1.000000 0.830859
0.015190 1.000000 0.500405
0.041382 1.000000 0.287494
0.029481 1.000000 0.808373
0.034362 1.000000 0.861088
0.006471 1.000000 0.271247
0.042308 1.000000 0.619502
0.042270 1.000000 0.585782
0.008156 1.000000 0.697717
0.025976 1.000000 0.814533
0.046018 1.000000 0.813484
0.021207 1.000000 0.509307
0.006306 1.000000 0.826129
0.010314 1.000000 0.833829
0.026320 1.000000 0.802253
0.035988 1.000000 0.192259
0.001294 1.000000 0.286507
0.024588 1.000000 0.178425
0.043479 1.000000 0.662821
0.037391 1.000000 0.101656
0.029991 1.000000 0.298365
0.020637 1.000000 0.695899
0.011242 1.000000 0.461302
0.026160 1.000000 0.578812
0.036095 1.000000 0.449841
0.017120 1.000000 0.103302
0.019280 1.000000 0.315191
0.022298 1.000000 0.171548
0.044989 1.000000 0.088691
0.037351 1.000000 0.683946
0.017207 1.000000 0.762794
0.003503 1.000000 0.658005
0.026362 1.000000 0.607129
0.038464 1.000000 0.849138
0.035128 1.000000 0.520295
0.002563 1.000000 0.724992
0.039000 1.000000 0.544853
0.034448 1.000000 0.364454
0.023287 1.000000 0.447975
0.025706 1.000000 0.233864
0.021306 1.000000 0.400020
0.042179 1.000000 0.633177
0.003216 1.000000 0.815398
0.035775 1.000000 0.269855
0.009282 1.000000 0.326199
0.025614 1.000000 0.575561
0.014788 1.000000 0.338828
0.004224 1.000000 0.769306
0.010386 1.000000 0.429920
0.020225 1.000000 0.048269
0.043748 1.000000 0.147348
0.009440 1.000000 0.763672
0.033000 1.000000 0.130290
0.005761 1.000000 0.694942
0.045547 1.000000 0.143881
0.021162 1.000000 0.763124
0.011280 1.000000 0.506659
0.015781 1.000000 0.173288
0.042169 1.000000 0.812583
0.026226 1.000000 0.067777
0.045562 1.000000 0.251921
0.039909 1.000000 0.405082
0.019322 1.000000 0.224001
0.042894 1.000000 0.480410
0.027732 1.000000 0.087801
0.030217 1.000000 0.385963
0.035870 1.000000 0.507030
0.002324 1.000000 0.663661
0.019703 1.000000 0.799089
0.000480 1.000000 0.526176
0.017978 1.000000 0.386384
0.011074 1.000000 0.639000
0.041556 1.000000 0.847334
0.045290 1.000000 0.759551
0.024534 1.000000 0.563281
0.002781 1.000000 0.558110
0.013843 1.000000 0.041433
0.015600 1.000000 0.811390
0.034594 1.000000 0.423695
0.028607 1.000000 0.611029
0.034023 1.000000 0.721156
0.022118 1.000000 0.824276
0.001984 1.000000 0.370510
0.009768 1.000000 0.840564
0.008233 1.000000 0.381353
0.029921 1.000000 0.773463
0.017534 1.000000 0.778137
0.027036 1.000000 0.270359
0.046555 1.000000 0.135039
0.009288 1.000000 0.105059
0.005858 1.000000 0.188241
0.040522 1.000000 0.159172
0.018948 1.000000 0.268920
0.037686 1.000000 0.651364
0.016694 1.000000 0.264435
0.007668 1.000000 0.530519
0.005807 1.000000 0.399646
0.018904 1.000000 0.417422
0.025498 1.000000 0.167986
0.029769 1.000000 0.678729
0.008300 1.000000 0.817135
0.038166 1.000000 0.204368
0.024586 1.000000 0.844324
0.042539 1.000000 0.827911
0.015607 1.000000 0.329502
0.044377 1.000000 0.650076
0.000645 1.000000 0.688886
0.042184 1.000000 0.506634
0.039684 1.000000 0.460075
0.033674 1.000000 0.081227
0.027049 1.000000 0.742821
0.006373 1.000000 0.771641
0.014052 1.000000 0.783791
0.011465 1.000000 0.281841
0.028976 1.000000 0.328842
0.022547 1.000000 0.559403
0.032298 1.000000 0.574704
0.009523 1.000000 0.470467
0.017130 1.000000 0.176796
0.035879 1.000000 0.594569
0.015410 1.000000 0.517608
0.026932 1.000000 0.560813
0.036378 1.000000 0.098645
0.013134 1.000000 0.432563
0.007844 1.000000 0.865570
0.009447 1.000000 0.621566
0.005207 1.000000 0.052813
0.029582 1.000000 0.792335
0.046130 1.000000 0.490101
0.024475 1.000000 0.453297
0.017416 1.000000 0.788723
0.030145 1.000000 0.641107
0.009106 1.000000 0.315174
0.006304 1.000000 0.201619
0.028784 1.000000 0.456080
0.013130 1.000000 0.087351
0.026655 1.000000 0.634087
0.013850 1.000000 0.691088
0.008098 1.000000 0.214829
0.011588 1.000000 0.649078
0.034726 1.000000 0.051157
0.032776 1.000000 0.122270
0.008001 1.000000 0.390968
0.036848 1.000000 0.688635
0.030035 1.000000 0.566099
0.013762 1.000000 0.817604
0.013806 1.000000 0.812599
0.008212 1.000000 0.337464
0.043479 1.000000 0.173186
0.038777 1.000000 0.507268
0.010794 1.000000 0.628542
0.001881 1.000000 0.294902
0.042721 1.000000 0.596203
0.025950 1.000000 0.545363
0.000855 1.000000 0.198787
0.004459 1.000000 0.579620
0.045634 1.000000 0.317861
0.037035 1.000000 0.105109
0.029476 1.000000 0.698012
0.006017 1.000000 0.677441
0.038211 1.000000 0.638589
0.035955 1.000000 0.656687
0.005234 1.000000 0.625980
0.009612 1.000000 0.340373
0.044661 1.000000 0.726440
0.033623 1.000000 0.107870
0.037345 1.000000 0.153851
0.017611 1.000000 0.040070
0.023324 1.000000 0.084871
0.021171 1.000000 0.652274
0.046484 1.000000 0.419729
0.000146 1.000000 0.867385
0.019013 1.000000 0.769326
0.010094 1.000000 0.346941
0.013698 1.000000 0.314248
0.028183 1.000000 0.757840
0.008821 1.000000 0.576816
0.015081 1.000000 0.518950
0.014282 1.000000 0.657648
0.012933 1.000000 0.407920
0.002846 1.000000 0.501615
0.022476 1.000000 0.455609
0.006473 1.000000 0.862197
0.030087 1.000000 0.432479
0.018169 1.000000 0.378562
0.031867 1.000000 0.142662
0.027676 1.000000 0.651958
0.035074 1.000000 0.508531
0.023658 1.000000 0.097605
0.036636 1.000000 0.649811
0.021723 1.000000 0.235754
0.030620 1.000000 0.147550
0.042503 1.000000 0.644648
0.019437 1.000000 0.469892
0.003365 1.000000 0.699379
0.035336 1.000000 0.687658
0.028266 1.000000 0.183400
0.032675 1.000000 0.731311
0.007255 1.000000 0.853599
0.030664 1.000000 0.172255
0.016983 1.000000 0.474126
0.040627 1.000000 0.681096
0.027508 1.000000 0.685238
0.025737 1.000000 0.679254
0.013312 1.000000 0.819818
0.003292 1.000000 0.506266
0.017758 1.000000 0.416530
0.042961 1.000000 0.837436
0.026734 1.000000 0.174705
0.017351 1.000000 0.424951
0.003740 1.000000 0.502451
0.006809 1.000000 0.854588
0.015094 1.000000 0.528474
0.023920 1.000000 0.445959
0.045402 1.000000 0.051272
0.045054 1.000000 0.265512
0.015575 1.000000 0.533346
0.043622 1.000000 0.518604
0.018813 1.000000 0.771080
0.044554 1.000000 0.725242
0.009611 1.000000 0.469712
0.011179 1.000000 0.426177
0.023266 1.000000 0.129968
0.001852 1.000000 0.161364
0.039029 1.000000 0.805979
0.035867 1.000000 0.636163
0.045552 1.000000 0.208362
0.007552 1.000000 0.486801
0.000850 1.000000 0.787424
0.012187 1.000000 0.474207
0.013314 1.000000 0.502589
0.010186 1.000000 0.162177
0.044443 1.000000 0.759809
0.043633 1.000000 0.667681
0.045784 1.000000 0.412007
0.008454 1.000000 0.350124
0.004013 1.000000 0.185219
0.017471 1.000000 0.054560
0.016633 1.000000 0.119161
0.023843 1.000000 0.309818
0.004553 1.000000 0.681672
0.007238 1.000000 0.743509
0.044623 1.000000 0.206340
0.002928 1.000000 0.435619
0.029675 1.000000 0.385399
0.001879 1.000000 0.276588
0.009977 1.000000 0.722639
0.016472 1.000000 0.165983
0.018509 1.000000 0.747239
0.042130 1.000000 0.670390
0.044035 1.000000 0.692798
0.016668 1.000000 0.383104
0.000643 1.000000 0.064580
0.003117 1.000000 0.093611
0.011515 1.000000 0.627733
0.006518 1.000000 0.741995
0.032255 1.000000 0.266019
0.014353 1.000000 0.104076
0.021075 1.000000 0.245943
0.028207 1.000000 0.246747
0.035355 1.000000 0.333382
0.008420 1.000000 0.682658
0.001378 1.000000 0.578731
0.044201 1.000000 0.255205
0.018871 1.000000 0.101489
0.007171 1.000000 0.123851
0.043812 1.000000 0.501216
0.046445 1.000000 0.076695
0.021632 1.000000 0.454644
0.045890 1.000000 0.158255
0.011347 1.000000 0.459705
0.006213 1.000000 0.440596
0.045787 1.000000 0.789126
0.027257 1.000000 0.747105
0.035438 1.000000 0.846802
0.030261 1.000000 0.702127
0.022086 1.000000 0.060051
0.034301 1.000000 0.391808
0.011419 1.000000 0.711788
0.017447 1.000000 0.658454
0.024940 1.000000 0.662033
0.031809 1.000000 0.223766
0.044848 1.000000 0.180962
0.036022 1.000000 0.496339
0.013380 1.000000 0.070081
0.005515 1.000000 0.521324
0.040607 1.000000 0.118692
0.042198 1.000000 0.196297
0.002010 1.000000 0.710350
0.010745 1.000000 0.155178
0.003634 1.000000 0.170135
0.042874 1.000000 0.532128
0.012695 1.000000 0.442207
0.030929 1.000000 0.223257
0.023180 1.000000 0.659273
0.034670 1.000000 0.731149
0.038649 1.000000 0.804567
0.010565 1.000000 0.634565
0.006250 1.000000 0.705601
0.042618 1.000000 0.501341
0.026527 1.000000 0.456966
0.043940 1.000000 0.406438
0.013180 1.000000 0.065035
0.010116 1.000000 0.167952
0.033604 1.000000 0.674110
0.006185 1.000000 0.233100
0.015143 1.000000 0.526278
0.046232 1.000000 0.703055
0.045373 1.000000 0.650623
0.009599 1.000000 0.310349
0.029214 1.000000 0.355078
0.038845 1.000000 0.725123
0.039588 1.000000 0.513745
0.018142 1.000000 0.716338
0.004417 1.000000 0.192156
0.046345 1.000000 0.666961
0.035727 1.000000 0.562600
0.005324 1.000000 0.212564
0.001915 1.000000 0.445426
0.031902 1.000000 0.164231
0.040843 1.000000 0.222563
0.037789 1.000000 0.284174
0.035126 1.000000 0.834438
0.008010 1.000000 0.362296
0.014951 1.000000 0.730268
0.032999 1.000000 0.076401
0.023224 1.000000 0.434603
0.004819 1.000000 0.481474
0.001625 1.000000 0.619738
0.007652 1.000000 0.649744
0.016199 1.000000 0.832911
0.029272 1.000000 0.755433
0.031759 1.000000 0.297011
0.033062 1.000000 0.773103
0.040331 1.000000 0.813026
0.000053 1.000000 0.837301
0.035774 1.000000 0.620533
0.037214 1.000000 0.753125
0.039028 1.000000 0.653318
0.025745 1.000000 0.434071
0.011981 1.000000 0.079240
0.002985 1.000000 0.248295
0.017403 1.000000 0.818728
0.030986 1.000000 0.597328
0.045333 1.000000 0.505581
0.010768 1.000000 0.870413
0.009608 1.000000 0.412615
0.008998 1.000000 0.274217
0.039860 1.000000 0.087397
0.018520 1.000000 0.708874
0.037323 1.000000 0.128461
0.033672 1.000000 0.732770
0.021467 1.000000 0.173677
0.006331 1.000000 0.795154
0.020759 1.000000 0.714477
0.034221 1.000000 0.062878
0.040223 1.000000 0.519948
0.038691 1.000000 0.675435
0.006724 1.000000 0.296645
0.038948 1.000000 0.043946
0.020669 1.000000 0.761012
0.009741 1.000000 0.572313
0.035787 1.000000 0.569767
0.003359 1.000000 0.300350
0.034572 1.000000 0.487693
0.021583 1.000000 0.537571
0.037628 1.000000 0.853006
0.045901 1.000000 0.470119
0.022384 1.000000 0.635760
0.021015 1.000000 0.406015
0.011634 1.000000 0.303994
0.036489 1.000000 0.792251
0.033864 1.000000 0.769431
0.010822 1.000000 0.850557
0.045329 1.000000 0.387474
0.020092 1.000000 0.280413
0.022108 1.000000 0.637427
0.024112 1.000000 0.345515
0.031515 1.000000 0.423689
0.032447 1.000000 0.659311
0.037800 1.000000 0.337001
0.003821 1.000000 0.306514
0.042721 1.000000 0.477341
0.022147 1.000000 0.291238
0.025107 1.000000 0.097845
0.027421 1.000000 0.800045
0.037832 1.000000 0.355652
0.031084 1.000000 0.320310
0.036299 1.000000 0.392890
0.006068 1.000000 0.301587
0.009145 1.000000 0.120613
0.011425 1.000000 0.512810
0.020513 1.000000 0.504046
0.024293 1.000000 0.584251
0.025666 1.000000 0.100948
0.037059 1.000000 0.254089
0.013972 1.000000 0.259432
0.042082 1.000000 0.344834
0.024150 1.000000 0.554299
0.022963 1.000000 0.245248
0.028558 1.000000 0.046137
0.016026 1.000000 0.119230
0.024007 1.000000 0.372249
0.002037 1.000000 0.721497
0.021237 1.000000 0.688119
0.009160 1.000000 0.485370
0.040345 1.000000 0.551318
0.016714 1.000000 0.322329
0.030006 1.000000 0.183574
0.040391 1.000000 0.829892
0.041745 1.000000 0.658465
0.010495 1.000000 0.698422
0.011536 1.000000 0.461098
0.032463 1.000000 0.788884
0.015265 1.000000 0.430834
0.031431 1.000000 0.390166
0.045422 1.000000 0.497942
0.037118 1.000000 0.218237
0.018600 1.000000 0.430375
0.025813 1.000000 0.310896
0.025402 1.000000 0.517537
0.013876 1.000000 0.437276
0.007066 1.000000 0.622451
0.033640 1.000000 0.433886
0.039822 1.000000 0.098986
0.004702 1.000000 0.587697
0.005445 1.000000 0.100817
0.042918 1.000000 0.640952
0.028319 1.000000 0.623388
0.041182 1.000000 0.399639
0.000686 1.000000 0.277656
0.021234 1.000000 0.679143
0.033358 1.000000 0.298214
0.016752 1.000000 0.391945
0.015598 1.000000 0.082953
0.026774 1.000000 0.841866
0.003269 1.000000 0.462058
0.036571 1.000000 0.495775
0.013102 1.000000 0.287102
0.040879 1.000000 0.301645
0.027105 1.000000 0.570875
0.025867 1.000000 0.499351
0.004081 1.000000 0.638496
0.023263 1.000000 0.223249
0.019938 1.000000 0.700365
0.044009 1.000000 0.128171
0.011942 1.000000 0.584263
0.009442 1.000000 0.189548
0.008899 1.000000 0.118947
0.026684 1.000000 0.135910
0.006520 1.000000 0.791600
0.041061 1.000000 0.268490
0.033045 1.000000 0.616158
0.000416 1.000000 0.363073
0.023208 1.000000 0.204326
0.026630 1.000000 0.381272
0.002571 1.000000 0.490926
0.031209 1.000000 0.101545
0.035479 1.000000 0.673731
0.028902 1.000000 0.535004
0.038457 1.000000 0.765729
0.041648 1.000000 0.457064
0.043822 1.000000 0.104843
0.033789 1.000000 0.821477
0.002307 1.000000 0.595545
0.018022 1.000000 0.696528
0.037787 1.000000 0.142540
0.017466 1.000000 0.251313
0.038640 1.000000 0.633621
0.004419 1.000000 0.823296
0.011873 1.000000 0.534052
0.005850 1.000000 0.480067
0.020758 1.000000 0.530442
0.037058 1.000000 0.827274
0.043924 1.000000 0.559225
0.002186 1.000000 0.292379
0.043708 1.000000 0.517381
0.030071 1.000000 0.383413
0.017379 1.000000 0.247194
0.033018 1.000000 0.776305
0.013597 1.000000 0.465038
0.007975 1.000000 0.473483
0.016885 1.000000 0.706536
0.021679 1.000000 0.716503
0.001186 1.000000 0.656309
0.006025 1.000000 0.408929
0.033102 1.000000 0.709413
0.024368 1.000000 0.546640
0.005237 1.000000 0.155474
0.007112 1.000000 0.415576
0.044242 1.000000 0.142580
0.007542 1.000000 0.411333
0.015397 1.000000 0.111701
0.044010 1.000000 0.121538
0.038275 1.000000 0.582030
0.020474 1.000000 0.389039
0.012638 1.000000 0.410461
0.021532 1.000000 0.747924
0.010491 1.000000 0.870149
0.029127 1.000000 0.515970
0.001946 1.000000 0.799736
0.009515 1.000000 0.323365
0.040277 1.000000 0.061632
0.013695 1.000000 0.086490
0.014330 1.000000 0.753029
0.037939 1.000000 0.800245
0.042795 1.000000 0.058264
0.013212 1.000000 0.275263
0.023396 1.000000 0.231230
0.005588 1.000000 0.217941
0.016560 1.000000 0.612327
0.005510 1.000000 0.172348
0.009699 1.000000 0.219223
0.027135 1.000000 0.134821
0.032493 1.000000 0.271084
0.020666 1.000000 0.524514
0.021996 1.000000 0.699621
0.014322 1.000000 0.208997
0.011874 1.000000 0.400982
0.039942 1.000000 0.350856
0.040591 1.000000 0.608721
0.039499 1.000000 0.440939
0.022738 1.000000 0.805070
0.016438 1.000000 0.582596
0.014758 1.000000 0.259597
0.018845 1.000000 0.288344
0.005117 1.000000 0.524480
0.025452 1.000000 0.475312
0.029998 1.000000 0.385578
0.001578 1.000000 0.096208
0.018145 1.000000 0.063817
0.030935 1.000000 0.534209
0.023396 1.000000 0.577650
0.011321 1.000000 0.302234
0.027369 1.000000 0.824575
0.045655 1.000000 0.732657
0.020010 1.000000 0.265684
0.042375 1.000000 0.497518
0.000867 1.000000 0.408206
0.028006 1.000000 0.106392
0.040906 1.000000 0.096071
0.013559 1.000000 0.104494
0.041943 1.000000 0.040998
0.017956 1.000000 0.521311
0.009487 1.000000 0.045877
0.031951 1.000000 0.305602
0.006491 1.000000 0.798787
0.032902 1.000000 0.520758
0.000232 1.000000 0.316361
0.038260 1.000000 0.781675
0.036398 1.000000 0.438296
0.032057 1.000000 0.050165
0.034143 1.000000 0.236264
0.010313 1.000000 0.287621
0.003992 1.000000 0.113086
0.022991 1.000000 0.256637
0.046293 1.000000 0.822728
0.015795 1.000000 0.586020
0.028877 1.000000 0.162200
0.040809 1.000000 0.184326
0.024906 1.000000 0.540177
0.013364 1.000000 0.617386
0.014678 1.000000 0.612649
0.027107 1.000000 0.620242
0.018147 1.000000 0.579929
0.012725 1.000000 0.254450
0.029668 1.000000 0.627472
0.045552 1.000000 0.072082
0.024045 1.000000 0.385930
0.019389 1.000000 0.156458
0.023642 1.000000 0.772705
0.006512 1.000000 0.143544
0.014640 1.000000 0.788752
0.037210 1.000000 0.214013
0.023970 1.000000 0.700189
0.000891 1.000000 0.286958
0.045077 1.000000 0.273761
0.032333 1.000000 0.748264
0.034136 1.000000 0.683333
0.001444 1.000000 0.460454
0.002822 1.000000 0.202660
0.021373 1.000000 0.295641
0.028084 1.000000 0.534105
0.045593 1.000000 0.637444
0.042124 1.000000 0.371840
0.044039 1.000000 0.538138
0.007322 1.000000 0.227046
0.005960 1.000000 0.851838
0.032297 1.000000 0.253003
0.026678 1.000000 0.651763
0.039237 1.000000 0.819189
0.029188 1.000000 0.378257
0.003807 1.000000 0.137442
0.023646 1.000000 0.554863
0.026665 1.000000 0.490133
0.021926 1.000000 0.794740
0.015575 1.000000 0.171469
0.031327 1.000000 0.820338
0.000800 1.000000 0.396033
0.011678 1.000000 0.320845
0.013208 1.000000 0.398725
0.018190 1.000000 0.706251
0.023628 1.000000 0.418790
0.012746 1.000000 0.709984
0.024089 1.000000 0.341344
0.035388 1.000000 0.738390
0.007330 1.000000 0.107825
0.033102 1.000000 0.639937
0.021114 1.000000 0.401893
0.027478 1.000000 0.739991
0.013180 1.000000 0.119866
0.017971 1.000000 0.827004
0.038652 1.000000 0.330450
0.027539 1.000000 0.204202
0.027603 1.000000 0.378094
0.020277 1.000000 0.568433
0.003705 1.000000 0.502729
0.035269 1.000000 0.730075
0.045302 1.000000 0.572343
0.017475 1.000000 0.094601
0.020617 1.000000 0.176198
0.014548 1.000000 0.706478
0.009385 1.000000 0.494251
0.038858 1.000000 0.464138
0.003731 1.000000 0.196389
0.035699 1.000000 0.141387
0.037881 1.000000 0.143507
0.016350 1.000000 0.697784
0.011184 1.000000 0.832179
0.030154 1.000000 0.040663
0.015038 1.000000 0.545885
0.035503 1.000000 0.303103
0.015242 1.000000 0.512617
0.046083 1.000000 0.395699
0.019501 1.000000 0.240888
0.018831 1.000000 0.637986
0.029633 1.000000 0.310849
0.019269 1.000000 0.339701
0.043155 1.000000 0.447448
0.040529 1.000000 0.537911
0.024700 1.000000 0.590216
0.017943 1.000000 0.218471
0.026763 1.000000 0.412874
0.031231 1.000000 0.741067
0.007695 1.000000 0.778023
0.039901 1.000000 0.593517
0.033348 1.000000 0.610518
0.035385 1.000000 0.369558
0.001169 1.000000 0.568673
0.021687 1.000000 0.810759
0.007447 1.000000 0.147314
0.029927 1.000000 0.196182
0.042892 1.000000 0.737528
0.001216 1.000000 0.348339
0.009533 1.000000 0.561093
0.013243 1.000000 0.552420
0.017602 1.000000 0.190284
0.034010 1.000000 0.759314
0.000573 1.000000 0.755006
0.032439 1.000000 0.161299
0.027135 1.000000 0.257115
0.021704 1.000000 0.167158
0.027689 1.000000 0.544119
0.038764 1.000000 0.610524
0.025091 1.000000 0.707720
0.016872 1.000000 0.803008
0.044643 1.000000 0.447723
0.009153 1.000000 0.756521
0.025033 1.000000 0.339692
0.034726 1.000000 0.556906
0.004242 1.000000 0.712708
0.044442 1.000000 0.336229
0.044900 1.000000 0.819997
0.005380 1.000000 0.564011
0.018575 1.000000 0.222808
0.043757 1.000000 0.388493
0.037801 1.000000 0.624125
0.005170 1.000000 0.727207
0.008348 1.000000 0.762824
0.017925 1.000000 0.858815
0.032410 1.000000 0.275109
0.038277 1.000000 0.166671
0.010543 1.000000 0.403360
0.031113 1.000000 0.641573
0.000734 1.000000 0.419233
0.018135 1.000000 0.162388
0.037726 1.000000 0.303697
0.042110 1.000000 0.672782
0.029998 1.000000 0.710331
0.026851 1.000000 0.739531
0.019522 1.000000 0.817994
0.023505 1.000000 0.375149
0.029653 1.000000 0.285342
0.028716 1.000000 0.849035
0.024699 1.000000 0.055612
0.032243 1.000000 0.701747
0.039430 1.000000 0.645056
0.016561 1.000000 0.301874
0.017183 1.000000 0.422018
0.020371 1.000000 0.272502
0.025028 1.000000 0.386199
0.031817 1.000000 0.511942
0.038883 1.000000 0.775991
0.007947 1.000000 0.354735
0.021867 1.000000 0.815590
0.036782 1.000000 0.287344
0.025566 1.000000 0.668406
0.015714 1.000000 0.701129
0.003748 1.000000 0.834611
0.023891 1.000000 0.104865
0.004309 1.000000 0.427545
0.039955 1.000000 0.065223
0.003743 1.000000 0.621217
0.027510 1.000000 0.839210
0.014602 1.000000 0.134102
0.027639 1.000000 0.277465
0.001848 1.000000 0.553371
0.011427 1.000000 0.068066
0.034477 1.000000 0.331852
0.046317 1.000000 0.607679
0.044882 1.000000 0.500903
0.012410 1.000000 0.428616
0.006787 1.000000 0.506053
0.012910 1.000000 0.487100
0.000384 1.000000 0.217045
0.032227 1.000000 0.508161
0.001447 1.000000 0.772009
0.032501 1.000000 0.515051
0.046094 1.000000 0.174350
0.021384 1.000000 0.407351
0.024322 1.000000 0.701625
0.044999 1.000000 0.459326
0.020884 1.000000 0.561030
0.045950 1.000000 0.781380
0.008661 1.000000 0.683091
0.011650 1.000000 0.532622
0.000086 1.000000 0.812873
0.012082 1.000000 0.431530
0.026145 1.000000 0.440720
0.032790 1.000000 0.672924
0.014676 1.000000 0.203156
0.045045 1.000000 0.123296
0.017482 1.000000 0.687781
0.012909 1.000000 0.747309
0.005616 1.000000 0.159376
0.042081 1.000000 0.673767
0.007102 1.000000 0.044816
0.036657 1.000000 0.426407
0.020598 1.000000 0.211828
0.011490 1.000000 0.193802
0.011282 1.000000 0.211240
0.004700 1.000000 0.190343
0.010757 1.000000 0.361621
0.008031 1.000000 0.071183
0.045815 1.000000 0.090020
0.043824 1.000000 0.667765
0.027738 1.000000 0.063875
0.041157 1.000000 0.495582
0.019814 1.000000 0.707246
0.009152 1.000000 0.464447
0.014462 1.000000 0.418770
0.020443 1.000000 0.085432
0.020131 1.000000 0.565814
0.043782 1.000000 0.464640
0.013100 1.000000 0.264443
0.025509 1.000000 0.843212
0.005306 1.000000 0.557004
0.036321 1.000000 0.080113
0.023291 1.000000 0.205985
0.040748 1.000000 0.397096
0.007096 1.000000 0.203523
0.034857 1.000000 0.354012
0.045700 1.000000 0.391340
0.018216 1.000000 0.337821
0.040956 1.000000 0.607167
0.020842 1.000000 0.792861
0.021603 1.000000 0.555928
0.006050 1.000000 0.450239
0.031591 1.000000 0.824382
0.019049 1.000000 0.830519
0.027157 1.000000 0.813645
0.038198 1.000000 0.316847
0.011089 1.000000 0.506022
0.028059 1.000000 0.663600
0.046490 1.000000 0.334633
0.030312 1.000000 0.251087
0.037617 1.000000 0.132086
0.027395 1.000000 0.569254
0.025781 1.000000 0.128686
0.036434 1.000000 0.292864
0.035849 1.000000 0.395717
0.033389 1.000000 0.204482
0.016004 1.000000 0.715029
0.000431 1.000000 0.474216
0.033604 1.000000 0.307066
0.011815 1.000000 0.174191
0.031050 1.000000 0.815238
0.019279 1.000000 0.618884
0.017332 1.000000 0.564474
0.022258 1.000000 0.402793
0.032705 1.000000 0.157038
0.012794 1.000000 0.662273
0.036148 1.000000 0.413487
0.043697 1.000000 0.588755
0.012138 1.000000 0.766615
0.044943 1.000000 0.585795
0.039361 1.000000 0.789804
0.002599 1.000000 0.756753
0.011550 1.000000 0.687414
0.046388 1.000000 0.591836
0.012562 1.000000 0.674387
0.030715 1.000000 0.716920
0.021960 1.000000 0.310556
0.000983 1.000000 0.700961
0.007565 1.000000 0.837368
0.017940 1.000000 0.193032
0.010418 1.000000 0.151717
0.034105 1.000000 0.148970
0.021272 1.000000 0.249785
0.024139 1.000000 0.133055
0.031346 1.000000 0.424089
0.009272 1.000000 0.757735
0.033425 1.000000 0.163780
0.005765 1.000000 0.048006
0.008434 1.000000 0.482160
0.016401 1.000000 0.839090
0.007764 1.000000 0.387035
0.010556 1.000000 0.491076
0.024386 1.000000 0.814492
0.000925 1.000000 0.800556
0.029356 1.000000 0.641900
0.000083 1.000000 0.368313
0.045435 1.000000 0.637482
0.046177 1.000000 0.801396
0.017501 1.000000 0.118230
0.004347 1.000000 0.729771
0.000577 1.000000 0.085299
0.032119 1.000000 0.401506
0.024766 1.000000 0.053331
0.040677 1.000000 0.589389
0.040467 1.000000 0.599141
0.023906 1.000000 0.275405
0.028675 1.000000 0.746059
0.010244 1.000000 0.763865
0.021422 1.000000 0.762003
0.027487 1.000000 0.085324
0.014696 1.000000 0.193717
0.016304 1.000000 0.429767
0.010248 1.000000 0.772065
0.030290 1.000000 0.087678
0.007320 1.000000 0.428803
0.033487 1.000000 0.830661
0.023944 1.000000 0.578658
0.045094 1.000000 0.494685
0.012442 1.000000 0.109967
0.034859 1.000000 0.625906
0.021168 1.000000 0.839305
0.002917 1.000000 0.533934
0.008083 1.000000 0.313955
0.009738 1.000000 0.809405
0.036921 1.000000 0.642946
0.020251 1.000000 0.626587
0.045037 1.000000 0.848626
0.037327 1.000000 0.396183
0.001915 1.000000 0.303560
0.045532 1.000000 0.048766
0.002263 1.000000 0.665171
0.007474 1.000000 0.183502
0.004303 1.000000 0.558099
0.042211 1.000000 0.640146
0.023030 1.000000 0.806334
0.024105 1.000000 0.313249
0.020067 1.000000 0.665146
0.030285 1.000000 0.144423
0.040986 1.000000 0.555725
0.019932 1.000000 0.656347
0.019332 1.000000 0.360980
0.001151 1.000000 0.415500
0.009628 1.000000 0.130930
0.024094 1.000000 0.225937
0.008070 1.000000 0.694800
0.041586 1.000000 0.077542
0.043348 1.000000 0.797009
0.036136 1.000000 0.191333
0.004504 1.000000 0.195252
0.042646 1.000000 0.080777
0.019655 1.000000 0.384871
0.046183 1.000000 0.153626
0.004438 1.000000 0.439772
0.018629 1.000000 0.463042
0.035099 1.000000 0.392095
0.035673 1.000000 0.340955
0.026623 1.000000 0.778170
0.036693 1.000000 0.804041
0.024235 1.000000 0.214203
0.043905 1.000000 0.047110
0.028031 1.000000 0.755886
0.010766 1.000000 0.409632
0.036937 1.000000 0.679526
0.012587 1.000000 0.610945
0.019014 1.000000 0.521412
0.030226 1.000000 0.113618
0.037697 1.000000 0.373421
0.017966 1.000000 0.335322
0.027485 1.000000 0.343139
0.010995 1.000000 0.824758
0.015619 1.000000 0.307204
0.026375 1.000000 0.274355
0.020360 1.000000 0.443703
0.005652 1.000000 0.369616
0.040924 1.000000 0.831745
0.024975 1.000000 0.691481
0.044571 1.000000 0.701743
0.019476 1.000000 0.782184
0.038781 1.000000 0.855604
0.040951 1.000000 0.253437
0.004695 1.000000 0.853812
0.031744 1.000000 0.691345
0.035637 1.000000 0.086763
0.036146 1.000000 0.404898
0.017986 1.000000 0.259357
0.015208 1.000000 0.584030
0.019721 1.000000 0.468753
0.035683 1.000000 0.772454
0.041003 1.000000 0.847841
0.042707 1.000000 0.274492
0.042287 1.000000 0.185794
0.000482 1.000000 0.628013
0.031168 1.000000 0.819727
0.037870 1.000000 0.392656
0.020052 1.000000 0.846470
0.003943 1.000000 0.304053
0.005305 1.000000 0.466351
0.046505 1.000000 0.062882
0.012498 1.000000 0.404855
0.009975 1.000000 0.804035
0.031311 1.000000 0.342255
0.002191 1.000000 0.565296
0.040832 1.000000 0.057859
0.009358 1.000000 0.572225
0.031119 1.000000 0.496589
0.003338 1.000000 0.416292
0.017345 1.000000 0.216746
0.024566 1.000000 0.723823
0.020833 1.000000 0.214101
0.011578 1.000000 0.728381
0.025677 1.000000 0.739297
0.031211 1.000000 0.612224
0.009963 1.000000 0.192409
0.010581 1.000000 0.340539
0.001618 1.000000 0.134942
0.026388 1.000000 0.172304
0.023648 1.000000 0.450522
0.019320 1.000000 0.410046
0.041650 1.000000 0.369277
0.024758 1.000000 0.352246
0.022843 1.000000 0.392664
0.001319 1.000000 0.378108
0.006137 1.000000 0.582551
0.023678 1.000000 0.174907
0.033219 1.000000 0.098281
0.039553 1.000000 0.344152
0.025108 1.000000 0.316074
0.006719 1.000000 0.370752
0.015752 1.000000 0.610706
0.013847 1.000000 0.078472
0.000419 1.000000 0.462499
0.037187 1.000000 0.591655
0.001555 1.000000 0.517096
0.044226 1.000000 0.381527
0.029749 1.000000 0.725311
0.003008 1.000000 0.210986
0.028857 1.000000 0.229084
0.038975 1.000000 0.269566
0.036129 1.000000 0.296205
0.023119 1.000000 0.721821
0.003930 1.000000 0.591767
0.046445 1.000000 0.205931
0.040169 1.000000 0.447944
0.030147 1.000000 0.622639
0.032971 1.000000 0.746777
0.036708 1.000000 0.356793
0.040611 1.000000 0.591455
0.040772 1.000000 0.774687
0.005618 1.000000 0.260428
0.033359 1.000000 0.317523
0.001822 1.000000 0.411149
0.032175 1.000000 0.199815
0.010584 1.000000 0.524956
0.024161 1.000000 0.368420
0.028126 1.000000 0.839986
0.035165 1.000000 0.078737
0.012606 1.000000 0.096365
0.006241 1.000000 0.161845
0.037320 1.000000 0.494503
0.034896 1.000000 0.787605
0.037358 1.000000 0.061022
0.018554 1.000000 0.570078
0.000638 1.000000 0.804278
0.017356 1.000000 0.668496
0.016239 1.000000 0.523278
0.012722 1.000000 0.826400
0.010004 1.000000 0.599656
0.039416 1.000000 0.213307
0.004243 1.000000 0.140878
0.022650 1.000000 0.048991
0.027314 1.000000 0.443061
0.036209 1.000000 0.661649
0.036256 1.000000 0.129398
0.008198 1.000000 0.394837
0.027134 1.000000 0.664180
0.031947 1.000000 0.481596
0.015760 1.000000 0.091153
0.012864 1.000000 0.500674
0.045561 1.000000 0.236312
0.042828 1.000000 0.210105
0.017974 1.000000 0.387180
0.013936 1.000000 0.429442
0.036849 1.000000 0.359510
0.025201 1.000000 0.735001
0.010609 1.000000 0.636577
0.004159 1.000000 0.413478
0.010904 1.000000 0.171195
0.033764 1.000000 0.096780
0.014312 1.000000 0.643898
0.005744 1.000000 0.664738
0.026379 1.000000 0.644541
0.002370 1.000000 0.223964
0.034208 1.000000 0.807521
0.028958 1.000000 0.094380
0.010004 1.000000 0.456943
0.000230 1.000000 0.795227
0.026351 1.000000 0.842490
0.010024 1.000000 0.456530
0.020352 1.000000 0.358725
0.027962 1.000000 0.863216
0.035781 1.000000 0.649427
0.019819 1.000000 0.794696
0.035246 1.000000 0.094040
0.000260 1.000000 0.611372
0.021653 1.000000 0.099160
0.012648 1.000000 0.148282
0.036917 1.000000 0.224644
0.018086 1.000000 0.204957
0.007506 1.000000 0.308589
0.029998 1.000000 0.114354
0.017707 1.000000 0.056568
0.038993 1.000000 0.297524
0.028722 1.000000 0.139473
0.032141 1.000000 0.599543
0.041578 1.000000 0.485785
0.019518 1.000000 0.341182
0.033182 1.000000 0.810893
0.033478 1.000000 0.606650
0.012960 1.000000 0.338824
0.016108 1.000000 0.726316
0.026602 1.000000 0.587153
0.021097 1.000000 0.611670
0.030284 1.000000 0.775364
0.005644 1.000000 0.312657
0.040940 1.000000 0.403849
0.036270 1.000000 0.752352
0.008975 1.000000 0.232833
0.005486 1.000000 0.195111
0.035539 1.000000 0.828053
0.035617 1.000000 0.674010
0.010525 1.000000 0.082930
0.010239 1.000000 0.236160
0.011318 1.000000 0.834900
0.044055 1.000000 0.220895
0.041795 1.000000 0.062431
0.017964 1.000000 0.816865
0.000616 1.000000 0.436149
0.008439 1.000000 0.225457
0.044628 1.000000 0.484740
0.034955 1.000000 0.418013
0.005602 1.000000 0.582764
0.033767 1.000000 0.041035
0.000208 1.000000 0.688987
0.034284 1.000000 0.108201
0.039702 1.000000 0.583099
0.033925 1.000000 0.522726
0.010140 1.000000 0.096503
0.039028 1.000000 0.693846
0.005424 1.000000 0.604965
0.037783 1.000000 0.457744
0.018562 1.000000 0.614212
0.043819 1.000000 0.204067
0.033168 1.000000 0.064009
0.020827 1.000000 0.588132
0.046181 1.000000 0.114604
0.020721 1.000000 0.119870
0.001646 1.000000 0.219574
0.043500 1.000000 0.505860
0.019529 1.000000 0.766733
0.012478 1.000000 0.786723
0.004350 1.000000 0.606216
0.017223 1.000000 0.689385
0.020550 1.000000 0.494528
0.040470 1.000000 0.245669
0.039569 1.000000 0.272740
0.027993 1.000000 0.779659
0.005622 1.000000 0.293925
0.043610 1.000000 0.723598
0.042515 1.000000 0.252125
0.021770 1.000000 0.056774
0.022602 1.000000 0.697002
0.008191 1.000000 0.825576
0.007920 1.000000 0.411657
0.039475 1.000000 0.733954
0.006039 1.000000 0.073121
0.005344 1.000000 0.215165
0.024358 1.000000 0.731669
0.023972 1.000000 0.541454
0.043895 1.000000 0.579239
0.019879 1.000000 0.716021
0.025546 1.000000 0.440844
0.000592 1.000000 0.706166
0.004571 1.000000 0.399884
0.018729 1.000000 0.301925
0.007811 1.000000 0.258497
0.006095 1.000000 0.272183
0.013464 1.000000 0.217999
0.039365 1.000000 0.444815
0.002909 1.000000 0.183888
0.042609 1.000000 0.322393
0.045538 1.000000 0.054540
0.024569 1.000000 0.836116
0.009294 1.000000 0.252726
0.029544 1.000000 0.530311
0.000612 1.000000 0.524721
0.018169 1.000000 0.183338
0.029371 1.000000 0.499654
0.002018 1.000000 0.725632
0.045652 1.000000 0.674500
0.011937 1.000000 0.251540
0.044622 1.000000 0.715835
0.024683 1.000000 0.761156
0.015457 1.000000 0.245811
0.017988 1.000000 0.463719
0.032605 1.000000 0.813887
0.043515 1.000000 0.484606
0.002259 1.000000 0.576673
0.008139 1.000000 0.380608
0.006617 1.000000 0.227950
0.041210 1.000000 0.548034
0.016709 1.000000 0.502669
0.013400 1.000000 0.634350
0.029051 1.000000 0.851840
0.038023 1.000000 0.076217
0.000364 1.000000 0.623792
0.007319 1.000000 0.811923
0.017142 1.000000 0.752055
0.046556 1.000000 0.350807
0.018650 1.000000 0.139537
0.015973 1.000000 0.049111
0.028305 1.000000 0.595523
0.020960 1.000000 0.861657
0.029146 1.000000 0.701867
0.003173 1.000000 0.375996
0.037432 1.000000 0.768072
0.004023 1.000000 0.054134
0.004411 1.000000 0.074625
0.040894 1.000000 0.421186
0.015294 1.000000 0.174098
0.029102 1.000000 0.072194
0.020187 1.000000 0.279399
0.030987 1.000000 0.635437
0.018061 1.000000 0.486819
0.005395 1.000000 0.736599
0.034143 1.000000 0.148359
0.009198 1.000000 0.164847
0.012295 1.000000 0.853752
0.016151 1.000000 0.369742
0.025543 1.000000 0.201543
0.002674 1.000000 0.551667
0.004900 1.000000 0.768821
0.004966 1.000000 0.091285
0.025037 1.000000 0.120519
0.010328 1.000000 0.678621
0.020774 1.000000 0.343989
0.035986 1.000000 0.389870
0.039513 1.000000 0.544144
0.034241 1.000000 0.641210
0.028579 1.000000 0.696873
0.003522 1.000000 0.435592
0.035928 1.000000 0.224392
0.045896 1.000000 0.391684
0.003714 1.000000 0.647387
0.008624 1.000000 0.717893
0.033537 1.000000 0.422753
0.012891 1.000000 0.526867
0.018679 1.000000 0.611007
0.032880 1.000000 0.656595
0.025900 1.000000 0.789744
0.001289 1.000000 0.156377
0.023536 1.000000 0.500260
0.004273 1.000000 0.283386
0.034878 1.000000 0.146600
0.021878 1.000000 0.120373
0.023790 1.000000 0.177417
0.005499 1.000000 0.796578
0.010005 1.000000 0.355100
0.013601 1.000000 0.639869
0.038883 1.000000 0.160699
0.018391 1.000000 0.133100
0.032911 1.000000 0.781406
0.021206 1.000000 0.159238
0.002359 1.000000 0.871431
0.006555 1.000000 0.758408
0.022215 1.000000 0.690268
0.040369 1.000000 0.503607
0.006821 1.000000 0.742168
0.031463 1.000000 0.748206
0.007070 1.000000 0.106660
0.010349 1.000000 0.808612
0.026624 1.000000 0.761352
0.015391 1.000000 0.764861
0.011776 1.000000 0.851733
0.014632 1.000000 0.576393
0.002952 1.000000 0.104166
0.021244 1.000000 0.524894
0.010610 1.000000 0.171672
0.010665 1.000000 0.186330
0.026644 1.000000 0.467182
0.022652 1.000000 0.533183
0.046360 1.000000 0.389955
0.016617 1.000000 0.241811
0.026893 1.000000 0.183356
0.033327 1.000000 0.725566
0.032766 1.000000 0.073204
0.026666 1.000000 0.506746
0.028680 1.000000 0.532790
0.033117 1.000000 0.394988
0.001057 1.000000 0.697271
0.033595 1.000000 0.585943
0.025702 1.000000 0.198427
0.003023 1.000000 0.259594
0.011772 1.000000 0.422855
0.027917 1.000000 0.803083
0.021624 1.000000 0.668999
0.027406 1.000000 0.304018
0.003430 1.000000 0.248609
0.040340 1.000000 0.610514
0.033299 1.000000 0.624622
0.033392 1.000000 0.508727
0.027550 1.000000 0.279627
0.020827 1.000000 0.383019
0.005812 1.000000 0.318254
0.044190 1.000000 0.689948
0.040634 1.000000 0.268349
0.003667 1.000000 0.165003
0.027681 1.000000 0.230805
0.040140 1.000000 0.157924
0.037475 1.000000 0.708972
0.032702 1.000000 0.863133
0.008583 1.000000 0.763272
0.042969 1.000000 0.799903
0.037587 1.000000 0.457241
0.043004 1.000000 0.406213
0.002424 1.000000 0.058293
0.045851 1.000000 0.559197
0.013405 1.000000 0.761029
0.036663 1.000000 0.431704
0.032274 1.000000 0.157719
0.008599 1.000000 0.848080
0.000106 1.000000 0.444756
0.026155 1.000000 0.427627
0.045682 1.000000 0.835645
0.004855 1.000000 0.299562
0.017559 1.000000 0.081772
0.036734 1.000000 0.530501
0.002066 1.000000 0.566578
0.043925 1.000000 0.399528
0.010156 1.000000 0.658365
0.041515 1.000000 0.804381
0.024072 1.000000 0.157751
0.042019 1.000000 0.143190
0.006156 1.000000 0.497642
0.026603 1.000000 0.781897
0.007860 1.000000 0.384663
0.000232 1.000000 0.725194
0.019697 1.000000 0.507929
0.028427 1.000000 0.382968
0.037775 1.000000 0.320132
0.002409 1.000000 0.224766
0.030246 1.000000 0.578199
0.007709 1.000000 0.529518
0.035141 1.000000 0.416571
0.039959 1.000000 0.284024
0.022177 1.000000 0.307277
0.041354 1.000000 0.284119
0.026608 1.000000 0.055989
0.007116 1.000000 0.062059
0.020601 1.000000 0.448177
0.018196 1.000000 0.533349
0.023206 1.000000 0.263046
0.002404 1.000000 0.218410
0.020884 1.000000 0.675600
0.026744 1.000000 0.069554
0.044556 1.000000 0.808792
0.002996 1.000000 0.241954
0.032770 1.000000 0.218315
0.043258 1.000000 0.195505
0.008052 1.000000 0.822848
0.032930 1.000000 0.266870
0.045955 1.000000 0.743664
0.043028 1.000000 0.330382
0.007463 1.000000 0.393405
0.038026 1.000000 0.512333
0.013839 1.000000 0.260308
0.024868 1.000000 0.295276
0.002717 1.000000 0.132524
0.021325 1.000000 0.859922
0.012278 1.000000 0.742659
0.032918 1.000000 0.173106
0.000113 1.000000 0.718933
0.040571 1.000000 0.403282
0.004613 1.000000 0.337095
0.035352 1.000000 0.759767
0.033791 1.000000 0.221587
0.024785 1.000000 0.334967
0.034807 1.000000 0.444270
0.029764 1.000000 0.292155
0.044624 1.000000 0.432797
0.000456 1.000000 0.689474
0.044326 1.000000 0.232938
0.006323 1.000000 0.612741
0.010066 1.000000 0.446947
0.040794 1.000000 0.810107
0.021400 1.000000 0.602082
0.006659 1.000000 0.840059
0.000446 1.000000 0.572809
0.014785 1.000000 0.599111
0.042895 1.000000 0.605713
0.002805 1.000000 0.300276
0.004856 1.000000 0.180415
0.015031 1.000000 0.512065
0.034489 1.000000 0.068397
0.006479 1.000000 0.765974
0.027325 1.000000 0.211918
0.041078 1.000000 0.735257
0.014020 1.000000 0.094624
0.003472 1.000000 0.365465
0.024608 1.000000 0.592593
0.021834 1.000000 0.823669
0.033974 1.000000 0.325970
0.006812 1.000000 0.256656
0.026529 1.000000 0.229143
0.003810 1.000000 0.314735
0.024262 1.000000 0.513366
0.011829 1.000000 0.547557
0.005156 1.000000 0.721537
0.036172 1.000000 0.360875
0.030789 1.000000 0.681969
0.029821 1.000000 0.755684
0.033583 1.000000 0.558653
0.008860 1.000000 0.326216
0.002936 1.000000 0.198510
0.029472 1.000000 0.485485
0.022820 1.000000 0.668486
0.024339 1.000000 0.744489
0.015310 1.000000 0.703251
0.019425 1.000000 0.765882
0.006303 1.000000 0.381003
0.009893 1.000000 0.862459
0.021803 1.000000 0.375879
0.045305 1.000000 0.303244
0.001218 1.000000 0.661361
0.020247 1.000000 0.562389
0.008917 1.000000 0.519215
0.017142 1.000000 0.330422
0.044507 1.000000 0.647637
0.045162 1.000000 0.075213
0.045860 1.000000 0.419233
0.017913 1.000000 0.601096
0.032486 1.000000 0.470682
0.008884 1.000000 0.203063
0.043654 1.000000 0.413576
0.015146 1.000000 0.646645
0.038018 1.000000 0.393048
0.027517 1.000000 0.693323
0.044482 1.000000 0.533356
0.004916 1.000000 0.130589
0.004370 1.000000 0.138360
0.041132 1.000000 0.835807
0.024708 1.000000 0.326915
0.024610 1.000000 0.497471
0.007150 1.000000 0.696027
0.000730 1.000000 0.779617
0.033302 1.000000 0.497572
0.017014 1.000000 0.067697
0.022783 1.000000 0.309845
0.000915 1.000000 0.073300
0.012837 1.000000 0.438414
0.039849 1.000000 0.313581
0.013674 1.000000 0.663976
0.016123 1.000000 0.654493
0.023650 1.000000 0.095485
0.026036 1.000000 0.151227
0.007575 1.000000 0.350864
0.000595 1.000000 0.231824
0.014582 1.000000 0.132630
0.026523 1.000000 0.421557
0.027109 1.000000 0.436550
0.024612 1.000000 0.308285
0.024636 1.000000 0.686918
0.042283 1.000000 0.332199
0.010502 1.000000 0.245257
0.031583 1.000000 0.431526
0.018604 1.000000 0.759880
0.029217 1.000000 0.642427
0.020307 1.000000 0.588026
0.034974 1.000000 0.367845
0.016498 1.000000 0.595534
0.022929 1.000000 0.704909
0.040139 1.000000 0.373653
0.045838 1.000000 0.783769
0.021507 1.000000 0.862682
0.013197 1.000000 0.157298
0.005832 1.000000 0.179997
0.005623 1.000000 0.409274
0.023952 1.000000 0.596492
0.015593 1.000000 0.353261
0.010907 1.000000 0.595882
0.031505 1.000000 0.733599
0.016589 1.000000 0.172371
0.002033 1.000000 0.253848
0.012071 1.000000 0.549890
0.002829 1.000000 0.501681
0.036924 1.000000 0.274647
0.027223 1.000000 0.511246
0.007325 1.000000 0.159944
0.034838 1.000000 0.537400
0.029256 1.000000 0.288685
0.031153 1.000000 0.422319
0.031574 1.000000 0.597134
0.020797 1.000000 0.601979
0.026582 1.000000 0.487345
0.046420 1.000000 0.652536
0.031653 1.000000 0.098005
0.021865 1.000000 0.156587
0.019657 1.000000 0.550574
0.015489 1.000000 0.730090
0.015831 1.000000 0.506469
0.014681 1.000000 0.604776
0.015708 1.000000 0.184678
0.012146 1.000000 0.202993
0.017799 1.000000 0.218380
0.027965 1.000000 0.368677
0.008138 1.000000 0.281850
0.005652 1.000000 0.185603
0.030712 1.000000 0.706913
0.005548 1.000000 0.622299
0.030363 1.000000 0.317061
0.027785 1.000000 0.607924
0.005189 1.000000 0.497534
0.041847 1.000000 0.092849
0.022955 1.000000 0.150319
0.036932 1.000000 0.235967
0.001215 1.000000 0.527561
0.010034 1.000000 0.697797
0.033849 1.000000 0.661928
0.037166 1.000000 0.571892
0.023892 1.000000 0.330549
0.031998 1.000000 0.652737
0.008318 1.000000 0.461021
0.019002 1.000000 0.106172
0.036504 1.000000 0.673516
0.002145 1.000000 0.714526
0.026277 1.000000 0.043684
0.002818 1.000000 0.530720
0.023990 1.000000 0.822443
0.028717 1.000000 0.826116
0.004366 1.000000 0.622403
0.031720 1.000000 0.171048
0.033983 1.000000 0.697821
0.045033 1.000000 0.332201
0.016044 1.000000 0.347585
0.038753 1.000000 0.598429
0.019217 1.000000 0.075621
0.012539 1.000000 0.412832
0.012588 1.000000 0.071553
0.000600 1.000000 0.422314
0.006300 1.000000 0.172587
0.014432 1.000000 0.865687
0.029124 1.000000 0.861028
0.031284 1.000000 0.489833
