0.753085 0.000000 0.962332
0.900160 0.000000 0.951712
0.575178 0.000000 0.999024
0.857813 0.000000 0.960374
0.554749 0.000000 0.973926
0.549813 0.000000 0.943996
0.421975 0.000000 0.971132
0.623251 0.000000 0.975977
0.572452 0.000000 0.950333
0.185404 0.000000 0.942557
0.658594 0.000000 0.984680
0.874062 0.000000 0.973885
0.481466 0.000000 0.969359
0.273600 0.000000 0.981037
0.416855 0.000000 0.989624
0.322101 0.000000 0.959503
0.487016 0.000000 0.976702
0.100193 0.000000 0.996110
0.448563 0.000000 0.970666
0.670318 0.000000 0.948605
0.348614 0.000000 0.963898
0.841122 0.000000 0.971262
0.549666 0.000000 0.967915
0.752540 0.000000 0.945522
0.434682 0.000000 0.951412
0.279033 0.000000 0.988926
0.343166 0.000000 0.976856
0.774178 0.000000 0.947473
0.505471 0.000000 0.945119
0.352292 0.000000 0.943842
0.742232 0.000000 0.992817
0.193615 0.000000 0.985496
0.211941 0.000000 0.970456
0.237793 0.000000 0.990570
0.696978 0.000000 0.986001
0.147504 0.000000 0.985157
0.631215 0.000000 0.947498
0.260193 0.000000 0.995572
0.708250 0.000000 0.967916
0.838889 0.000000 0.980895
0.802471 0.000000 0.973926
0.263110 0.000000 0.994520
0.892972 0.000000 0.953354
0.793890 0.000000 0.983027
0.781073 0.000000 0.943696
0.060491 0.000000 0.957793
0.690245 0.000000 0.960079
0.463445 0.000000 0.944820
0.856480 0.000000 0.965038
0.815149 0.000000 0.989201
0.050857 0.000000 0.957244
0.730899 0.000000 0.949896
0.076232 0.000000 0.987386
0.838154 0.000000 0.972316
0.833113 0.000000 0.952582
0.155459 0.000000 0.943680
0.473519 0.000000 0.988261
0.732315 0.000000 0.948434
0.268213 0.000000 0.982161
0.753946 0.000000 0.989841
0.547974 0.000000 0.969460
0.656640 0.000000 0.953540
0.713494 0.000000 0.989941
0.884009 0.000000 0.979544
0.569869 0.000000 0.962943
0.101635 0.000000 0.966437
0.748532 0.000000 0.970369
0.616017 0.000000 0.996800
0.686359 0.000000 0.986326
0.158832 0.000000 0.958554
0.490508 0.000000 0.944914
0.491375 0.000000 0.948382
0.396090 0.000000 0.972514
0.146847 0.000000 0.966917
0.247014 0.000000 0.944098
0.450096 0.000000 0.997874
0.264043 0.000000 0.993805
0.608329 0.000000 0.953260
0.788639 0.000000 0.964681
0.845807 0.000000 0.958894
0.449460 0.000000 0.996758
0.078820 0.000000 0.950676
0.647997 0.000000 0.971644
0.898115 0.000000 0.977194
0.548326 0.000000 0.963942
0.484021 0.000000 0.960202
0.080003 0.000000 0.945944
0.684323 0.000000 0.986908
0.436636 0.000000 0.947295
0.845207 0.000000 0.996286
0.779833 0.000000 0.985083
0.583034 0.000000 0.984982
0.847634 0.000000 0.964086
0.499555 0.000000 0.955214
0.250072 0.000000 0.971754
0.919664 0.000000 0.948619
0.948035 0.000000 0.971614
0.376437 0.000000 0.948562
0.528068 0.000000 0.948812
0.715270 0.000000 0.989138
0.161598 0.000000 0.976074
0.930660 0.000000 0.985493
0.639823 0.000000 0.966710
0.684449 0.000000 0.945715
0.129048 0.000000 0.999102
0.475320 0.000000 0.965517
0.304628 0.000000 0.973963
0.192287 0.000000 0.949030
0.167576 0.000000 0.972269
0.891329 0.000000 0.955267
0.229978 0.000000 0.993183
0.312357 0.000000 0.960554
0.417465 0.000000 0.983409
0.709369 0.000000 0.952943
0.075569 0.000000 0.957192
0.638248 0.000000 0.999574
0.736456 0.000000 0.976668
0.052407 0.000000 0.992227
0.596240 0.000000 0.985843
0.209814 0.000000 0.964005
0.359155 0.000000 0.947141
0.937058 0.000000 0.953415
0.420318 0.000000 0.970368
0.900388 0.000000 0.990011
0.859132 0.000000 0.951236
0.595285 0.000000 0.969891
0.664372 0.000000 0.960439
0.369983 0.000000 0.981479
0.306737 0.000000 0.950441
0.219784 0.000000 0.974593
0.566518 0.000000 0.997217
0.125902 0.000000 0.983493
0.543585 0.000000 0.964899
0.916124 0.000000 0.948312
0.814795 0.000000 0.955191
0.138228 0.000000 0.964016
0.644270 0.000000 0.956838
0.290392 0.000000 0.974472
0.704789 0.000000 0.960812
0.154013 0.000000 0.997040
0.230945 0.000000 0.968834
0.763264 0.000000 0.946451
0.356808 0.000000 0.992926
0.194996 0.000000 0.953549
0.182060 0.000000 0.968026
0.593470 0.000000 0.971230
0.429223 0.000000 0.987635
0.624870 0.000000 0.955551
0.697722 0.000000 0.963479
0.076904 0.000000 0.949044
0.415088 0.000000 0.955999
0.523199 0.000000 0.966284
0.485406 0.000000 0.986007
0.185652 0.000000 0.978322
0.158405 0.000000 0.952007
0.717545 0.000000 0.952545
0.232530 0.000000 0.979471
0.071718 0.000000 0.964285
0.408644 0.000000 0.965445
0.507661 0.000000 0.986694
0.865631 0.000000 0.974334
0.423981 0.000000 0.979531
0.756984 0.000000 0.948910
0.247791 0.000000 0.981496
0.840917 0.000000 0.946992
0.274004 0.000000 0.979604
0.858325 0.000000 0.972285
0.821825 0.000000 0.973854
0.123739 0.000000 0.986960
0.514057 0.000000 0.982326
0.658345 0.000000 0.960127
0.617579 0.000000 0.987292
0.548431 0.000000 0.967124
0.842642 0.000000 0.996207
0.578253 0.000000 0.985888
0.206192 0.000000 0.971541
0.564502 0.000000 0.962838
0.282515 0.000000 0.993871
0.403365 0.000000 0.976144
0.199759 0.000000 0.955132
0.630935 0.000000 0.955514
0.207804 0.000000 0.958198
0.324361 0.000000 0.957344
0.777758 0.000000 0.992067
0.230384 0.000000 0.974217
0.674368 0.000000 0.991121
0.200578 0.000000 0.954518
0.154121 0.000000 0.982607
0.142623 0.000000 0.963120
0.478776 0.000000 0.971124
0.902968 0.000000 0.955815
0.330997 0.000000 0.961429
0.565161 0.000000 0.969675
0.697818 0.000000 0.959943
0.460691 0.000000 0.992873
0.559344 0.000000 0.948213
0.292549 0.000000 0.994061
0.718288 0.000000 0.996618
0.794451 0.000000 0.969103
0.597051 0.000000 0.974771
0.133563 0.000000 0.956123
0.105887 0.000000 0.983820
0.481188 0.000000 0.977868
0.496670 0.000000 0.945584
0.390530 0.000000 0.989082
0.909493 0.000000 0.953536
0.337327 0.000000 0.943719
0.860640 0.000000 0.983962
0.591930 0.000000 0.997716
0.196470 0.000000 0.946506
0.455145 0.000000 0.952221
0.600978 0.000000 0.957815
0.583420 0.000000 0.962619
0.070251 0.000000 0.980394
0.376920 0.000000 0.998245
0.639728 0.000000 0.953611
0.868544 0.000000 0.968147
0.085344 0.000000 0.969213
0.569677 0.000000 0.974023
0.272621 0.000000 0.969001
0.317854 0.000000 0.974188
0.261023 0.000000 0.959546
0.248672 0.000000 0.965898
0.639364 0.000000 0.987013
0.403432 0.000000 0.954514
0.207414 0.000000 0.987255
0.168789 0.000000 0.998431
0.772688 0.000000 0.957821
0.422421 0.000000 0.986906
0.446402 0.000000 0.976880
0.068248 0.000000 0.952036
0.121713 0.000000 0.966852
0.576274 0.000000 0.950045
0.887731 0.000000 0.953054
0.802089 0.000000 0.946019
0.424992 0.000000 0.961154
0.241728 0.000000 0.958562
0.346999 0.000000 0.972421
0.671546 0.000000 0.957222
0.872640 0.000000 0.990661
0.839224 0.000000 0.953726
0.916166 0.000000 0.982588
0.555481 0.000000 0.963478
0.772595 0.000000 0.982326
0.775360 0.000000 0.968829
0.823955 0.000000 0.993955
0.126957 0.000000 0.978606
0.864148 0.000000 0.963101
0.881532 0.000000 0.966966
0.365388 0.000000 0.954643
0.142007 0.000000 0.959916
0.116469 0.000000 0.964094
0.831804 0.000000 0.991128
0.401139 0.000000 0.993342
0.183699 0.000000 0.955235
0.705734 0.000000 0.952440
0.128148 0.000000 0.992453
0.595653 0.000000 0.990818
0.311680 0.000000 0.984111
0.544003 0.000000 0.998227
0.822479 0.000000 0.966598
0.476161 0.000000 0.962779
0.698867 0.000000 0.971451
0.430385 0.000000 0.954559
0.639441 0.000000 0.958887
0.710331 0.000000 0.976631
0.590277 0.000000 0.967077
0.533387 0.000000 0.973552
0.374530 0.000000 0.992239
0.276166 0.000000 0.950676
0.654708 0.000000 0.977282
0.119239 0.000000 0.949483
0.363603 0.000000 0.972584
0.193233 0.000000 0.947654
0.858005 0.000000 0.986911
0.068031 0.000000 0.975340
0.906884 0.000000 0.986783
0.090619 0.000000 0.958159
0.554869 0.000000 0.950469
0.777044 0.000000 0.987553
0.745538 0.000000 0.963818
0.494901 0.000000 0.962945
0.602031 0.000000 0.983550
0.905304 0.000000 0.984164
0.355814 0.000000 0.992311
0.938800 0.000000 0.983545
0.383971 0.000000 0.964203
0.931237 0.000000 0.991032
0.282359 0.000000 0.962400
0.890596 0.000000 0.986466
0.179504 0.000000 0.979815
0.412773 0.000000 0.945838
0.081392 0.000000 0.966073
0.233533 0.000000 0.942599
0.427329 0.000000 0.993262
0.671792 0.000000 0.971084
0.207925 0.000000 0.965761
0.609360 0.000000 0.994362
0.184545 0.000000 0.972615
0.303974 0.000000 0.992714
0.828359 0.000000 0.956588
0.958770 0.000000 0.978335
0.064853 0.000000 0.987017
0.406790 0.000000 0.983747
0.689212 0.000000 0.981043
0.268822 0.000000 0.994815
0.282994 0.000000 0.950518
0.229308 0.000000 0.994414
0.468553 0.000000 0.966782
0.247115 0.000000 0.977461
0.556265 0.000000 0.973086
0.106397 0.000000 0.979136
0.676345 0.000000 0.985072
0.763144 0.000000 0.959465
0.770249 0.000000 0.961462
0.428549 0.000000 0.987916
0.190711 0.000000 0.972856
0.724981 0.000000 0.995768
0.291831 0.000000 0.993748
0.405475 0.000000 0.980084
0.493793 0.000000 0.971107
0.725509 0.000000 0.969022
0.197098 0.000000 0.956505
0.362788 0.000000 0.982313
0.505670 0.000000 0.970091
0.313344 0.000000 0.998733
0.639780 0.000000 0.982126
0.730958 0.000000 0.958974
0.845939 0.000000 0.984559
0.419764 0.000000 0.967184
0.310415 0.000000 0.979844
0.526353 0.000000 0.949518
0.768222 0.000000 0.976058
0.816034 0.000000 0.971232
0.692966 0.000000 0.963538
0.707845 0.000000 0.942706
0.351818 0.000000 0.986510
0.494870 0.000000 0.944428
0.758298 0.000000 0.950464
0.055916 0.000000 0.972809
0.602608 0.000000 0.994498
0.701711 0.000000 0.948629
0.248418 0.000000 0.963097
0.462879 0.000000 0.990547
0.209145 0.000000 0.998648
0.544895 0.000000 0.956718
0.090410 0.000000 0.983898
0.740515 0.000000 0.967531
0.895117 0.000000 0.954598
0.668109 0.000000 0.955216
0.090135 0.000000 0.989045
0.436295 0.000000 0.958869
0.844191 0.000000 0.969328
0.160652 0.000000 0.946169
0.693803 0.000000 0.994811
0.865597 0.000000 0.979732
0.822644 0.000000 0.987892
0.492340 0.000000 0.959358
0.235600 0.000000 0.981954
0.396579 0.000000 0.952470
0.699121 0.000000 0.990707
0.118584 0.000000 0.943556
0.931855 0.000000 0.993561
0.861860 0.000000 0.981616
0.355724 0.000000 0.972844
0.088253 0.000000 0.969982
0.839704 0.000000 0.994729
0.769041 0.000000 0.967588
0.266464 0.000000 0.953611
0.875933 0.000000 0.977539
0.203043 0.000000 0.960347
0.513921 0.000000 0.946388
0.889421 0.000000 0.946574
0.921083 0.000000 0.952731
0.589657 0.000000 0.992107
0.302271 0.000000 0.976334
0.498368 0.000000 0.971322
0.720877 0.000000 0.945738
0.726279 0.000000 0.984427
0.659640 0.000000 0.988188
0.396368 0.000000 0.968146
0.828033 0.000000 0.990626
0.405105 0.000000 0.963826
0.835466 0.000000 0.994912
0.263691 0.000000 0.958879
0.532013 0.000000 0.961294
0.334791 0.000000 0.994452
0.530546 0.000000 0.944758
0.438152 0.000000 0.945321
0.298700 0.000000 0.974150
0.141906 0.000000 0.973541
0.467835 0.000000 0.978514
0.564172 0.000000 0.971067
0.135718 0.000000 0.973000
0.694935 0.000000 0.991245
0.753908 0.000000 0.993418
0.716739 0.000000 0.950599
0.096673 0.000000 0.983684
0.910664 0.000000 0.998942
0.091534 0.000000 0.974132
0.581145 0.000000 0.953602
0.536070 0.000000 0.976830
0.235835 0.000000 0.980727
0.228151 0.000000 0.960954
0.421442 0.000000 0.993347
0.572771 0.000000 0.972370
0.169763 0.000000 0.982002
0.573465 0.000000 0.946464
0.197787 0.000000 0.961431
0.840482 0.000000 0.947328
0.131260 0.000000 0.963107
0.947053 0.000000 0.992651
0.682664 0.000000 0.983167
0.712007 0.000000 0.951178
0.178595 0.000000 0.961449
0.398433 0.000000 0.949877
0.229692 0.000000 0.997682
0.461452 0.000000 0.955955
0.661152 0.000000 0.954080
0.332391 0.000000 0.996240
0.677284 0.000000 0.989392
0.752801 0.000000 0.987958
0.860427 0.000000 0.973427
0.366684 0.000000 0.989433
0.356136 0.000000 0.963009
0.131716 0.000000 0.997122
0.482296 0.000000 0.954962
0.854368 0.000000 0.965555
0.377807 0.000000 0.979957
0.226408 0.000000 0.992810
0.104337 0.000000 0.988119
0.397677 0.000000 0.986896
0.489678 0.000000 0.979768
0.152130 0.000000 0.949435
0.523761 0.000000 0.979846
0.629521 0.000000 0.994336
0.785702 0.000000 0.942897
0.326758 0.000000 0.970526
0.099808 0.000000 0.947872
0.835855 0.000000 0.963395
0.713090 0.000000 0.988051
0.429602 0.000000 0.968820
0.048632 0.000000 0.982026
0.120198 0.000000 0.970765
0.727598 0.000000 0.944794
0.495679 0.000000 0.967243
0.838091 0.000000 0.968472
0.160334 0.000000 0.953097
0.306552 0.000000 0.977936
0.878765 0.000000 0.970654
0.176935 0.000000 0.965283
0.061648 0.000000 0.965094
0.568414 0.000000 0.984992
0.407371 0.000000 0.951973
0.068210 0.000000 0.949835
0.562083 0.000000 0.951062
0.654144 0.000000 0.989341
0.124676 0.000000 0.998482
0.276601 0.000000 0.946980
0.681678 0.000000 0.969416
0.463881 0.000000 0.944213
0.628461 0.000000 0.988014
0.868103 0.000000 0.956755
0.942447 0.000000 0.970227
0.065845 0.000000 0.986388
0.355456 0.000000 0.957496
0.706390 0.000000 0.949809
0.433508 0.000000 0.997140
0.666341 0.000000 0.994524
0.205442 0.000000 0.966543
0.195243 0.000000 0.986865
0.452227 0.000000 0.947293
0.504140 0.000000 0.982158
0.421494 0.000000 0.967335
0.691969 0.000000 0.973101
0.856033 0.000000 0.943579
0.484774 0.000000 0.944290
0.428528 0.000000 0.976924
0.438174 0.000000 0.951557
0.332618 0.000000 0.986275
0.174445 0.000000 0.989647
0.685819 0.000000 0.954205
0.401486 0.000000 0.998918
0.156789 0.000000 0.992589
0.337766 0.000000 0.980373
0.890065 0.000000 0.978244
0.070494 0.000000 0.982517
0.194699 0.000000 0.994866
0.191546 0.000000 0.961437
0.458731 0.000000 0.985342
0.209185 0.000000 0.959394
0.815275 0.000000 0.960513
0.334498 0.000000 0.991172
0.117917 0.000000 0.995484
0.855679 0.000000 0.983217
0.157200 0.000000 0.955112
0.848111 0.000000 0.984637
0.483247 0.000000 0.942791
0.102872 0.000000 0.955424
0.879732 0.000000 0.976961
0.398881 0.000000 0.964437
0.855127 0.000000 0.979900
0.443474 0.000000 0.981600
0.724049 0.000000 0.963768
0.070980 0.000000 0.987995
0.285050 0.000000 0.977940
0.158611 0.000000 0.945894
0.383965 0.000000 0.950293
0.462305 0.000000 0.953615
0.379650 0.000000 0.981591
0.720992 0.000000 0.987189
0.302741 0.000000 0.946753
0.218863 0.000000 0.958451
0.566469 0.000000 0.995181
0.351270 0.000000 0.991385
0.816638 0.000000 0.969145
0.085233 0.000000 0.979219
0.483907 0.000000 0.945321
0.242154 0.000000 0.992764
0.354955 0.000000 0.956732
0.241070 0.000000 0.985167
0.806771 0.000000 0.967644
0.148738 0.000000 0.958986
0.874833 0.000000 0.975011
0.097423 0.000000 0.972804
0.553943 0.000000 0.984655
0.310355 0.000000 0.964457
0.425102 0.000000 0.951106
0.203757 0.000000 0.994112
0.261003 0.000000 0.947660
0.854039 0.000000 0.976206
0.678523 0.000000 0.972226
0.373084 0.000000 0.952775
0.876518 0.000000 0.947481
0.421900 0.000000 0.946631
0.833117 0.000000 0.970812
0.373848 0.000000 0.993548
0.192562 0.000000 0.967192
0.425605 0.000000 0.998497
0.331817 0.000000 0.977652
0.798618 0.000000 0.987936
0.096563 0.000000 0.944160
0.668317 0.000000 0.989338
0.101140 0.000000 0.945899
0.499245 0.000000 0.950559
0.575993 0.000000 0.999048
0.166519 0.000000 0.986714
0.152519 0.000000 0.998787
0.480150 0.000000 0.944195
0.152676 0.000000 0.984887
0.458049 0.000000 0.944061
0.297505 0.000000 0.948644
0.833801 0.000000 0.958296
0.283528 0.000000 0.997149
0.869827 0.000000 0.960717
0.101874 0.000000 0.995776
0.241934 0.000000 0.948800
0.871475 0.000000 0.990597
0.907111 0.000000 0.968418
0.682500 0.000000 0.948391
0.477369 0.000000 0.959815
0.471779 0.000000 0.966209
0.186941 0.000000 0.946650
0.504579 0.000000 0.952162
0.184908 0.000000 0.946026
0.502112 0.000000 0.950107
0.843077 0.000000 0.998291
0.944205 0.000000 0.994489
0.412460 0.000000 0.966326
0.273542 0.000000 0.958721
0.434715 0.000000 0.973504
0.134901 0.000000 0.981136
0.853175 0.000000 0.965973
0.369058 0.000000 0.965183
0.302054 0.000000 0.950399
0.706971 0.000000 0.984269
0.582719 0.000000 0.997505
0.691623 0.000000 0.992206
0.076354 0.000000 0.945206
0.325119 0.000000 0.944586
0.836717 0.000000 0.973921
0.408773 0.000000 0.942927
0.949932 0.000000 0.988897
0.386640 0.000000 0.980717
0.239221 0.000000 0.955316
0.187316 0.000000 0.998428
0.533442 0.000000 0.974906
0.219295 0.000000 0.960689
0.512727 0.000000 0.953854
0.117768 0.000000 0.984384
0.748848 0.000000 0.948293
0.465097 0.000000 0.994225
0.916982 0.000000 0.983194
0.252793 0.000000 0.958323
0.795981 0.000000 0.992766
0.122540 0.000000 0.996795
0.228289 0.000000 0.983679
0.928270 0.000000 0.964366
0.513134 0.000000 0.984563
0.169862 0.000000 0.974707
0.839891 0.000000 0.982463
0.245925 0.000000 0.968199
0.462640 0.000000 0.995793
0.540810 0.000000 0.994942
0.242110 0.000000 0.994952
0.936040 0.000000 0.982856
0.072058 0.000000 0.945360
0.740180 0.000000 0.986118
0.431116 0.000000 0.964133
0.793208 0.000000 0.951477
0.657197 0.000000 0.983505
0.332170 0.000000 0.960510
0.765817 0.000000 0.993693
0.346385 0.000000 0.971907
0.657340 0.000000 0.998012
0.145094 0.000000 0.957352
0.219903 0.000000 0.974965
0.065279 0.000000 0.963450
0.415674 0.000000 0.999936
0.601355 0.000000 0.979552
0.211650 0.000000 0.957677
0.823875 0.000000 0.957016
0.605872 0.000000 0.948656
0.175489 0.000000 0.976224
0.836220 0.000000 0.960300
0.179578 0.000000 0.998781
0.408301 0.000000 0.959774
0.502065 0.000000 0.952536
0.472803 0.000000 0.996164
0.198303 0.000000 0.945394
0.519040 0.000000 0.998891
0.697476 0.000000 0.982499
0.347265 0.000000 0.954591
0.887177 0.000000 0.979212
0.245191 0.000000 0.948639
0.603988 0.000000 0.958908
0.724466 0.000000 0.969597
0.629290 0.000000 0.950630
0.386925 0.000000 0.954758
0.440988 0.000000 0.948079
0.900238 0.000000 0.952322
0.169331 0.000000 0.943226
0.106275 0.000000 0.959827
0.869897 0.000000 0.955824
0.154513 0.000000 0.998264
0.354489 0.000000 0.951063
0.313341 0.000000 0.963653
0.673869 0.000000 0.966668
0.410618 0.000000 0.979037
0.852079 0.000000 0.965023
0.871719 0.000000 0.966346
0.667003 0.000000 0.993506
0.650224 0.000000 0.958732
0.860943 0.000000 0.956296
0.117902 0.000000 0.981155
0.927188 0.000000 0.983514
0.540684 0.000000 0.966049
0.789974 0.000000 0.994500
0.733239 0.000000 0.947088
0.337440 0.000000 0.989258
0.948469 0.000000 0.951925
0.531286 0.000000 0.991191
0.923593 0.000000 0.952814
0.354568 0.000000 0.995620
0.619951 0.000000 0.981959
0.211892 0.000000 0.962487
0.139550 0.000000 0.965122
0.681638 0.000000 0.983149
0.798510 0.000000 0.992466
0.088184 0.000000 0.951924
0.633912 0.000000 0.976346
0.944391 0.000000 0.979481
0.494500 0.000000 0.998637
0.087652 0.000000 0.950447
0.714211 0.000000 0.964985
0.611035 0.000000 0.950539
0.151472 0.000000 0.983417
0.626599 0.000000 0.991143
0.557825 0.000000 0.959944
0.668926 0.000000 0.966187
0.780030 0.000000 0.961438
0.848567 0.000000 0.991646
0.166416 0.000000 0.967982
0.554644 0.000000 0.968868
0.079151 0.000000 0.962250
0.624926 0.000000 0.974173
0.519035 0.000000 0.950689
0.428303 0.000000 0.946667
0.712807 0.000000 0.977950
0.506317 0.000000 0.986629
0.278267 0.000000 0.962061
0.884164 0.000000 0.985130
0.317198 0.000000 0.992612
0.538305 0.000000 0.947338
0.872053 0.000000 0.981501
0.357424 0.000000 0.979577
0.230780 0.000000 0.969773
0.645513 0.000000 0.967954
0.192298 0.000000 0.952641
0.650294 0.000000 0.945481
0.430066 0.000000 0.975338
0.750918 0.000000 0.968321
0.956883 0.000000 0.961505
0.567518 0.000000 0.965861
0.586989 0.000000 0.946310
0.439443 0.000000 0.989935
0.592314 0.000000 0.996482
0.578366 0.000000 0.965102
0.316100 0.000000 0.986901
0.448568 0.000000 0.950601
0.342814 0.000000 0.943338
0.653512 0.000000 0.959207
0.394138 0.000000 0.981343
0.230596 0.000000 0.954920
0.712260 0.000000 0.979800
0.096823 0.000000 0.978633
0.053880 0.000000 0.984490
0.882133 0.000000 0.957930
0.500939 0.000000 0.983399
0.792093 0.000000 0.978691
0.569017 0.000000 0.980314
0.423177 0.000000 0.992640
0.436629 0.000000 0.956157
0.444691 0.000000 0.990407
0.581236 0.000000 0.965612
0.193789 0.000000 0.979187
0.851644 0.000000 0.989117
0.436800 0.000000 0.994877
0.332028 0.000000 0.988255
0.711530 0.000000 0.960619
0.814718 0.000000 0.987063
0.918057 0.000000 0.985402
0.790220 0.000000 0.994578
0.476733 0.000000 0.951573
0.234020 0.000000 0.959866
0.222135 0.000000 0.998410
0.250880 0.000000 0.953729
0.745913 0.000000 0.969188
0.524315 0.000000 0.980207
0.288962 0.000000 0.957962
0.551623 0.000000 0.988653
0.491728 0.000000 0.984952
0.126388 0.000000 0.955741
0.603871 0.000000 0.955205
0.339224 0.000000 0.967821
0.735058 0.000000 0.989182
0.084330 0.000000 0.985493
0.743772 0.000000 0.954306
0.867506 0.000000 0.988514
0.917774 0.000000 0.958569
0.504276 0.000000 0.949098
0.302219 0.000000 0.942381
0.571732 0.000000 0.948735
0.315122 0.000000 0.948215
0.898420 0.000000 0.959025
0.263129 0.000000 0.985421
0.418715 0.000000 0.975653
0.894459 0.000000 0.960004
0.146500 0.000000 0.993213
0.231161 0.000000 0.986969
0.271357 0.000000 0.958149
0.050925 0.000000 0.970481
0.180129 0.000000 0.947299
0.503267 0.000000 0.979028
0.048036 0.000000 0.960681
0.428487 0.000000 0.957708
0.521117 0.000000 0.972770
0.796357 0.000000 0.985042
0.163427 0.000000 0.975764
0.225036 0.000000 0.944320
0.343061 0.000000 0.987252
0.082318 0.000000 0.947734
0.448969 0.000000 0.971982
0.122486 0.000000 0.972292
0.542530 0.000000 0.987481
0.442267 0.000000 0.965689
0.880905 0.000000 0.982605
0.089417 0.000000 0.968570
0.826548 0.000000 0.979053
0.217614 0.000000 0.961866
0.247494 0.000000 0.955153
0.750076 0.000000 0.978892
0.414401 0.000000 0.975558
0.469165 0.000000 0.967067
0.420169 0.000000 0.951753
0.924316 0.000000 0.971220
0.143136 0.000000 0.996433
0.418757 0.000000 0.985571
0.284465 0.000000 0.994166
0.324246 0.000000 0.962894
0.108825 0.000000 0.944186
0.502746 0.000000 0.968798
0.915458 0.000000 0.968194
0.326456 0.000000 0.973219
0.196956 0.000000 0.966122
0.426228 0.000000 0.981651
0.722174 0.000000 0.989531
0.615145 0.000000 0.958624
0.245005 0.000000 0.967071
0.644438 0.000000 0.995879
0.887984 0.000000 0.958337
0.205558 0.000000 0.971815
0.265082 0.000000 0.947537
0.368084 0.000000 0.946600
0.705923 0.000000 0.966553
0.955711 0.000000 0.991318
0.057769 0.000000 0.958073
0.328503 0.000000 0.975843
0.678996 0.000000 0.946815
0.428082 0.000000 0.971609
0.416870 0.000000 0.988995
0.918268 0.000000 0.945137
0.686012 0.000000 0.980990
0.755973 0.000000 0.990829
0.601435 0.000000 0.972439
0.949705 0.000000 0.962237
0.798980 0.000000 0.966429
0.458578 0.000000 0.972568
0.073991 0.000000 0.945840
0.085219 0.000000 0.987207
0.477276 0.000000 0.950710
0.913867 0.000000 0.961689
0.834421 0.000000 0.942278
0.906981 0.000000 0.948597
0.148184 0.000000 0.953861
0.732651 0.000000 0.951612
0.310337 0.000000 0.957237
0.607184 0.000000 0.958304
0.270585 0.000000 0.996057
0.542002 0.000000 0.961067
0.684421 0.000000 0.959299
0.089208 0.000000 0.965786
0.611313 0.000000 0.974182
0.056369 0.000000 0.990480
0.541643 0.000000 0.980033
0.294491 0.000000 0.991250
0.254640 0.000000 0.969591
0.568378 0.000000 0.997764
0.521361 0.000000 0.995783
0.400909 0.000000 0.975843
0.093358 0.000000 0.944524
0.555473 0.000000 0.951639
0.378022 0.000000 0.992080
0.125480 0.000000 0.997532
0.236123 0.000000 0.971819
0.613206 0.000000 0.962212
0.175904 0.000000 0.948152
0.351228 0.000000 0.965105
0.104487 0.000000 0.948699
0.503016 0.000000 0.951176
0.457140 0.000000 0.966389
0.666918 0.000000 0.999061
0.540531 0.000000 0.952631
0.365363 0.000000 0.983851
0.453866 0.000000 0.960989
0.558334 0.000000 0.998650
0.410957 0.000000 0.955269
0.758030 0.000000 0.982387
0.902287 0.000000 0.967064
0.569193 0.000000 0.972908
0.868858 0.000000 0.955929
0.909939 0.000000 0.954129
0.561757 0.000000 0.960500
0.273476 0.000000 0.945655
0.763286 0.000000 0.990158
0.503138 0.000000 0.950582
0.742587 0.000000 0.991449
0.846301 0.000000 0.985562
0.637246 0.000000 0.995878
0.392076 0.000000 0.978540
0.210464 0.000000 0.983905
0.814309 0.000000 0.974773
0.202430 0.000000 0.984994
0.189447 0.000000 0.943524
0.389632 0.000000 0.976021
0.489144 0.000000 0.991249
0.755558 0.000000 0.983775
0.295302 0.000000 0.971669
0.281990 0.000000 0.975707
0.501507 0.000000 0.944937
0.399353 0.000000 0.974309
0.241690 0.000000 0.957859
0.059841 0.000000 0.973390
0.060264 0.000000 0.952160
0.642503 0.000000 0.970865
0.764643 0.000000 0.978416
0.564085 0.000000 0.970106
0.119824 0.000000 0.955616
0.149453 0.000000 0.984456
0.306792 0.000000 0.980462
0.872669 0.000000 0.968518
0.249580 0.000000 0.982384
0.269230 0.000000 0.977337
0.869461 0.000000 0.979693
0.712664 0.000000 0.960660
0.667878 0.000000 0.960134
0.163430 0.000000 0.994555
0.096302 0.000000 0.954799
0.616745 0.000000 0.969995
0.532606 0.000000 0.985576
0.110136 0.000000 0.990029
0.149821 0.000000 0.965075
0.488039 0.000000 0.998177
0.228952 0.000000 0.974556
0.406779 0.000000 0.968506
0.223106 0.000000 0.976814
0.218300 0.000000 0.966442
0.601688 0.000000 0.954733
0.451993 0.000000 0.989128
0.813156 0.000000 0.967994
0.209181 0.000000 0.979849
0.810256 0.000000 0.990032
0.268446 0.000000 0.987603
0.850930 0.000000 0.948942
0.882238 0.000000 0.952250
0.412519 0.000000 0.953594
0.582923 0.000000 0.989723
0.217704 0.000000 0.992557
0.685741 0.000000 0.979907
0.317669 0.000000 0.942530
0.495696 0.000000 0.983195
0.091957 0.000000 0.959680
0.941852 0.000000 0.970337
0.859186 0.000000 0.983837
0.255540 0.000000 0.951008
0.716569 0.000000 0.968004
0.688545 0.000000 0.973311
0.103057 0.000000 0.972057
0.942662 0.000000 0.999715
0.221232 0.000000 0.996787
0.103533 0.000000 0.999809
0.359560 0.000000 0.988286
0.585552 0.000000 0.990645
0.238914 0.000000 0.954628
0.245513 0.000000 0.986689
0.939869 0.000000 0.949297
0.526473 0.000000 0.991721
0.818752 0.000000 0.944661
0.155292 0.000000 0.964346
0.636455 0.000000 0.965301
0.107407 0.000000 0.957328
0.858389 0.000000 0.968114
0.446347 0.000000 0.942805
0.758795 0.000000 0.997195
0.452425 0.000000 0.958427
0.638016 0.000000 0.942546
0.741141 0.000000 0.948019
0.463301 0.000000 0.956449
0.150308 0.000000 0.993936
0.441405 0.000000 0.948045
0.249829 0.000000 0.985011
0.381502 0.000000 0.973162
0.750161 0.000000 0.995524
0.323113 0.000000 0.999525
0.305835 0.000000 0.966751
0.291427 0.000000 0.944359
0.657435 0.000000 0.990258
0.059304 0.000000 0.993049
0.851265 0.000000 0.947670
0.903350 0.000000 0.957997
0.879312 0.000000 0.971123
0.123733 0.000000 0.969622
0.668896 0.000000 0.946607
0.175541 0.000000 0.963144
0.421814 0.000000 0.990127
0.764503 0.000000 0.990459
0.503674 0.000000 0.995778
0.426514 0.000000 0.967836
0.077993 0.000000 0.987481
0.092975 0.000000 0.951822
0.955717 0.000000 0.973024
0.927494 0.000000 0.951292
0.838013 0.000000 0.981799
0.481613 0.000000 0.952442
0.081993 0.000000 0.977553
0.355024 0.000000 0.963063
0.911829 0.000000 0.959395
0.337215 0.000000 0.944512
0.341030 0.000000 0.979986
0.633463 0.000000 0.994021
0.722619 0.000000 0.973769
0.904852 0.000000 0.956831
0.424520 0.000000 0.953708
0.650783 0.000000 0.950971
0.360358 0.000000 0.965464
0.064259 0.000000 0.950253
0.867940 0.000000 0.983452
0.346653 0.000000 0.942485
0.589812 0.000000 0.979206
0.048917 0.000000 0.978377
0.149718 0.000000 0.970528
0.503058 0.000000 0.958090
0.722783 0.000000 0.976095
0.367640 0.000000 0.959163
0.239681 0.000000 0.961820
0.498934 0.000000 0.977049
0.329453 0.000000 0.985300
0.552172 0.000000 0.985993
0.789010 0.000000 0.979894
0.155961 0.000000 0.943470
0.686367 0.000000 0.942551
0.675181 0.000000 0.944193
0.836734 0.000000 0.976785
0.695737 0.000000 0.997645
0.290215 0.000000 0.967779
0.848420 0.000000 0.949386
0.376843 0.000000 0.961627
0.058480 0.000000 0.986794
0.051015 0.000000 0.948440
0.768354 0.000000 0.992021
0.270005 0.000000 0.957925
0.640578 0.000000 0.978957
0.238205 0.000000 0.947630
0.095604 0.000000 0.977182
0.415026 0.000000 0.964911
0.229723 0.000000 0.958618
0.397235 0.000000 0.979370
0.594465 0.000000 0.983601
0.249014 0.000000 0.951944
0.296831 0.000000 0.984449
0.053849 0.000000 0.975683
0.203754 0.000000 0.960550
0.599305 0.000000 0.944305
0.644269 0.000000 0.996818
0.741778 0.000000 0.966311
0.301293 0.000000 0.965223
0.335726 0.000000 0.961875
0.722009 0.000000 0.982137
0.155106 0.000000 0.967234
0.727694 0.000000 0.953981
0.676845 0.000000 0.955266
0.875073 0.000000 0.973476
0.632235 0.000000 0.982538
0.760397 0.000000 0.945432
0.102640 0.000000 0.983346
0.300260 0.000000 0.950668
0.614841 0.000000 0.965255
0.188126 0.000000 0.969561
0.443479 0.000000 0.970850
0.683249 0.000000 0.991202
0.868685 0.000000 0.985706
0.449942 0.000000 0.972817
0.434696 0.000000 0.993881
0.220407 0.000000 0.975243
0.737203 0.000000 0.967071
0.283663 0.000000 0.944927
0.657024 0.000000 0.983776
0.406423 0.000000 0.992418
0.691145 0.000000 0.981174
0.759960 0.000000 0.984167
0.631254 0.000000 0.971812
0.747710 0.000000 0.989809
0.899366 0.000000 0.968589
0.796049 0.000000 0.946410
0.574981 0.000000 0.970115
0.739538 0.000000 0.965895
0.387462 0.000000 0.993455
0.309294 0.000000 0.996315
0.795964 0.000000 0.995520
0.876784 0.000000 0.984033
0.819980 0.000000 0.960246
0.052633 0.000000 0.975003
0.415625 0.000000 0.957449
0.689059 0.000000 0.997627
0.666628 0.000000 0.960849
0.808997 0.000000 0.976615
0.881696 0.000000 0.999180
0.310241 0.000000 0.978451
0.565777 0.000000 0.975968
0.493970 0.000000 0.977399
0.280142 0.000000 0.995628
0.804261 0.000000 0.971667
0.200974 0.000000 0.992716
0.691932 0.000000 0.991543
0.433139 0.000000 0.947602
0.462188 0.000000 0.995711
0.563390 0.000000 0.976086
0.911874 0.000000 0.992720
0.636289 0.000000 0.981974
0.099140 0.000000 0.993335
0.812897 0.000000 0.966361
0.481748 0.000000 0.949271
0.447193 0.000000 0.985870
0.688403 0.000000 0.995589
0.362080 0.000000 0.957947
0.130860 0.000000 0.965417
0.070345 0.000000 0.950563
0.135980 0.000000 0.950197
0.599767 0.000000 0.974466
0.775154 0.000000 0.974057
0.956453 0.000000 0.997435
0.249174 0.000000 0.963019
0.641673 0.000000 0.958601
0.454690 0.000000 0.980903
0.352342 0.000000 0.955148
0.102013 0.000000 0.987571
0.718069 0.000000 0.962833
0.167431 0.000000 0.952995
0.587823 0.000000 0.974305
0.056687 0.000000 0.994992
0.214936 0.000000 0.986277
0.698781 0.000000 0.986213
0.814513 0.000000 0.981923
0.553530 0.000000 0.992137
0.239734 0.000000 0.947766
0.162215 0.000000 0.965855
0.389374 0.000000 0.978567
0.465085 0.000000 0.976195
0.757292 0.000000 0.990871
0.337997 0.000000 0.973472
0.093858 0.000000 0.992341
0.626995 0.000000 0.944695
0.475246 0.000000 0.960665
0.498067 0.000000 0.994666
0.685622 0.000000 0.947560
0.222599 0.000000 0.986001
0.767756 0.000000 0.984320
0.145085 0.000000 0.973788
0.472397 0.000000 0.993714
0.478457 0.000000 0.947896
0.926821 0.000000 0.945839
0.068420 0.000000 0.983589
0.938459 0.000000 0.953650
0.109927 0.000000 0.959553
0.584848 0.000000 0.956371
0.158202 0.000000 0.969271
0.802984 0.000000 0.974661
0.783203 0.000000 0.991757
0.134014 0.000000 0.971049
0.580053 0.000000 0.971883
0.850961 0.000000 0.983997
0.756619 0.000000 0.948129
0.096854 0.000000 0.963488
0.265034 0.000000 0.975318
0.647445 0.000000 0.965310
0.476880 0.000000 0.951149
0.884750 0.000000 0.991475
0.217776 0.000000 0.970913
0.481549 0.000000 0.976944
0.633495 0.000000 0.942833
0.589588 0.000000 0.985750
0.566548 0.000000 0.943467
0.166582 0.000000 0.965343
0.346550 0.000000 0.947640
0.365728 0.000000 0.972089
0.483005 0.000000 0.947944
0.584686 0.000000 0.958951
0.140631 0.000000 0.958492
0.512352 0.000000 0.996557
0.848038 0.000000 0.999721
0.765024 0.000000 0.964863
0.955064 0.000000 0.994865
0.918539 0.000000 0.998619
0.339178 0.000000 0.972976
0.146254 0.000000 0.981198
0.643202 0.000000 0.951472
0.248181 0.000000 0.953298
0.628720 0.000000 0.996514
0.410529 0.000000 0.948052
0.816704 0.000000 0.982528
0.057161 0.000000 0.950536
0.241976 0.000000 0.944425
0.543020 0.000000 0.960581
0.575334 0.000000 0.979007
0.108062 0.000000 0.957730
0.545301 0.000000 0.945236
0.141529 0.000000 0.996775
0.587035 0.000000 0.969048
0.117258 0.000000 0.950325
0.887526 0.000000 0.997756
0.255408 0.000000 0.946915
0.177713 0.000000 0.959127
0.827062 0.000000 0.962570
0.774189 0.000000 0.967960
0.307842 0.000000 0.981146
0.197682 0.000000 0.966985
0.050690 0.000000 0.985953
0.094163 0.000000 0.946444
0.378240 0.000000 0.949516
0.410985 0.000000 0.975995
0.879321 0.000000 0.988547
0.689879 0.000000 0.980139
0.904901 0.000000 0.981358
0.188532 0.000000 0.978796
0.682587 0.000000 0.994205
0.795641 0.000000 0.965214
0.709007 0.000000 0.967898
0.416520 0.000000 0.951011
0.900592 0.000000 0.943292
0.860911 0.000000 0.976054
0.347009 0.000000 0.984841
0.136188 0.000000 0.965539
0.893310 0.000000 0.961389
0.936276 0.000000 0.980548
0.597113 0.000000 0.946940
0.433770 0.000000 0.989703
0.584690 0.000000 0.977532
0.551523 0.000000 0.978208
0.776257 0.000000 0.973352
0.059881 0.000000 0.977460
0.788853 0.000000 0.979883
0.769185 0.000000 0.985348
0.395283 0.000000 0.961823
0.653572 0.000000 0.992820
0.455514 0.000000 0.977842
0.547181 0.000000 0.969543
0.581034 0.000000 0.954269
0.310025 0.000000 0.976866
0.408829 0.000000 0.943273
0.739404 0.000000 0.965544
0.929520 0.000000 0.977830
0.539639 0.000000 0.986162
0.431786 0.000000 0.961568
0.767363 0.000000 0.979649
0.342701 0.000000 0.942995
0.189177 0.000000 0.956287
0.711191 0.000000 0.949666
0.497392 0.000000 0.958174
0.449595 0.000000 0.986376
0.812451 0.000000 0.996607
0.115578 0.000000 0.962224
0.927606 0.000000 0.983655
0.534333 0.000000 0.943669
0.100303 0.000000 0.991745
0.928604 0.000000 0.972934
0.939352 0.000000 0.948248
0.823935 0.000000 0.985156
0.164116 0.000000 0.946235
0.450344 0.000000 0.945668
0.280166 0.000000 0.990197
0.598405 0.000000 0.958419
0.160607 0.000000 0.996375
0.304346 0.000000 0.958660
0.423018 0.000000 0.953837
0.774035 0.000000 0.994760
0.819336 0.000000 0.975486
0.850634 0.000000 0.960151
0.512762 0.000000 0.981447
0.296149 0.000000 0.944997
0.111728 0.000000 0.944118
0.045973 0.000000 0.976043
0.743375 0.000000 0.998745
0.959181 0.000000 0.961703
0.689618 0.000000 0.996801
0.050434 0.000000 0.947742
0.487201 0.000000 0.954879
0.221990 0.000000 0.957717
0.451998 0.000000 0.998065
0.305509 0.000000 0.946965
0.402824 0.000000 0.954279
0.049512 0.000000 0.958409
0.746215 0.000000 0.994592
0.932025 0.000000 0.950568
0.204788 0.000000 0.955739
0.256844 0.000000 0.967980
0.226349 0.000000 0.964040
0.374673 0.000000 0.986212
0.270634 0.000000 0.979810
0.308305 0.000000 0.959573
0.471694 0.000000 0.942611
0.463318 0.000000 0.979804
0.894627 0.000000 0.991574
0.213548 0.000000 0.987615
0.855189 0.000000 0.991644
0.846031 0.000000 0.968382
0.161664 0.000000 0.957172
0.802151 0.000000 0.985150
0.535212 0.000000 0.999660
0.671214 0.000000 0.994171
0.579795 0.000000 0.971406
0.589370 0.000000 0.963324
0.439201 0.000000 0.994270
0.594052 0.000000 0.980793
0.564550 0.000000 0.993741
0.163989 0.000000 0.962807
0.134334 0.000000 0.955521
0.558100 0.000000 0.980840
0.788888 0.000000 0.958781
0.553147 0.000000 0.980802
0.092530 0.000000 0.984813
0.672483 0.000000 0.951155
0.272099 0.000000 0.993760
0.118459 0.000000 0.956624
0.267375 0.000000 0.969960
0.407217 0.000000 0.952227
0.591259 0.000000 0.962294
0.837225 0.000000 0.980523
0.144982 0.000000 0.974329
0.671349 0.000000 0.965611
0.850580 0.000000 0.945658
0.289986 0.000000 0.971867
0.911950 0.000000 0.963564
0.938885 0.000000 0.946968
0.151323 0.000000 0.950267
0.554998 0.000000 0.946434
0.915780 0.000000 0.956043
0.385802 0.000000 0.977532
0.680741 0.000000 0.942474
0.782326 0.000000 0.974628
0.856055 0.000000 0.946050
0.747453 0.000000 0.943065
0.225269 0.000000 0.978790
0.437185 0.000000 0.983044
0.523676 0.000000 0.968079
0.923907 0.000000 0.977014
0.484385 0.000000 0.954766
0.117694 0.000000 0.968869
0.238578 0.000000 0.961429
0.258239 0.000000 0.974013
0.254945 0.000000 0.989209
0.222451 0.000000 0.983828
0.400671 0.000000 0.958333
0.913893 0.000000 0.976788
0.917599 0.000000 0.954157
0.798526 0.000000 0.994963
0.637478 0.000000 0.982333
0.056936 0.000000 0.994529
0.357324 0.000000 0.950801
0.699304 0.000000 0.999216
0.598099 0.000000 0.999790
0.405642 0.000000 0.960617
0.507499 0.000000 0.980799
0.572961 0.000000 0.990793
0.905750 0.000000 0.994127
0.737935 0.000000 0.975543
0.913559 0.000000 0.993181
0.308704 0.000000 0.977300
0.469660 0.000000 0.974902
0.481049 0.000000 0.978567
0.799127 0.000000 0.993095
0.815439 0.000000 0.966700
0.611760 0.000000 0.976194
0.723419 0.000000 0.955743
0.774169 0.000000 0.982290
0.351189 0.000000 0.986345
0.655698 0.000000 0.990253
0.060872 0.000000 0.972393
0.119490 0.000000 0.961498
0.367209 0.000000 0.956922
0.783406 0.000000 0.999162
0.535293 0.000000 0.966492
0.494309 0.000000 0.970528
0.276636 0.000000 0.965075
0.300192 0.000000 0.962380
0.531098 0.000000 0.984077
0.427111 0.000000 0.950434
0.896901 0.000000 0.997285
0.221836 0.000000 0.999574
0.638750 0.000000 0.966130
0.519016 0.000000 0.997461
0.728880 0.000000 0.975635
0.046929 0.000000 0.980106
0.743645 0.000000 0.986543
0.817995 0.000000 0.957024
0.750783 0.000000 0.991847
0.688348 0.000000 0.988558
0.895222 0.000000 0.944848
0.243464 0.000000 0.992045
0.862865 0.000000 0.974271
0.711151 0.000000 0.952176
0.236685 0.000000 0.981686
0.195150 0.000000 0.962563
0.443543 0.000000 0.957760
0.737509 0.000000 0.952488
0.485261 0.000000 0.990595
0.850428 0.000000 0.999826
0.353064 0.000000 0.949156
0.554175 0.000000 0.952335
0.716715 0.000000 0.993573
0.826373 0.000000 0.987485
0.336913 0.000000 0.951554
0.889578 0.000000 0.957719
0.723146 0.000000 0.977848
0.708020 0.000000 0.974767
0.608214 0.000000 0.964543
0.459861 0.000000 0.956902
0.625174 0.000000 0.959234
0.152212 0.000000 0.967315
0.428831 0.000000 0.977339
0.137543 0.000000 0.983268
0.860131 0.000000 0.980012
0.275904 0.000000 0.946197
0.708392 0.000000 0.945576
0.297096 0.000000 0.969591
0.196903 0.000000 0.956047
0.442888 0.000000 0.978375
0.368774 0.000000 0.997970
0.467262 0.000000 0.964469
0.856099 0.000000 0.945879
0.161601 0.000000 0.967866
0.474204 0.000000 0.985804
0.712389 0.000000 0.988704
0.112572 0.000000 0.982115
0.605930 0.000000 0.987862
0.658624 0.000000 0.986855
0.771498 0.000000 0.953395
0.890861 0.000000 0.980136
0.930983 0.000000 0.985808
0.809556 0.000000 0.999012
0.092204 0.000000 0.942638
0.838219 0.000000 0.972194
0.933240 0.000000 0.999340
0.132405 0.000000 0.965430
0.300138 0.000000 0.997969
0.868303 0.000000 0.971333
0.457408 0.000000 0.978689
0.809254 0.000000 0.962456
0.756373 0.000000 0.971046
0.538587 0.000000 0.998091
0.608898 0.000000 0.976205
0.450322 0.000000 0.980935
0.366485 0.000000 0.996096
0.871672 0.000000 0.960094
0.158587 0.000000 0.990363
0.842403 0.000000 0.957156
0.282751 0.000000 0.945622
0.606974 0.000000 0.951851
0.854717 0.000000 0.970683
0.817101 0.000000 0.997287
0.247560 0.000000 0.953117
0.595985 0.000000 0.954563
0.173443 0.000000 0.973617
0.885242 0.000000 0.959728
0.685033 0.000000 0.992801
0.533342 0.000000 0.990661
0.876459 0.000000 0.983618
0.203148 0.000000 0.989257
0.313381 0.000000 0.976176
0.492492 0.000000 0.973381
0.401634 0.000000 0.985615
0.497664 0.000000 0.954179
0.750203 0.000000 0.962279
0.209232 0.000000 0.984244
0.795019 0.000000 0.975385
0.727462 0.000000 0.948182
0.048518 0.000000 0.982408
0.322622 0.000000 0.956967
0.850331 0.000000 0.961387
0.064077 0.000000 0.955899
0.134980 0.000000 0.998190
0.273406 0.000000 0.971515
0.436105 0.000000 0.947196
0.621818 0.000000 0.998065
0.658151 0.000000 0.972813
0.768651 0.000000 0.950214
0.714038 0.000000 0.963548
0.167949 0.000000 0.996725
0.465830 0.000000 0.956423
0.668993 0.000000 0.957785
0.363935 0.000000 0.972196
0.659528 0.000000 0.985881
0.885815 0.000000 0.997061
0.369072 0.000000 0.985326
0.288959 0.000000 0.985809
0.219806 0.000000 0.964631
0.441252 0.000000 0.980833
0.485475 0.000000 0.977791
0.315563 0.000000 0.977007
0.354223 0.000000 0.986272
0.158913 0.000000 0.963361
0.262985 0.000000 0.956548
0.098733 0.000000 0.976583
0.803811 0.000000 0.965293
0.806707 0.000000 0.974960
0.106790 0.000000 0.945130
0.164266 0.000000 0.948900
0.868599 0.000000 0.966764
0.402194 0.000000 0.963877
0.819370 0.000000 0.965209
0.622767 0.000000 0.982714
0.619082 0.000000 0.974684
0.526330 0.000000 0.974123
0.310993 0.000000 0.994054
0.782990 0.000000 0.962988
0.831098 0.000000 0.997653
0.543599 0.000000 0.973360
0.516482 0.000000 0.967691
0.234269 0.000000 0.954236
0.745000 0.000000 0.943660
0.495747 0.000000 0.976424
0.305502 0.000000 0.984248
0.441954 0.000000 0.977167
0.701683 0.000000 0.986768
0.900540 0.000000 0.982891
0.416754 0.000000 0.944881
0.178854 0.000000 0.949453
0.156692 0.000000 0.976852
0.299369 0.000000 0.964994
0.902749 0.000000 0.994570
0.285569 0.000000 0.990518
0.871617 0.000000 0.977413
0.559719 0.000000 0.951424
0.943492 0.000000 0.967505
0.763331 0.000000 0.997076
0.605372 0.000000 0.989528
0.599742 0.000000 0.967111
0.325825 0.000000 0.992055
0.190808 0.000000 0.988356
0.429420 0.000000 0.958319
0.730046 0.000000 0.969483
0.212868 0.000000 0.969765
0.269213 0.000000 0.954137
0.895167 0.000000 0.956260
0.486346 0.000000 0.988459
0.353564 0.000000 0.942637
0.136166 0.000000 0.996512
0.734533 0.000000 0.978324
0.715894 0.000000 0.949762
0.534862 0.000000 0.989993
0.785103 0.000000 0.951266
0.544604 0.000000 0.959284
0.881934 0.000000 0.991300
0.262513 0.000000 0.983052
0.670242 0.000000 0.953436
0.487658 0.000000 0.961286
0.331016 0.000000 0.945266
0.531760 0.000000 0.999953
0.544233 0.000000 0.953338
0.587412 0.000000 0.968145
0.743071 0.000000 0.982652
0.954669 0.000000 0.991610
0.641102 0.000000 0.970627
0.882994 0.000000 0.945912
0.257409 0.000000 0.965708
0.217533 0.000000 0.997597
0.495126 0.000000 0.995053
0.687179 0.000000 0.981830
0.260950 0.000000 0.985200
0.227625 0.000000 0.989467
0.685887 0.000000 0.955797
0.803767 0.000000 0.942691
0.423101 0.000000 0.987116
0.884642 0.000000 0.944678
0.406499 0.000000 0.979550
0.819880 0.000000 0.998385
0.105319 0.000000 0.945009
0.523689 0.000000 0.995260
0.256112 0.000000 0.944068
0.908499 0.000000 0.990243
0.070427 0.000000 0.967474
0.313729 0.000000 0.960293
0.380679 0.000000 0.948596
0.799578 0.000000 0.993290
0.142446 0.000000 0.985608
0.837174 0.000000 0.946020
0.525815 0.000000 0.986406
0.311362 0.000000 0.944902
0.285500 0.000000 0.983961
0.775533 0.000000 0.985579
0.474231 0.000000 0.970238
0.148386 0.000000 0.967214
0.079622 0.000000 0.962422
0.319383 0.000000 0.976290
0.048357 0.000000 0.977583
0.673949 0.000000 0.984821
0.190865 0.000000 0.985615
0.116448 0.000000 0.993905
0.359426 0.000000 0.944670
0.784597 0.000000 0.988677
0.797691 0.000000 0.967785
0.351556 0.000000 0.981502
0.758337 0.000000 0.997161
0.668239 0.000000 0.998034
0.550035 0.000000 0.950769
0.839162 0.000000 0.987595
0.206677 0.000000 0.947388
0.234240 0.000000 0.981360
0.125798 0.000000 0.987337
0.769407 0.000000 0.950196
0.717551 0.000000 0.958461
0.281745 0.000000 0.999310
0.669484 0.000000 0.955964
0.929701 0.000000 0.992155
0.211431 0.000000 0.985403
0.558315 0.000000 0.966795
0.554842 0.000000 0.975380
0.642479 0.000000 0.960071
0.180959 0.000000 0.968372
0.620150 0.000000 0.994513
0.302476 0.000000 0.971022
0.524145 0.000000 0.956547
0.703216 0.000000 0.950349
0.234537 0.000000 0.943621
0.184279 0.000000 0.976244
0.263213 0.000000 0.979365
0.590598 0.000000 0.983734
0.622254 0.000000 0.952058
0.891643 0.000000 0.947645
0.257742 0.000000 0.950289
0.807278 0.000000 0.998818
0.670912 0.000000 0.944755
0.670903 0.000000 0.990811
0.227243 0.000000 0.947073
0.188373 0.000000 0.976989
0.805652 0.000000 0.974459
0.443622 0.000000 0.944131
0.678415 0.000000 0.979426
0.239296 0.000000 0.980348
0.893347 0.000000 0.970434
0.392228 0.000000 0.977704
0.371286 0.000000 0.999099
0.503468 0.000000 0.977094
0.315917 0.000000 0.949759
0.163705 0.000000 0.989567
0.756443 0.000000 0.954019
0.765349 0.000000 0.967319
0.394605 0.000000 0.954612
0.241532 0.000000 0.942638
0.383803 0.000000 0.956663
0.916544 0.000000 0.953255
0.766012 0.000000 0.946245
0.584004 0.000000 0.974728
0.399839 0.000000 0.990116
0.402344 0.000000 0.952913
0.848766 0.000000 0.948186
0.435616 0.000000 0.944215
0.176835 0.000000 0.995551
0.155687 0.000000 0.998397
0.340964 0.000000 0.994411
0.513716 0.000000 0.972192
0.672104 0.000000 0.943857
0.745746 0.000000 0.949978
0.381838 0.000000 0.966188
0.605797 0.000000 0.968147
0.561406 0.000000 0.977144
0.728607 0.000000 0.984550
0.131101 0.000000 0.977296
0.958324 0.000000 0.959288
0.914695 0.000000 0.974694
0.054006 0.000000 0.967362
0.126819 0.000000 0.990797
0.288259 0.000000 0.955751
0.505789 0.000000 0.992420
0.761577 0.000000 0.975848
0.789450 0.000000 0.981380
0.220171 0.000000 0.944977
0.111403 0.000000 0.969250
0.106359 0.000000 0.989007
0.725333 0.000000 0.958093
0.229873 0.000000 0.989109
0.696250 0.000000 0.950311
0.808003 0.000000 0.952020
0.152954 0.000000 0.978745
0.925533 0.000000 0.949970
0.342510 0.000000 0.994686
0.240116 0.000000 0.969709
0.536472 0.000000 0.995955
0.733514 0.000000 0.963873
0.683894 0.000000 0.990260
0.047710 0.000000 0.974259
0.470574 0.000000 0.965483
0.780828 0.000000 0.958209
0.372818 0.000000 0.995528
0.304603 0.000000 0.951160
0.078436 0.000000 0.948363
0.810379 0.000000 0.989948
0.335245 0.000000 0.974632
0.416441 0.000000 0.946325
0.153444 0.000000 0.967604
0.667766 0.000000 0.969236
0.391170 0.000000 0.982628
0.509651 0.000000 0.987807
0.607475 0.000000 0.997398
0.432129 0.000000 0.946405
0.261960 0.000000 0.951666
0.336090 0.000000 0.962178
0.320360 0.000000 0.981146
0.114512 0.000000 0.987199
0.141349 0.000000 0.943180
0.931838 0.000000 0.968787
0.697201 0.000000 0.969069
0.182934 0.000000 0.977430
0.747885 0.000000 0.950631
0.845758 0.000000 0.992287
0.891079 0.000000 0.995968
0.307754 0.000000 0.973890
0.806932 0.000000 0.950087
0.281904 0.000000 0.990522
0.828510 0.000000 0.979918
0.596959 0.000000 0.972896
0.679549 0.000000 0.991680
0.632457 0.000000 0.963249
0.266023 0.000000 0.945948
0.317297 0.000000 0.996712
0.267665 0.000000 0.951005
0.356942 0.000000 0.946508
0.518000 0.000000 0.990411
0.319770 0.000000 0.997911
0.341651 0.000000 0.979804
0.221780 0.000000 0.995590
0.176439 0.000000 0.964114
0.754565 0.000000 0.984940
0.452530 0.000000 0.973635
0.943356 0.000000 0.966625
0.279359 0.000000 0.952450
0.099309 0.000000 0.951656
0.050066 0.000000 0.971290
0.794543 0.000000 0.972771
0.729343 0.000000 0.988346
0.491667 0.000000 0.977363
0.221218 0.000000 0.992679
0.192551 0.000000 0.954384
0.564463 0.000000 0.990612
0.513563 0.000000 0.959806
0.382140 0.000000 0.988257
0.711927 0.000000 0.972306
0.915830 0.000000 0.962874
0.780567 0.000000 0.995263
0.865833 0.000000 0.966098
0.645919 0.000000 0.973557
0.325930 0.000000 0.965386
0.220743 0.000000 0.971181
0.283304 0.000000 0.997321
0.938457 0.000000 0.990673
0.214421 0.000000 0.967247
0.850818 0.000000 0.964771
0.796539 0.000000 0.951235
0.784823 0.000000 0.984887
0.657166 0.000000 0.955477
0.194425 0.000000 0.958280
0.823402 0.000000 0.946499
0.861260 0.000000 0.973356
0.729164 0.000000 0.973144
0.539266 0.000000 0.998216
0.407479 0.000000 0.978250
0.521211 0.000000 0.993824
0.244501 0.000000 0.963991
0.280329 0.000000 0.993898
0.160824 0.000000 0.949282
0.819731 0.000000 0.962866
0.500648 0.000000 0.972859
0.498632 0.000000 0.969427
0.109021 0.000000 0.995922
0.132687 0.000000 0.951170
0.332410 0.000000 0.951708
0.376407 0.000000 0.977006
0.499258 0.000000 0.986199
0.751565 0.000000 0.947447
0.069168 0.000000 0.997319
0.136010 0.000000 0.981521
0.153978 0.000000 0.952409
0.488064 0.000000 0.985421
0.458300 0.000000 0.980606
0.112378 0.000000 0.951385
0.229743 0.000000 0.962235
0.445889 0.000000 0.959476
0.404723 0.000000 0.980666
0.172220 0.000000 0.959624
0.757505 0.000000 0.984708
0.273617 0.000000 0.971053
0.378087 0.000000 0.967910
0.216162 0.000000 0.957782
0.569741 0.000000 0.982682
0.089125 0.000000 0.956502
0.286019 0.000000 0.962094
0.534803 0.000000 0.994023
0.092717 0.000000 0.998667
0.708014 0.000000 0.961865
0.052244 0.000000 0.954014
0.770828 0.000000 0.966223
0.869777 0.000000 0.946930
0.803534 0.000000 0.967995
0.085023 0.000000 0.964026
0.251218 0.000000 0.964515
0.927722 0.000000 0.996490
0.741037 0.000000 0.945443
0.585195 0.000000 0.997154
0.470484 0.000000 0.956914
0.802957 0.000000 0.946330
0.819473 0.000000 0.954857
0.199368 0.000000 0.975353
0.409484 0.000000 0.993035
0.227133 0.000000 0.989318
0.522659 0.000000 0.962629
0.142759 0.000000 0.949171
0.862155 0.000000 0.973909
0.793710 0.000000 0.986874
