1.000000 0.293487 0.700773
1.000000 0.062740 0.616604
1.000000 0.258568 0.434221
1.000000 0.003725 0.454839
1.000000 0.158603 0.427806
1.000000 0.438603 0.557587
1.000000 0.305369 0.462085
1.000000 0.470860 0.430958
1.000000 0.005111 0.334135
1.000000 0.155104 0.672848
1.000000 0.454416 0.460070
1.000000 0.329120 0.546171
1.000000 0.359974 0.554288
1.000000 0.019875 0.446592
1.000000 0.228979 0.460986
1.000000 0.110021 0.855334
1.000000 0.374133 0.536515
1.000000 0.068717 0.789664
1.000000 0.005192 0.808272
1.000000 0.070747 0.904221
1.000000 0.002583 0.687082
1.000000 0.096442 0.835231
1.000000 0.461901 0.485566
1.000000 0.213196 0.425320
1.000000 0.181372 0.394917
1.000000 0.191764 0.701387
1.000000 0.362072 0.408127
1.000000 0.365702 0.445536
1.000000 0.179433 0.777693
1.000000 0.316614 0.678611
1.000000 0.509668 0.429791
1.000000 0.073649 0.506928
1.000000 0.045268 0.874337
1.000000 0.251293 0.573615
1.000000 0.056460 0.778980
1.000000 0.010543 0.664845
1.000000 0.027690 0.965799
1.000000 0.246617 0.441288
1.000000 0.390954 0.494941
1.000000 0.025640 0.860834
1.000000 0.359259 0.470672
1.000000 0.213042 0.704444
1.000000 0.120976 0.717003
1.000000 0.016197 0.477212
1.000000 0.377397 0.394646
1.000000 0.415718 0.422409
1.000000 0.196244 0.454053
1.000000 0.032469 0.644644
1.000000 0.013010 0.849634
1.000000 0.253161 0.490811
1.000000 0.134856 0.840955
1.000000 0.385777 0.456275
1.000000 0.191947 0.779753
1.000000 0.310300 0.472904
1.000000 0.201532 0.774526
1.000000 0.125293 0.676738
1.000000 0.066348 0.452249
1.000000 0.052183 0.702663
1.000000 0.286963 0.468046
1.000000 0.073427 0.352613
1.000000 0.105965 0.823956
1.000000 0.105126 0.669154
1.000000 0.173957 0.637072
1.000000 0.412808 0.513651
1.000000 0.361898 0.388989
1.000000 0.249727 0.666536
1.000000 0.128915 0.515026
1.000000 0.053111 0.920026
1.000000 0.246937 0.435095
1.000000 0.074112 0.923311
1.000000 0.184818 0.355757
1.000000 0.047355 0.871468
1.000000 0.105568 0.385874
1.000000 0.418570 0.532246
1.000000 0.011664 0.489062
1.000000 0.450606 0.445698
1.000000 0.440228 0.419046
1.000000 0.010186 0.887916
1.000000 0.138836 0.780724
1.000000 0.131680 0.554651
1.000000 0.043967 0.348571
1.000000 0.201728 0.517784
1.000000 0.105273 0.770863
1.000000 0.124402 0.822413
1.000000 0.371209 0.605351
1.000000 0.202207 0.459612
1.000000 0.068121 0.756767
1.000000 0.032198 0.481863
1.000000 0.227438 0.505511
1.000000 0.276668 0.717011
1.000000 0.415801 0.427625
1.000000 0.041329 0.470597
1.000000 0.148402 0.656177
1.000000 0.127489 0.872208
1.000000 0.407582 0.445418
1.000000 0.188686 0.471880
1.000000 0.300008 0.402181
1.000000 0.403057 0.484248
1.000000 0.008137 0.464324
1.000000 0.010637 0.523661
1.000000 0.204559 0.479051
1.000000 0.200389 0.705674
1.000000 0.124843 0.815659
1.000000 0.442777 0.506806
1.000000 0.245624 0.689364
1.000000 0.067481 0.430829
1.000000 0.129328 0.330887
1.000000 0.238733 0.396397
1.000000 0.189811 0.709967
1.000000 0.251604 0.407186
1.000000 0.045578 0.823981
1.000000 0.020483 0.353765
1.000000 0.082205 0.910544
1.000000 0.012899 0.707123
1.000000 0.001881 0.439846
1.000000 0.321038 0.396974
1.000000 0.456575 0.415312
1.000000 0.127534 0.772925
1.000000 0.152625 0.609221
1.000000 0.219769 0.375908
1.000000 0.421786 0.412976
1.000000 0.071527 0.760321
1.000000 0.347612 0.596659
1.000000 0.144909 0.756390
1.000000 0.110950 0.794412
1.000000 0.288470 0.593237
1.000000 0.366673 0.416542
1.000000 0.327458 0.391395
1.000000 0.085730 0.678333
1.000000 0.222272 0.374462
1.000000 0.317833 0.588574
1.000000 0.049688 0.874679
1.000000 0.143167 0.713284
1.000000 0.072466 0.366229
1.000000 0.077678 0.496288
1.000000 0.351727 0.631918
1.000000 0.345005 0.541930
1.000000 0.119393 0.733396
1.000000 0.336974 0.431341
1.000000 0.322623 0.478956
1.000000 0.017104 0.491264
1.000000 0.227570 0.584728
1.000000 0.525211 0.444384
1.000000 0.027163 0.463563
1.000000 0.451482 0.448739
1.000000 0.029952 0.843139
1.000000 0.151874 0.488015
1.000000 0.303975 0.545964
1.000000 0.017728 0.302673
1.000000 0.257648 0.384639
1.000000 0.186313 0.653431
1.000000 0.283310 0.398849
1.000000 0.164172 0.377854
1.000000 0.037629 0.388286
1.000000 0.119593 0.844671
1.000000 0.087538 0.352855
1.000000 0.192677 0.712744
1.000000 0.292867 0.422760
1.000000 0.188657 0.705423
1.000000 0.076782 0.793958
1.000000 0.053507 0.603952
1.000000 0.179412 0.680168
1.000000 0.251587 0.481987
1.000000 0.011778 0.373667
1.000000 0.157860 0.659167
1.000000 0.065477 0.503395
1.000000 0.019016 0.582866
1.000000 0.290867 0.595572
1.000000 0.353870 0.575287
1.000000 0.056460 0.471458
1.000000 0.295156 0.449885
1.000000 0.074390 0.371866
1.000000 0.250496 0.678115
1.000000 0.226425 0.712744
1.000000 0.162465 0.720028
1.000000 0.179156 0.378082
1.000000 0.099906 0.368863
1.000000 0.405560 0.429858
1.000000 0.246727 0.410043
1.000000 0.215431 0.692203
1.000000 0.122658 0.377966
1.000000 0.045960 0.839307
1.000000 0.116736 0.777966
1.000000 0.187618 0.624539
1.000000 0.046593 0.492714
1.000000 0.379416 0.463831
1.000000 0.110168 0.739931
1.000000 0.134969 0.571978
1.000000 0.057199 0.798498
1.000000 0.144671 0.699157
1.000000 0.162513 0.340508
1.000000 0.062507 0.631346
1.000000 0.035036 0.611114
1.000000 0.352310 0.458022
1.000000 0.179521 0.526629
1.000000 0.278478 0.636679
1.000000 0.489176 0.492887
1.000000 0.141837 0.664554
1.000000 0.342530 0.636258
1.000000 0.481414 0.508451
1.000000 0.276852 0.638456
1.000000 0.020463 0.389514
1.000000 0.047531 0.510922
1.000000 0.319132 0.410984
1.000000 0.274981 0.541862
1.000000 0.141617 0.582594
1.000000 0.361667 0.472073
1.000000 0.298467 0.639513
1.000000 0.070397 0.579797
1.000000 0.031061 0.622129
1.000000 0.235372 0.411695
1.000000 0.007951 0.807453
1.000000 0.099415 0.440856
1.000000 0.128079 0.773523
1.000000 0.453455 0.487686
1.000000 0.287829 0.631573
1.000000 0.057043 0.728506
1.000000 0.042330 0.812527
1.000000 0.111426 0.522097
1.000000 0.054433 0.690676
1.000000 0.108518 0.522186
1.000000 0.069743 0.341969
1.000000 0.074734 0.854525
1.000000 0.390510 0.416600
1.000000 0.126129 0.726359
1.000000 0.119714 0.787678
1.000000 0.043530 0.361214
1.000000 0.204295 0.649041
1.000000 0.142973 0.644793
1.000000 0.021257 0.415991
1.000000 0.078939 0.389823
1.000000 0.051280 0.919371
1.000000 0.166018 0.691133
1.000000 0.049553 0.840777
1.000000 0.267050 0.658505
1.000000 0.142327 0.351769
1.000000 0.214393 0.675120
1.000000 0.359938 0.554614
1.000000 0.308739 0.594662
1.000000 0.013843 0.621871
1.000000 0.017769 0.336124
1.000000 0.050475 0.748171
1.000000 0.019113 0.815853
1.000000 0.257330 0.380811
1.000000 0.279522 0.450251
1.000000 0.120175 0.843774
1.000000 0.169069 0.460155
1.000000 0.160158 0.350695
1.000000 0.039114 0.740310
1.000000 0.115001 0.390498
1.000000 0.088675 0.480320
1.000000 0.285080 0.558696
1.000000 0.120191 0.561817
1.000000 0.024090 0.429501
1.000000 0.023155 0.647937
1.000000 0.259039 0.438102
1.000000 0.135465 0.495142
1.000000 0.419211 0.434371
1.000000 0.040961 0.940132
1.000000 0.036051 0.814329
1.000000 0.091917 0.872889
1.000000 0.200865 0.666826
1.000000 0.065812 0.402828
1.000000 0.321629 0.624224
1.000000 0.010567 0.634012
1.000000 0.022690 0.446014
1.000000 0.002335 0.428889
1.000000 0.042693 0.928693
1.000000 0.063997 0.567284
1.000000 0.210328 0.428218
1.000000 0.368208 0.403402
1.000000 0.464519 0.477159
1.000000 0.004984 0.317525
1.000000 0.323485 0.530096
1.000000 0.290199 0.653124
1.000000 0.182770 0.552981
1.000000 0.194882 0.479332
1.000000 0.044257 0.490467
1.000000 0.007781 0.413433
1.000000 0.024463 0.609731
1.000000 0.020030 0.515399
1.000000 0.281021 0.504688
1.000000 0.022464 0.639719
1.000000 0.324827 0.387367
1.000000 0.056354 0.447315
1.000000 0.205960 0.454710
1.000000 0.121905 0.678268
1.000000 0.160566 0.540961
1.000000 0.122940 0.377633
1.000000 0.180656 0.528225
1.000000 0.255517 0.437239
1.000000 0.330033 0.631684
1.000000 0.102434 0.844945
1.000000 0.118042 0.611905
1.000000 0.474406 0.474467
1.000000 0.252464 0.727348
1.000000 0.172490 0.746913
1.000000 0.040212 0.785887
1.000000 0.035814 0.529143
1.000000 0.008044 0.627995
1.000000 0.076227 0.828564
1.000000 0.104683 0.616477
1.000000 0.002364 0.500151
1.000000 0.197838 0.469857
1.000000 0.179328 0.736599
1.000000 0.061998 0.467024
1.000000 0.074746 0.900954
1.000000 0.049578 0.738815
1.000000 0.119508 0.538045
1.000000 0.280449 0.675979
1.000000 0.154258 0.778163
1.000000 0.272133 0.378953
1.000000 0.405224 0.454680
1.000000 0.070671 0.625798
1.000000 0.278920 0.624568
1.000000 0.295196 0.414917
1.000000 0.120387 0.761441
1.000000 0.205011 0.589153
1.000000 0.255766 0.483741
1.000000 0.005714 0.859763
1.000000 0.217248 0.359528
1.000000 0.288222 0.379008
1.000000 0.135710 0.394549
1.000000 0.162619 0.567845
1.000000 0.005974 0.799620
1.000000 0.304922 0.621827
1.000000 0.183299 0.720235
1.000000 0.286817 0.432940
1.000000 0.177097 0.778552
1.000000 0.004242 0.604438
1.000000 0.287142 0.560895
1.000000 0.023409 0.372370
1.000000 0.051506 0.903641
1.000000 0.276575 0.696925
1.000000 0.027283 0.326406
1.000000 0.150315 0.583114
1.000000 0.273273 0.455705
1.000000 0.465961 0.522654
1.000000 0.037827 0.520688
1.000000 0.054704 0.706456
1.000000 0.353616 0.473967
1.000000 0.303411 0.686856
1.000000 0.058379 0.531275
1.000000 0.043136 0.546360
1.000000 0.317346 0.532204
1.000000 0.120353 0.669755
1.000000 0.257408 0.686295
1.000000 0.316857 0.676861
1.000000 0.126591 0.456091
1.000000 0.226261 0.454176
1.000000 0.270055 0.376340
1.000000 0.095704 0.334008
1.000000 0.011766 0.635092
1.000000 0.171101 0.483878
1.000000 0.036302 0.328202
1.000000 0.390500 0.453243
1.000000 0.310917 0.563607
1.000000 0.099400 0.566662
1.000000 0.526855 0.439564
1.000000 0.261193 0.545222
1.000000 0.152968 0.717991
1.000000 0.361260 0.627008
1.000000 0.118904 0.631937
1.000000 0.257960 0.573577
1.000000 0.037231 0.816790
1.000000 0.208440 0.444853
1.000000 0.262961 0.638680
1.000000 0.149125 0.487314
1.000000 0.422071 0.541191
1.000000 0.373927 0.610833
1.000000 0.025253 0.710629
1.000000 0.048205 0.873909
1.000000 0.003671 0.520215
1.000000 0.197626 0.668273
1.000000 0.363268 0.616326
1.000000 0.034134 0.364262
1.000000 0.223843 0.480945
1.000000 0.294461 0.534024
1.000000 0.186718 0.813234
1.000000 0.253340 0.400656
1.000000 0.167063 0.630374
1.000000 0.423169 0.506018
1.000000 0.105375 0.864400
1.000000 0.137004 0.350279
1.000000 0.205979 0.518389
1.000000 0.005234 0.985504
1.000000 0.008738 0.819562
1.000000 0.038217 0.741624
1.000000 0.307142 0.395223
1.000000 0.386004 0.607888
1.000000 0.079110 0.796315
1.000000 0.121873 0.414387
1.000000 0.019635 0.473431
1.000000 0.370707 0.610756
1.000000 0.405951 0.589700
1.000000 0.168209 0.511581
1.000000 0.123500 0.773218
1.000000 0.001317 0.347833
1.000000 0.091031 0.879534
1.000000 0.162978 0.527397
1.000000 0.416603 0.411201
1.000000 0.298075 0.536989
1.000000 0.221144 0.476677
1.000000 0.423326 0.441139
1.000000 0.155391 0.701444
1.000000 0.202155 0.570150
1.000000 0.345919 0.630155
1.000000 0.348876 0.633302
1.000000 0.354734 0.643457
1.000000 0.008614 0.482490
1.000000 0.492629 0.479270
1.000000 0.292117 0.503886
1.000000 0.268947 0.677032
1.000000 0.355198 0.499587
1.000000 0.197744 0.757566
1.000000 0.266883 0.526543
1.000000 0.178052 0.759422
1.000000 0.001929 0.754151
1.000000 0.494521 0.425826
1.000000 0.026742 0.658960
1.000000 0.151082 0.704311
1.000000 0.268847 0.689919
1.000000 0.352424 0.570591
1.000000 0.089451 0.907526
1.000000 0.014513 0.590580
1.000000 0.106895 0.534428
1.000000 0.396470 0.587514
1.000000 0.049527 0.821778
1.000000 0.248238 0.637057
1.000000 0.102076 0.862798
1.000000 0.077995 0.755174
1.000000 0.167033 0.450768
1.000000 0.074282 0.648717
1.000000 0.092785 0.897165
1.000000 0.224511 0.761527
1.000000 0.029318 0.418655
1.000000 0.046981 0.398643
1.000000 0.347851 0.495919
1.000000 0.260409 0.597968
1.000000 0.083548 0.330942
1.000000 0.084377 0.473652
1.000000 0.204452 0.583727
1.000000 0.246764 0.582721
1.000000 0.163160 0.381545
1.000000 0.184744 0.359321
1.000000 0.047410 0.600652
1.000000 0.056481 0.546635
1.000000 0.106528 0.662833
1.000000 0.114695 0.421976
1.000000 0.316223 0.642614
1.000000 0.175351 0.449983
1.000000 0.036642 0.520720
1.000000 0.039544 0.531658
1.000000 0.370581 0.429379
1.000000 0.065676 0.783268
1.000000 0.071441 0.759745
1.000000 0.328033 0.579908
1.000000 0.215596 0.467570
1.000000 0.467212 0.419981
1.000000 0.137603 0.476921
1.000000 0.356088 0.625650
1.000000 0.451148 0.441881
1.000000 0.077635 0.776916
1.000000 0.354994 0.473058
1.000000 0.332307 0.384675
1.000000 0.139349 0.465775
1.000000 0.064821 0.499128
1.000000 0.301167 0.654905
1.000000 0.152719 0.743505
1.000000 0.077102 0.632408
1.000000 0.311005 0.662617
1.000000 0.261813 0.482832
1.000000 0.042415 0.869396
1.000000 0.184976 0.674221
1.000000 0.038976 0.429027
1.000000 0.158455 0.449514
1.000000 0.323423 0.435735
1.000000 0.145490 0.499383
1.000000 0.455993 0.523269
1.000000 0.067814 0.476771
1.000000 0.148591 0.384703
1.000000 0.241317 0.448962
1.000000 0.075158 0.897791
1.000000 0.055964 0.381784
1.000000 0.464582 0.462825
1.000000 0.191990 0.473144
1.000000 0.228910 0.643857
1.000000 0.031590 0.353754
1.000000 0.106522 0.858249
1.000000 0.103168 0.521852
1.000000 0.323165 0.578672
1.000000 0.073681 0.693648
1.000000 0.478529 0.479989
1.000000 0.134432 0.561211
1.000000 0.374599 0.460346
1.000000 0.156151 0.682032
1.000000 0.046676 0.926891
1.000000 0.427706 0.516656
1.000000 0.357621 0.459909
1.000000 0.289756 0.679330
1.000000 0.361104 0.432670
1.000000 0.251928 0.391465
1.000000 0.290298 0.682844
1.000000 0.070830 0.696809
1.000000 0.171411 0.390436
1.000000 0.364091 0.530479
1.000000 0.242001 0.548570
1.000000 0.158169 0.632521
1.000000 0.027563 0.640793
1.000000 0.287008 0.439335
1.000000 0.123013 0.563938
1.000000 0.116692 0.452805
1.000000 0.021556 0.418914
1.000000 0.120178 0.391409
1.000000 0.154406 0.743178
1.000000 0.373530 0.576939
1.000000 0.108713 0.664612
1.000000 0.017574 0.893143
1.000000 0.179997 0.812669
1.000000 0.094472 0.616190
1.000000 0.010371 0.649535
1.000000 0.087522 0.897301
1.000000 0.109189 0.578240
1.000000 0.475522 0.435681
1.000000 0.375906 0.430691
1.000000 0.163090 0.380018
1.000000 0.000085 0.779917
1.000000 0.206210 0.539178
1.000000 0.202762 0.582816
1.000000 0.256355 0.605853
1.000000 0.334587 0.386771
1.000000 0.207220 0.348651
1.000000 0.297446 0.681403
1.000000 0.320341 0.540592
1.000000 0.036436 0.364334
1.000000 0.188074 0.766596
1.000000 0.240746 0.520109
1.000000 0.182261 0.661937
1.000000 0.028476 0.768143
1.000000 0.228985 0.454474
1.000000 0.181243 0.431817
1.000000 0.256354 0.481350
1.000000 0.419219 0.453809
1.000000 0.226730 0.636356
1.000000 0.361514 0.493894
1.000000 0.203404 0.788510
1.000000 0.181009 0.522681
1.000000 0.120899 0.852367
1.000000 0.026216 0.347533
1.000000 0.287577 0.520023
1.000000 0.035149 0.484785
1.000000 0.036209 0.831903
1.000000 0.301497 0.693243
1.000000 0.002363 0.597233
1.000000 0.260523 0.611308
1.000000 0.020921 0.460790
1.000000 0.278817 0.382266
1.000000 0.047480 0.653406
1.000000 0.353773 0.633294
1.000000 0.162909 0.789179
1.000000 0.012919 0.393827
1.000000 0.294507 0.416817
1.000000 0.049135 0.569723
1.000000 0.084758 0.666182
1.000000 0.072696 0.438162
1.000000 0.120767 0.571594
1.000000 0.150102 0.500817
1.000000 0.073100 0.490401
1.000000 0.177214 0.561541
1.000000 0.035387 0.466534
1.000000 0.346300 0.509802
1.000000 0.366256 0.616749
1.000000 0.014188 0.609433
1.000000 0.003948 0.452620
1.000000 0.021207 0.404016
1.000000 0.046691 0.691859
1.000000 0.215001 0.470731
1.000000 0.201949 0.447561
1.000000 0.021090 0.729979
1.000000 0.099202 0.465028
1.000000 0.003127 0.697286
1.000000 0.155561 0.744550
1.000000 0.296267 0.530426
1.000000 0.262183 0.448454
1.000000 0.092258 0.899155
1.000000 0.036400 0.427529
1.000000 0.234937 0.708471
1.000000 0.098561 0.394428
1.000000 0.119686 0.393373
1.000000 0.265660 0.666288
1.000000 0.046073 0.372094
1.000000 0.118396 0.745965
1.000000 0.119378 0.517341
1.000000 0.231714 0.368295
1.000000 0.215563 0.506245
1.000000 0.117840 0.867187
1.000000 0.297380 0.516887
1.000000 0.171501 0.466472
1.000000 0.035383 0.399021
1.000000 0.375517 0.410498
1.000000 0.288655 0.580515
1.000000 0.207670 0.510583
1.000000 0.045505 0.588235
1.000000 0.057356 0.880699
1.000000 0.214649 0.518401
1.000000 0.056248 0.646063
1.000000 0.073538 0.910736
1.000000 0.025236 0.517051
1.000000 0.420248 0.527208
1.000000 0.436475 0.537116
1.000000 0.274491 0.583492
1.000000 0.083903 0.709972
1.000000 0.193301 0.552949
1.000000 0.150290 0.408059
1.000000 0.360310 0.596047
1.000000 0.083513 0.569488
1.000000 0.122801 0.745253
1.000000 0.278827 0.452711
1.000000 0.092932 0.714616
1.000000 0.410894 0.589078
1.000000 0.010318 0.487814
1.000000 0.022045 0.674715
1.000000 0.195672 0.794182
1.000000 0.323194 0.603375
1.000000 0.020119 0.527825
1.000000 0.396240 0.499552
1.000000 0.057206 0.742782
1.000000 0.227560 0.665596
1.000000 0.171029 0.668559
1.000000 0.298828 0.627041
1.000000 0.378628 0.487121
1.000000 0.026883 0.319587
1.000000 0.015264 0.849259
1.000000 0.443361 0.502399
1.000000 0.117968 0.550800
1.000000 0.066726 0.561060
1.000000 0.162018 0.770675
1.000000 0.273645 0.524287
1.000000 0.390229 0.478561
1.000000 0.097045 0.451467
1.000000 0.389304 0.593473
1.000000 0.274597 0.522764
1.000000 0.209977 0.452893
1.000000 0.120829 0.586217
1.000000 0.251365 0.467573
1.000000 0.084710 0.674951
1.000000 0.010330 0.302731
1.000000 0.033609 0.579817
1.000000 0.261229 0.390554
1.000000 0.153545 0.803639
1.000000 0.082650 0.433175
1.000000 0.258813 0.416005
1.000000 0.094520 0.352042
1.000000 0.211432 0.690712
1.000000 0.084453 0.647291
1.000000 0.358438 0.535810
1.000000 0.142297 0.496790
1.000000 0.318654 0.591916
1.000000 0.155821 0.835300
1.000000 0.021799 0.870818
1.000000 0.138111 0.505840
1.000000 0.403489 0.588340
1.000000 0.101650 0.802175
1.000000 0.401423 0.472305
1.000000 0.011347 0.858803
1.000000 0.031243 0.679530
1.000000 0.037965 0.894284
1.000000 0.126119 0.827737
1.000000 0.164953 0.490448
1.000000 0.307318 0.547814
1.000000 0.002228 0.407480
1.000000 0.161856 0.622808
1.000000 0.267339 0.573945
1.000000 0.039268 0.868044
1.000000 0.007617 0.294457
1.000000 0.004980 0.763199
1.000000 0.341259 0.633088
1.000000 0.338120 0.524044
1.000000 0.003995 0.876156
1.000000 0.308836 0.555972
1.000000 0.036711 0.421003
1.000000 0.197565 0.626044
1.000000 0.132049 0.807053
1.000000 0.119791 0.610014
1.000000 0.038632 0.689186
1.000000 0.126876 0.564304
1.000000 0.236007 0.701642
1.000000 0.014630 0.759539
1.000000 0.130926 0.735970
1.000000 0.062599 0.438262
1.000000 0.129919 0.799443
1.000000 0.170229 0.338264
1.000000 0.090202 0.631262
1.000000 0.368445 0.617570
1.000000 0.310111 0.555461
1.000000 0.023544 0.952641
1.000000 0.045119 0.604988
1.000000 0.271747 0.711828
1.000000 0.061502 0.624658
1.000000 0.149788 0.679511
1.000000 0.242151 0.689411
1.000000 0.208930 0.454304
1.000000 0.110523 0.466105
1.000000 0.129051 0.750897
1.000000 0.488639 0.485407
1.000000 0.177879 0.744234
1.000000 0.062924 0.584768
1.000000 0.214398 0.526472
1.000000 0.025894 0.435783
1.000000 0.032315 0.932793
1.000000 0.015666 0.758269
1.000000 0.466787 0.531868
1.000000 0.174582 0.514089
1.000000 0.093547 0.705175
1.000000 0.036980 0.515612
1.000000 0.057606 0.507116
1.000000 0.122969 0.385847
1.000000 0.467256 0.419449
1.000000 0.123471 0.590414
1.000000 0.387395 0.549406
1.000000 0.192266 0.621195
1.000000 0.125359 0.341494
1.000000 0.266356 0.457953
1.000000 0.131459 0.438539
1.000000 0.387412 0.421427
1.000000 0.094849 0.605391
1.000000 0.260554 0.513492
1.000000 0.121991 0.459344
1.000000 0.301441 0.667820
1.000000 0.108341 0.693376
1.000000 0.035300 0.769797
1.000000 0.154386 0.420979
1.000000 0.007510 0.506278
1.000000 0.212714 0.668763
1.000000 0.072326 0.397704
1.000000 0.272581 0.598847
1.000000 0.446744 0.508947
1.000000 0.152069 0.447695
1.000000 0.210981 0.489444
1.000000 0.393965 0.410247
1.000000 0.137747 0.689785
1.000000 0.228095 0.755613
1.000000 0.047719 0.785949
1.000000 0.136253 0.338158
1.000000 0.322627 0.479468
1.000000 0.007370 0.356351
1.000000 0.107946 0.557870
1.000000 0.108858 0.504334
1.000000 0.043830 0.592766
1.000000 0.440213 0.485485
1.000000 0.204389 0.606646
1.000000 0.070482 0.909200
1.000000 0.082585 0.502235
1.000000 0.203420 0.537821
1.000000 0.059044 0.491853
1.000000 0.298245 0.553280
1.000000 0.463386 0.499429
1.000000 0.263758 0.453584
1.000000 0.390159 0.416317
1.000000 0.111925 0.703328
1.000000 0.050983 0.401452
1.000000 0.320034 0.636974
1.000000 0.112741 0.722960
1.000000 0.003421 0.866024
1.000000 0.061803 0.782324
1.000000 0.269453 0.424700
1.000000 0.032899 0.869666
1.000000 0.360955 0.533878
1.000000 0.298179 0.647077
1.000000 0.339423 0.606492
1.000000 0.117234 0.562029
1.000000 0.240985 0.513618
1.000000 0.143311 0.833316
1.000000 0.035348 0.334312
1.000000 0.059304 0.684952
1.000000 0.113224 0.769753
1.000000 0.144379 0.421735
1.000000 0.136366 0.346608
1.000000 0.210274 0.787270
1.000000 0.282110 0.691957
1.000000 0.064288 0.327524
1.000000 0.057490 0.437795
1.000000 0.236923 0.570893
1.000000 0.195262 0.373620
1.000000 0.192607 0.631430
1.000000 0.040477 0.777320
1.000000 0.412602 0.421069
1.000000 0.068805 0.465277
1.000000 0.134463 0.754150
1.000000 0.428406 0.568212
1.000000 0.072649 0.926548
1.000000 0.111483 0.366717
1.000000 0.078478 0.314064
1.000000 0.063094 0.521948
1.000000 0.115284 0.465275
1.000000 0.355660 0.574786
1.000000 0.275803 0.513521
1.000000 0.288897 0.537712
1.000000 0.336165 0.408679
1.000000 0.064802 0.700432
1.000000 0.135416 0.593587
1.000000 0.124857 0.426400
1.000000 0.078698 0.722989
1.000000 0.202698 0.535433
1.000000 0.292868 0.630994
1.000000 0.102842 0.443408
1.000000 0.081554 0.629391
1.000000 0.122001 0.848054
1.000000 0.034568 0.515683
1.000000 0.007507 0.521897
1.000000 0.136028 0.769959
1.000000 0.268800 0.397947
1.000000 0.187075 0.381543
1.000000 0.350275 0.442838
1.000000 0.094533 0.592686
1.000000 0.224538 0.658490
1.000000 0.039704 0.571631
1.000000 0.398984 0.565755
1.000000 0.172616 0.600074
1.000000 0.039734 0.766478
1.000000 0.155003 0.550985
1.000000 0.150690 0.459181
1.000000 0.330463 0.388136
1.000000 0.063900 0.748844
1.000000 0.171529 0.804652
1.000000 0.438575 0.505312
1.000000 0.046084 0.709683
1.000000 0.303700 0.458850
1.000000 0.141823 0.820651
1.000000 0.307824 0.379075
1.000000 0.003145 0.941645
1.000000 0.045782 0.346014
1.000000 0.152971 0.455677
1.000000 0.019159 0.960127
1.000000 0.320706 0.622011
1.000000 0.165100 0.782830
1.000000 0.463447 0.483675
1.000000 0.093408 0.693763
1.000000 0.066221 0.794130
1.000000 0.065210 0.471156
1.000000 0.008657 0.744890
1.000000 0.186415 0.436503
1.000000 0.066280 0.563820
1.000000 0.066342 0.782449
1.000000 0.350953 0.390773
1.000000 0.365270 0.445765
1.000000 0.057649 0.657408
1.000000 0.138572 0.426033
1.000000 0.184698 0.620703
1.000000 0.155588 0.758573
1.000000 0.137191 0.511297
1.000000 0.426921 0.509099
1.000000 0.033855 0.536750
1.000000 0.170383 0.615570
1.000000 0.512556 0.428835
1.000000 0.070740 0.681273
1.000000 0.375655 0.601387
1.000000 0.017695 0.797958
1.000000 0.098198 0.736809
1.000000 0.251390 0.611693
1.000000 0.364087 0.486433
1.000000 0.208393 0.532496
1.000000 0.197226 0.654985
1.000000 0.281171 0.616250
1.000000 0.326714 0.516493
1.000000 0.023233 0.307944
1.000000 0.190510 0.497272
1.000000 0.192421 0.632854
1.000000 0.284499 0.686467
1.000000 0.239832 0.475337
1.000000 0.017324 0.705092
1.000000 0.298604 0.530026
1.000000 0.224252 0.742114
1.000000 0.140165 0.652513
1.000000 0.076534 0.371182
1.000000 0.364446 0.531561
1.000000 0.319169 0.480301
1.000000 0.018133 0.740912
1.000000 0.132647 0.822113
1.000000 0.016238 0.603309
1.000000 0.283095 0.393951
1.000000 0.123131 0.871528
1.000000 0.254662 0.648210
1.000000 0.071460 0.716878
1.000000 0.229695 0.546351
1.000000 0.252567 0.364818
1.000000 0.326106 0.643501
1.000000 0.246442 0.715837
1.000000 0.219175 0.570387
1.000000 0.016152 0.618000
1.000000 0.034668 0.613910
1.000000 0.099335 0.547771
1.000000 0.007249 0.516166
1.000000 0.137964 0.419015
1.000000 0.072368 0.670940
1.000000 0.063127 0.388248
1.000000 0.207654 0.551075
1.000000 0.291035 0.641597
1.000000 0.090246 0.775373
1.000000 0.266872 0.411300
1.000000 0.044651 0.557743
1.000000 0.048097 0.381604
1.000000 0.017834 0.437639
1.000000 0.238311 0.374920
1.000000 0.013308 0.307021
1.000000 0.315340 0.454446
1.000000 0.026069 0.957420
1.000000 0.027308 0.813031
1.000000 0.098845 0.614216
1.000000 0.245479 0.712864
1.000000 0.108616 0.553127
1.000000 0.127131 0.856494
1.000000 0.495863 0.447176
1.000000 0.099410 0.791177
1.000000 0.291564 0.598465
1.000000 0.054797 0.842237
1.000000 0.142290 0.565700
1.000000 0.332602 0.644412
1.000000 0.259401 0.632287
1.000000 0.145358 0.773229
1.000000 0.071542 0.415968
1.000000 0.361644 0.435492
1.000000 0.189937 0.711705
1.000000 0.063131 0.310927
1.000000 0.028097 0.592354
1.000000 0.006353 0.353617
1.000000 0.242010 0.625643
1.000000 0.270625 0.496684
1.000000 0.355990 0.522162
1.000000 0.007609 0.786375
1.000000 0.093971 0.828008
1.000000 0.166718 0.737438
1.000000 0.094965 0.345956
1.000000 0.112213 0.596694
1.000000 0.082523 0.387701
1.000000 0.236734 0.750123
1.000000 0.019454 0.789126
1.000000 0.147858 0.574355
1.000000 0.036578 0.845625
1.000000 0.009261 0.835824
1.000000 0.108159 0.345774
1.000000 0.192178 0.618976
1.000000 0.123822 0.579258
1.000000 0.138828 0.541845
1.000000 0.105465 0.336903
1.000000 0.481432 0.491992
1.000000 0.010546 0.860859
1.000000 0.128522 0.359834
1.000000 0.070561 0.438210
1.000000 0.266496 0.427984
1.000000 0.137001 0.822078
1.000000 0.122007 0.843324
1.000000 0.035401 0.364009
1.000000 0.024891 0.647452
1.000000 0.085690 0.335664
1.000000 0.436235 0.462880
1.000000 0.324748 0.585323
1.000000 0.016456 0.855915
1.000000 0.125653 0.548955
1.000000 0.254331 0.460792
1.000000 0.100281 0.429802
1.000000 0.378196 0.449204
1.000000 0.061932 0.688525
1.000000 0.067290 0.854272
1.000000 0.210991 0.581511
1.000000 0.193746 0.695324
1.000000 0.173797 0.382203
1.000000 0.495062 0.466157
1.000000 0.089758 0.443282
1.000000 0.417339 0.558605
1.000000 0.153414 0.535471
1.000000 0.109370 0.651776
1.000000 0.242428 0.572665
1.000000 0.009163 0.320306
1.000000 0.132217 0.441576
1.000000 0.426350 0.503742
1.000000 0.142666 0.552100
1.000000 0.112958 0.554454
1.000000 0.154197 0.612473
1.000000 0.205067 0.729692
1.000000 0.440654 0.493401
1.000000 0.138761 0.529318
1.000000 0.327098 0.531472
1.000000 0.020102 0.945969
1.000000 0.327249 0.445788
1.000000 0.348453 0.474375
1.000000 0.044333 0.362374
1.000000 0.358322 0.495030
1.000000 0.002859 0.888982
1.000000 0.300821 0.667966
1.000000 0.030906 0.824871
1.000000 0.368758 0.423640
1.000000 0.438712 0.494929
1.000000 0.071158 0.859855
1.000000 0.367500 0.488996
1.000000 0.062432 0.782176
1.000000 0.303650 0.610071
1.000000 0.081161 0.378064
1.000000 0.427571 0.503983
1.000000 0.124868 0.533002
1.000000 0.225456 0.456895
1.000000 0.052754 0.724718
1.000000 0.379642 0.533223
1.000000 0.035339 0.303588
1.000000 0.065666 0.574171
1.000000 0.003483 0.949123
1.000000 0.126304 0.342356
1.000000 0.480586 0.460661
1.000000 0.297995 0.569535
1.000000 0.047979 0.895558
1.000000 0.140313 0.835406
1.000000 0.211811 0.472345
1.000000 0.416179 0.529468
1.000000 0.230386 0.726446
1.000000 0.255772 0.606431
1.000000 0.165341 0.682039
1.000000 0.126684 0.808708
1.000000 0.400687 0.416149
1.000000 0.429938 0.447986
1.000000 0.152088 0.689539
1.000000 0.409271 0.578598
1.000000 0.074035 0.462078
1.000000 0.058836 0.878455
1.000000 0.027433 0.448986
1.000000 0.041230 0.609528
1.000000 0.169958 0.396208
1.000000 0.125814 0.345744
1.000000 0.075778 0.774326
1.000000 0.109491 0.657767
1.000000 0.206513 0.383244
1.000000 0.145490 0.760667
1.000000 0.001384 0.684860
1.000000 0.068663 0.463261
1.000000 0.344040 0.389114
1.000000 0.328100 0.536839
1.000000 0.331003 0.490411
1.000000 0.155056 0.425497
1.000000 0.015350 0.635240
1.000000 0.081778 0.334206
1.000000 0.223834 0.738266
1.000000 0.173610 0.639726
1.000000 0.060506 0.585910
1.000000 0.274275 0.512149
1.000000 0.032661 0.494220
1.000000 0.064301 0.410225
1.000000 0.325840 0.535768
1.000000 0.007641 0.326130
1.000000 0.348216 0.543571
1.000000 0.295286 0.599923
1.000000 0.478569 0.501233
1.000000 0.371915 0.473090
1.000000 0.110698 0.380364
1.000000 0.222829 0.441626
1.000000 0.094752 0.567570
1.000000 0.003985 0.673092
1.000000 0.267808 0.674714
1.000000 0.104959 0.792378
1.000000 0.095582 0.439141
1.000000 0.324476 0.459729
1.000000 0.390894 0.569984
1.000000 0.190435 0.482398
1.000000 0.048487 0.670680
1.000000 0.086439 0.349575
1.000000 0.075742 0.649679
1.000000 0.215932 0.648467
1.000000 0.251831 0.439970
1.000000 0.006911 0.668032
1.000000 0.064983 0.667868
1.000000 0.281069 0.661875
1.000000 0.083331 0.582951
1.000000 0.056570 0.424290
1.000000 0.093489 0.768789
1.000000 0.430364 0.474161
1.000000 0.175446 0.652860
1.000000 0.169728 0.767946
1.000000 0.042274 0.440797
1.000000 0.422946 0.423979
1.000000 0.230459 0.757543
1.000000 0.101010 0.885427
1.000000 0.350065 0.632447
1.000000 0.153213 0.842597
1.000000 0.226334 0.642015
1.000000 0.450643 0.476529
1.000000 0.297727 0.700079
1.000000 0.202138 0.488272
1.000000 0.183292 0.573209
1.000000 0.313912 0.459053
1.000000 0.072924 0.462889
1.000000 0.054053 0.523160
1.000000 0.412537 0.512165
1.000000 0.112868 0.542775
1.000000 0.291257 0.573524
1.000000 0.073967 0.806976
1.000000 0.077210 0.797236
1.000000 0.021708 0.907905
1.000000 0.004980 0.949865
1.000000 0.065422 0.519179
1.000000 0.378377 0.487460
1.000000 0.185771 0.622729
1.000000 0.015002 0.516486
1.000000 0.167585 0.501765
1.000000 0.044258 0.935689
1.000000 0.222905 0.699466
1.000000 0.021060 0.969632
1.000000 0.153568 0.694494
1.000000 0.040672 0.865787
1.000000 0.103465 0.736766
1.000000 0.035775 0.620931
1.000000 0.186538 0.547699
1.000000 0.026336 0.501973
1.000000 0.332389 0.624352
1.000000 0.189905 0.412470
1.000000 0.110178 0.446234
1.000000 0.331494 0.427514
1.000000 0.172928 0.465829
1.000000 0.257077 0.733859
1.000000 0.089773 0.859868
1.000000 0.206545 0.436331
1.000000 0.294383 0.679188
1.000000 0.306801 0.512273
1.000000 0.153237 0.704298
1.000000 0.156405 0.556313
1.000000 0.088753 0.774763
1.000000 0.259287 0.617237
1.000000 0.193491 0.465440
1.000000 0.003031 0.461420
1.000000 0.041735 0.604448
1.000000 0.186734 0.549699
1.000000 0.030864 0.849469
1.000000 0.219522 0.530420
1.000000 0.363231 0.520158
1.000000 0.116465 0.482212
1.000000 0.095495 0.550688
1.000000 0.022422 0.621760
1.000000 0.434841 0.492860
1.000000 0.222275 0.511949
1.000000 0.155174 0.588192
1.000000 0.178267 0.701373
1.000000 0.047421 0.377893
1.000000 0.003355 0.606228
1.000000 0.428864 0.567628
1.000000 0.417529 0.531287
1.000000 0.146679 0.712273
1.000000 0.057890 0.505465
1.000000 0.048844 0.334820
1.000000 0.426066 0.551138
1.000000 0.041388 0.454569
1.000000 0.359689 0.596775
1.000000 0.102439 0.537788
1.000000 0.116644 0.660482
1.000000 0.048097 0.346323
1.000000 0.031307 0.749631
1.000000 0.024886 0.832821
1.000000 0.057127 0.650459
1.000000 0.124322 0.375335
1.000000 0.258667 0.630907
1.000000 0.092470 0.377069
1.000000 0.200383 0.684231
1.000000 0.279880 0.634976
1.000000 0.190944 0.622101
1.000000 0.014864 0.595537
1.000000 0.077361 0.352884
1.000000 0.088991 0.463211
1.000000 0.001998 0.768081
1.000000 0.116123 0.441487
1.000000 0.211336 0.539112
1.000000 0.340634 0.652127
1.000000 0.145374 0.613750
1.000000 0.026742 0.751084
1.000000 0.297983 0.375975
1.000000 0.144068 0.413473
1.000000 0.135829 0.758366
1.000000 0.153564 0.550166
1.000000 0.344534 0.584456
1.000000 0.339403 0.560138
1.000000 0.161096 0.544419
1.000000 0.217545 0.579317
1.000000 0.079151 0.914794
1.000000 0.333913 0.651037
1.000000 0.486827 0.456818
1.000000 0.037806 0.793797
1.000000 0.466502 0.458879
1.000000 0.099442 0.540142
1.000000 0.292396 0.611650
1.000000 0.065311 0.753886
1.000000 0.136187 0.375068
1.000000 0.043571 0.816285
1.000000 0.259366 0.737782
1.000000 0.478431 0.444414
1.000000 0.186752 0.465922
1.000000 0.082546 0.721123
1.000000 0.334905 0.418879
1.000000 0.086334 0.446028
1.000000 0.338923 0.529517
1.000000 0.478147 0.520615
1.000000 0.244686 0.429393
1.000000 0.448977 0.421456
1.000000 0.140343 0.844948
1.000000 0.068218 0.664069
1.000000 0.243157 0.648589
1.000000 0.019924 0.978584
1.000000 0.005051 0.787411
1.000000 0.046749 0.766412
1.000000 0.148598 0.530458
1.000000 0.171043 0.510164
1.000000 0.208815 0.451784
1.000000 0.202718 0.560914
1.000000 0.054525 0.837991
1.000000 0.067588 0.476908
1.000000 0.071444 0.549150
1.000000 0.183885 0.762543
1.000000 0.317978 0.388141
1.000000 0.107283 0.323439
1.000000 0.289196 0.502405
1.000000 0.020096 0.548297
1.000000 0.345942 0.395623
1.000000 0.073688 0.365652
1.000000 0.023601 0.956604
1.000000 0.135887 0.670257
1.000000 0.402676 0.535408
1.000000 0.014032 0.457205
1.000000 0.043169 0.681401
1.000000 0.144320 0.843297
1.000000 0.188565 0.525470
1.000000 0.029403 0.494383
1.000000 0.076402 0.895315
1.000000 0.414685 0.469038
1.000000 0.215064 0.567849
1.000000 0.008372 0.590015
1.000000 0.109379 0.692962
1.000000 0.018990 0.423967
1.000000 0.169439 0.697016
1.000000 0.022147 0.888771
1.000000 0.257893 0.366705
1.000000 0.481150 0.448427
1.000000 0.018058 0.302596
1.000000 0.176546 0.546220
1.000000 0.275657 0.651927
1.000000 0.263091 0.434008
1.000000 0.122044 0.703761
1.000000 0.202332 0.399536
1.000000 0.057316 0.619544
1.000000 0.081874 0.777927
1.000000 0.343524 0.648920
1.000000 0.365101 0.441514
1.000000 0.339941 0.528659
1.000000 0.269371 0.618582
1.000000 0.308481 0.550798
1.000000 0.485001 0.505630
1.000000 0.267762 0.380360
1.000000 0.147410 0.431993
1.000000 0.182128 0.703031
1.000000 0.173111 0.780515
1.000000 0.434043 0.414887
1.000000 0.487895 0.461899
1.000000 0.190854 0.734196
1.000000 0.346866 0.392193
1.000000 0.114340 0.386437
1.000000 0.384391 0.516748
1.000000 0.432475 0.539640
1.000000 0.189492 0.607894
1.000000 0.307184 0.392565
1.000000 0.428392 0.539036
1.000000 0.483691 0.457668
1.000000 0.047876 0.340691
1.000000 0.402013 0.402461
1.000000 0.243735 0.391632
1.000000 0.403836 0.429066
1.000000 0.131747 0.761708
1.000000 0.044668 0.445266
1.000000 0.145946 0.505647
1.000000 0.070298 0.690431
1.000000 0.256307 0.688147
1.000000 0.388077 0.557820
1.000000 0.299400 0.520378
1.000000 0.062582 0.555433
1.000000 0.122688 0.639509
1.000000 0.501478 0.435383
1.000000 0.113847 0.352469
1.000000 0.128953 0.638995
1.000000 0.418942 0.489212
1.000000 0.124218 0.850233
1.000000 0.168874 0.760732
1.000000 0.288302 0.642827
1.000000 0.183490 0.585263
1.000000 0.412213 0.533581
1.000000 0.364309 0.625721
1.000000 0.189919 0.587810
1.000000 0.282344 0.446272
1.000000 0.039087 0.614171
1.000000 0.321921 0.409113
1.000000 0.124127 0.674061
1.000000 0.127890 0.723214
1.000000 0.138494 0.475032
1.000000 0.377635 0.487472
1.000000 0.021884 0.958983
1.000000 0.059964 0.600594
1.000000 0.029293 0.712392
1.000000 0.246947 0.541294
1.000000 0.035416 0.884079
1.000000 0.080953 0.361882
1.000000 0.069494 0.827921
1.000000 0.043895 0.851305
1.000000 0.035618 0.470509
1.000000 0.069849 0.472214
1.000000 0.271668 0.603038
1.000000 0.232832 0.504500
1.000000 0.120381 0.514271
1.000000 0.331027 0.466358
1.000000 0.380442 0.611455
1.000000 0.180635 0.349153
1.000000 0.104482 0.586087
1.000000 0.061749 0.705744
1.000000 0.238645 0.363377
1.000000 0.109342 0.500959
1.000000 0.254276 0.425733
1.000000 0.132917 0.538488
1.000000 0.226879 0.755733
1.000000 0.243904 0.678600
1.000000 0.450157 0.429248
1.000000 0.013720 0.301347
1.000000 0.230815 0.533710
1.000000 0.029317 0.716550
1.000000 0.263169 0.550241
1.000000 0.055859 0.765955
1.000000 0.258970 0.654154
1.000000 0.340739 0.475760
1.000000 0.015140 0.401955
1.000000 0.011351 0.693728
1.000000 0.338913 0.642677
1.000000 0.190254 0.448520
1.000000 0.014096 0.803544
1.000000 0.022543 0.693784
1.000000 0.408893 0.486024
1.000000 0.481254 0.455061
1.000000 0.131088 0.389156
1.000000 0.207011 0.405783
1.000000 0.046200 0.593013
1.000000 0.373323 0.510338
1.000000 0.149919 0.649870
1.000000 0.115153 0.340803
1.000000 0.221786 0.573722
1.000000 0.144168 0.669935
1.000000 0.044391 0.763005
1.000000 0.191387 0.770162
1.000000 0.268261 0.393795
1.000000 0.065600 0.760865
1.000000 0.522745 0.451841
1.000000 0.083267 0.876112
1.000000 0.095521 0.333567
1.000000 0.316728 0.513308
1.000000 0.371931 0.425156
1.000000 0.221999 0.771472
1.000000 0.213863 0.525026
1.000000 0.033820 0.656941
1.000000 0.020083 0.849766
1.000000 0.333172 0.590985
1.000000 0.037389 0.881720
1.000000 0.058996 0.639225
1.000000 0.148128 0.618775
1.000000 0.248281 0.604139
1.000000 0.330975 0.620736
1.000000 0.136705 0.691118
1.000000 0.060834 0.715674
1.000000 0.022970 0.362365
1.000000 0.112120 0.764206
1.000000 0.126187 0.330712
1.000000 0.469605 0.520217
1.000000 0.365226 0.425398
1.000000 0.296604 0.538355
1.000000 0.016463 0.907292
1.000000 0.079989 0.352289
1.000000 0.069088 0.620283
1.000000 0.306744 0.626836
1.000000 0.331714 0.538255
1.000000 0.240123 0.451868
1.000000 0.148058 0.377529
1.000000 0.010042 0.559150
1.000000 0.235983 0.566540
1.000000 0.248503 0.532139
1.000000 0.111508 0.634010
1.000000 0.074360 0.680488
1.000000 0.503612 0.467259
1.000000 0.274673 0.517457
1.000000 0.234030 0.662057
1.000000 0.005442 0.924836
1.000000 0.209667 0.619355
1.000000 0.032322 0.722078
1.000000 0.344187 0.603918
1.000000 0.374334 0.587923
1.000000 0.032225 0.572236
1.000000 0.475804 0.461155
1.000000 0.103028 0.831346
1.000000 0.308070 0.418012
1.000000 0.186834 0.785210
1.000000 0.176901 0.363180
1.000000 0.025363 0.645963
1.000000 0.278650 0.576033
1.000000 0.433098 0.413755
1.000000 0.405625 0.418227
1.000000 0.172481 0.512406
1.000000 0.123943 0.656652
1.000000 0.219067 0.544737
1.000000 0.009346 0.697523
1.000000 0.200185 0.566271
1.000000 0.010610 0.853490
1.000000 0.098415 0.660917
1.000000 0.286301 0.573910
1.000000 0.289794 0.389701
1.000000 0.484911 0.464426
1.000000 0.052397 0.700940
1.000000 0.166466 0.345315
1.000000 0.212760 0.700271
1.000000 0.342245 0.512647
1.000000 0.483662 0.470302
1.000000 0.045733 0.891031
1.000000 0.291451 0.480290
1.000000 0.219616 0.699187
1.000000 0.491296 0.436886
1.000000 0.394679 0.523724
1.000000 0.381518 0.591449
1.000000 0.080726 0.853125
1.000000 0.041818 0.899573
1.000000 0.010407 0.358929
1.000000 0.126694 0.725670
1.000000 0.016443 0.402716
1.000000 0.431566 0.503664
1.000000 0.372356 0.513787
1.000000 0.105516 0.870989
1.000000 0.236747 0.481592
1.000000 0.370527 0.530996
1.000000 0.199925 0.441828
1.000000 0.053573 0.717134
1.000000 0.239475 0.474114
1.000000 0.212198 0.480754
1.000000 0.201538 0.677800
1.000000 0.121809 0.624819
1.000000 0.407748 0.567428
1.000000 0.024338 0.576395
1.000000 0.233546 0.532939
1.000000 0.010096 0.482442
1.000000 0.063631 0.861467
1.000000 0.223200 0.596654
1.000000 0.235716 0.525249
1.000000 0.101462 0.363837
1.000000 0.017769 0.541966
1.000000 0.031771 0.595970
1.000000 0.146895 0.356441
1.000000 0.136645 0.743290
1.000000 0.004139 0.430329
1.000000 0.244394 0.457875
1.000000 0.037900 0.532748
1.000000 0.248012 0.735963
1.000000 0.229772 0.397703
1.000000 0.382275 0.579510
1.000000 0.260085 0.615050
1.000000 0.094792 0.399446
1.000000 0.270621 0.717721
1.000000 0.190850 0.775158
1.000000 0.072732 0.327084
1.000000 0.298301 0.689931
1.000000 0.235551 0.604668
1.000000 0.036194 0.526052
1.000000 0.114116 0.628771
1.000000 0.456917 0.426061
1.000000 0.014100 0.398503
1.000000 0.056572 0.694254
1.000000 0.211408 0.557630
1.000000 0.301060 0.554528
1.000000 0.017269 0.348747
1.000000 0.026659 0.691201
1.000000 0.278526 0.510866
1.000000 0.071762 0.573109
1.000000 0.501166 0.460171
1.000000 0.106268 0.616503
1.000000 0.155539 0.821437
1.000000 0.212952 0.377686
1.000000 0.373099 0.399960
1.000000 0.118827 0.642134
1.000000 0.219203 0.740168
1.000000 0.164704 0.779809
1.000000 0.272507 0.608679
1.000000 0.409515 0.439301
1.000000 0.083398 0.824375
1.000000 0.064584 0.864533
1.000000 0.104717 0.755414
1.000000 0.076092 0.528858
1.000000 0.001838 0.409274
1.000000 0.211676 0.749311
1.000000 0.304451 0.505226
1.000000 0.249869 0.401810
1.000000 0.313822 0.565547
1.000000 0.088304 0.728008
1.000000 0.084405 0.782228
1.000000 0.073153 0.488927
1.000000 0.383358 0.612052
1.000000 0.085130 0.826716
1.000000 0.229238 0.601815
1.000000 0.287248 0.384167
1.000000 0.003364 0.977015
1.000000 0.074634 0.639028
1.000000 0.328830 0.490062
1.000000 0.372418 0.513581
1.000000 0.270531 0.586193
1.000000 0.196347 0.592785
1.000000 0.408792 0.511485
1.000000 0.328697 0.557448
1.000000 0.014788 0.392436
1.000000 0.096750 0.339180
1.000000 0.184437 0.450819
1.000000 0.004001 0.703129
1.000000 0.163266 0.336516
1.000000 0.163012 0.383145
1.000000 0.295404 0.573587
1.000000 0.253066 0.681053
1.000000 0.113248 0.435222
1.000000 0.192591 0.510063
1.000000 0.301688 0.518442
1.000000 0.104578 0.616248
1.000000 0.014224 0.586049
1.000000 0.137087 0.617903
1.000000 0.030672 0.887575
1.000000 0.144012 0.643176
1.000000 0.460014 0.513781
1.000000 0.090986 0.545821
1.000000 0.037632 0.598628
1.000000 0.006656 0.550093
1.000000 0.280763 0.403283
1.000000 0.068834 0.395671
1.000000 0.492308 0.466651
1.000000 0.117274 0.686338
1.000000 0.451418 0.486262
1.000000 0.010499 0.471388
1.000000 0.171743 0.822579
1.000000 0.158361 0.619983
1.000000 0.125896 0.347715
1.000000 0.014822 0.877313
1.000000 0.109677 0.488913
1.000000 0.114539 0.393746
1.000000 0.048486 0.686918
1.000000 0.044748 0.383311
1.000000 0.387332 0.489810
1.000000 0.157490 0.440791
1.000000 0.074360 0.447053
1.000000 0.050929 0.878295
1.000000 0.040551 0.452202
1.000000 0.331486 0.404928
1.000000 0.448560 0.527940
1.000000 0.076701 0.504867
1.000000 0.158896 0.826731
1.000000 0.003296 0.588982
1.000000 0.104873 0.336785
1.000000 0.214612 0.479063
1.000000 0.133622 0.531392
1.000000 0.113048 0.811291
1.000000 0.131692 0.398876
1.000000 0.347393 0.592026
1.000000 0.151092 0.571248
1.000000 0.120420 0.508107
1.000000 0.033998 0.899472
1.000000 0.256656 0.449228
1.000000 0.012461 0.542635
1.000000 0.148081 0.364207
1.000000 0.031521 0.642508
1.000000 0.241421 0.476348
1.000000 0.403528 0.424195
1.000000 0.148809 0.337428
1.000000 0.074330 0.473529
1.000000 0.251362 0.500514
1.000000 0.004991 0.985360
1.000000 0.317011 0.577324
1.000000 0.430575 0.569308
1.000000 0.408181 0.410397
1.000000 0.171214 0.491704
1.000000 0.231246 0.516899
1.000000 0.386042 0.601555
1.000000 0.241769 0.605520
1.000000 0.411762 0.577339
1.000000 0.166594 0.707601
1.000000 0.384691 0.501798
1.000000 0.231291 0.487088
1.000000 0.041717 0.687963
1.000000 0.275364 0.653418
1.000000 0.176879 0.377206
1.000000 0.116910 0.847295
1.000000 0.442646 0.419896
1.000000 0.189053 0.685250
1.000000 0.151778 0.694234
1.000000 0.023501 0.940292
1.000000 0.438379 0.470226
1.000000 0.180325 0.737660
1.000000 0.204020 0.505482
1.000000 0.031012 0.778105
1.000000 0.170578 0.455969
1.000000 0.238996 0.440755
1.000000 0.297426 0.469632
1.000000 0.181620 0.571468
1.000000 0.067488 0.613907
1.000000 0.402270 0.409612
1.000000 0.007447 0.474317
1.000000 0.303782 0.511145
1.000000 0.400314 0.584729
1.000000 0.261320 0.526681
1.000000 0.419023 0.464496
1.000000 0.039915 0.465385
1.000000 0.175082 0.665948
1.000000 0.281109 0.558303
1.000000 0.191644 0.411960
1.000000 0.026516 0.575560
1.000000 0.244315 0.644360
1.000000 0.023855 0.536359
1.000000 0.014146 0.404585
1.000000 0.208972 0.542804
1.000000 0.253725 0.443907
1.000000 0.130470 0.470969
1.000000 0.052153 0.481688
1.000000 0.178783 0.469866
1.000000 0.052807 0.764406
1.000000 0.257514 0.574623
1.000000 0.023925 0.520616
1.000000 0.143473 0.397435
1.000000 0.307482 0.427704
1.000000 0.007843 0.527812
1.000000 0.031322 0.583004
1.000000 0.373098 0.556688
1.000000 0.102943 0.837409
1.000000 0.222986 0.749597
1.000000 0.321775 0.606631
1.000000 0.202676 0.741126
1.000000 0.255137 0.426418
1.000000 0.176710 0.437584
1.000000 0.155705 0.378653
1.000000 0.440525 0.475188
1.000000 0.035412 0.718451
1.000000 0.060922 0.516874
1.000000 0.357910 0.391249
1.000000 0.311070 0.494947
1.000000 0.068783 0.922849
1.000000 0.081316 0.780007
1.000000 0.040597 0.580741
1.000000 0.308471 0.403166
1.000000 0.271300 0.709499
1.000000 0.199811 0.462737
1.000000 0.313248 0.589476
1.000000 0.266341 0.438311
1.000000 0.093653 0.617607
1.000000 0.453529 0.425117
1.000000 0.499001 0.424817
1.000000 0.285906 0.397539
1.000000 0.179605 0.634626
1.000000 0.244240 0.589726
1.000000 0.018619 0.865813
1.000000 0.406381 0.500268
1.000000 0.232676 0.554656
1.000000 0.030136 0.454745
1.000000 0.063408 0.785906
1.000000 0.457433 0.510088
1.000000 0.333093 0.550684
1.000000 0.306767 0.517836
1.000000 0.123423 0.440027
1.000000 0.445043 0.510172
1.000000 0.063240 0.394477
1.000000 0.079058 0.703352
1.000000 0.052622 0.326910
1.000000 0.001452 0.787971
1.000000 0.252264 0.627633
1.000000 0.307106 0.502382
1.000000 0.096735 0.406885
1.000000 0.011448 0.681373
1.000000 0.263357 0.417370
1.000000 0.125705 0.765782
1.000000 0.034216 0.753262
1.000000 0.107670 0.819336
1.000000 0.197564 0.486116
1.000000 0.059911 0.906759
1.000000 0.002396 0.611727
1.000000 0.134248 0.539728
1.000000 0.102291 0.614360
1.000000 0.355350 0.572529
1.000000 0.138552 0.698782
1.000000 0.018732 0.661098
1.000000 0.036245 0.956841
1.000000 0.149999 0.458275
1.000000 0.080697 0.567063
1.000000 0.349671 0.485064
1.000000 0.214713 0.420431
1.000000 0.041292 0.921738
1.000000 0.240900 0.477358
1.000000 0.175109 0.369962
1.000000 0.153137 0.542131
1.000000 0.011124 0.540311
1.000000 0.140974 0.524142
1.000000 0.247260 0.465782
1.000000 0.393190 0.582938
1.000000 0.294932 0.558594
1.000000 0.014893 0.516478
1.000000 0.084919 0.411223
1.000000 0.409720 0.569585
1.000000 0.300394 0.478941
1.000000 0.093469 0.526943
1.000000 0.049755 0.325378
1.000000 0.236396 0.757797
1.000000 0.082411 0.376806
1.000000 0.237878 0.602194
1.000000 0.209018 0.739914
1.000000 0.139104 0.764775
1.000000 0.235818 0.556278
1.000000 0.012918 0.848171
1.000000 0.014057 0.524301
1.000000 0.230425 0.622558
1.000000 0.164902 0.739074
1.000000 0.224166 0.737349
1.000000 0.090082 0.545888
1.000000 0.111618 0.528793
1.000000 0.232194 0.616307
1.000000 0.039818 0.433230
1.000000 0.448941 0.548248
1.000000 0.143451 0.831365
1.000000 0.112188 0.618996
1.000000 0.428509 0.526511
1.000000 0.522503 0.452205
1.000000 0.135204 0.466363
1.000000 0.077780 0.352449
1.000000 0.243887 0.397171
1.000000 0.150120 0.603272
1.000000 0.090554 0.785728
1.000000 0.088166 0.593272
1.000000 0.028103 0.933749
1.000000 0.314198 0.440842
1.000000 0.168509 0.362519
1.000000 0.369343 0.424550
1.000000 0.242168 0.750414
1.000000 0.428664 0.565461
1.000000 0.075499 0.337439
1.000000 0.231924 0.633701
1.000000 0.207574 0.395200
1.000000 0.104835 0.436710
1.000000 0.496763 0.437052
1.000000 0.105526 0.591799
1.000000 0.034663 0.557675
1.000000 0.036442 0.679645
1.000000 0.057307 0.385878
1.000000 0.201744 0.371181
1.000000 0.087520 0.709044
1.000000 0.332148 0.603291
1.000000 0.246573 0.556023
1.000000 0.106299 0.509422
1.000000 0.435840 0.535410
1.000000 0.261011 0.637017
1.000000 0.117641 0.448841
1.000000 0.222616 0.478779
1.000000 0.170049 0.812788
1.000000 0.120337 0.486412
1.000000 0.019181 0.779615
1.000000 0.188655 0.672964
1.000000 0.090439 0.617323
1.000000 0.092423 0.868756
1.000000 0.028442 0.413624
1.000000 0.253066 0.406529
1.000000 0.056389 0.367036
1.000000 0.114584 0.579570
1.000000 0.102595 0.335425
1.000000 0.274531 0.562446
1.000000 0.222758 0.582151
1.000000 0.368167 0.495834
1.000000 0.145869 0.386920
1.000000 0.060856 0.746240
1.000000 0.303889 0.639939
1.000000 0.083085 0.540879
1.000000 0.437121 0.495127
1.000000 0.127687 0.804561
1.000000 0.163905 0.764197
1.000000 0.087833 0.625186
1.000000 0.319600 0.391831
1.000000 0.059435 0.318182
1.000000 0.189666 0.790712
1.000000 0.051264 0.944236
