0.000000 0.712030 0.917458
0.000000 0.626690 0.780360
0.000000 0.564773 0.974411
0.000000 0.865078 0.974902
0.000000 0.703082 0.821016
0.000000 0.650725 0.829749
0.000000 0.817296 0.957740
0.000000 0.858790 0.926581
0.000000 0.865375 0.926459
0.000000 0.606792 0.948256
0.000000 0.654664 0.924109
0.000000 0.857614 0.936168
0.000000 0.928262 0.949046
0.000000 0.781254 0.819970
0.000000 0.595103 0.958856
0.000000 0.801088 0.831386
0.000000 0.860288 0.942999
0.000000 0.674084 0.793905
0.000000 0.896399 0.994748
0.000000 0.699717 0.862728
0.000000 0.651783 0.858091
0.000000 0.956952 0.963069
0.000000 0.566630 0.956692
0.000000 0.719676 0.978772
0.000000 0.793385 0.940702
0.000000 0.651937 0.924849
0.000000 0.703095 0.971385
0.000000 0.723294 0.942081
0.000000 0.681802 0.804905
0.000000 0.727648 0.895154
0.000000 0.619117 0.845246
0.000000 0.835350 0.893302
0.000000 0.640250 0.911399
0.000000 0.894198 0.900025
0.000000 0.669461 0.913212
0.000000 0.857678 0.922012
0.000000 0.801407 0.824841
0.000000 0.856932 0.957102
0.000000 0.910687 0.939354
0.000000 0.713376 0.830771
0.000000 0.783969 0.840925
0.000000 0.631865 0.853952
0.000000 0.674468 0.810350
0.000000 0.701406 0.843408
0.000000 0.737016 0.871150
0.000000 0.645181 0.845929
0.000000 0.611572 0.850777
0.000000 0.638045 0.852242
0.000000 0.897584 0.995428
0.000000 0.881291 0.887465
0.000000 0.579266 0.954148
0.000000 0.815053 0.928146
0.000000 0.645900 0.803737
0.000000 0.779275 0.873606
0.000000 0.652360 0.783123
0.000000 0.709260 0.971419
0.000000 0.732337 0.846238
0.000000 0.779556 0.844227
0.000000 0.756183 0.902261
0.000000 0.678362 0.873787
0.000000 0.871837 0.954991
0.000000 0.648727 0.822083
0.000000 0.664890 0.868920
0.000000 0.732128 0.866852
0.000000 0.609589 0.917693
0.000000 0.853798 0.960678
0.000000 0.639054 0.926310
0.000000 0.640989 0.842152
0.000000 0.666726 0.800543
0.000000 0.745658 0.914999
0.000000 0.643100 0.865068
0.000000 0.636893 0.874955
0.000000 0.824440 0.878481
0.000000 0.672903 0.823105
0.000000 0.779970 0.886643
0.000000 0.841628 0.960978
0.000000 0.630071 0.828567
0.000000 0.789045 0.854524
0.000000 0.749677 0.901373
0.000000 0.699544 0.816317
0.000000 0.811079 0.951484
0.000000 0.622688 0.835260
0.000000 0.742084 0.924323
0.000000 0.799801 0.988372
0.000000 0.683412 0.977707
0.000000 0.758348 0.930436
0.000000 0.714613 0.934672
0.000000 0.826092 0.891740
0.000000 0.827476 0.912327
0.000000 0.863656 0.899156
0.000000 0.750348 0.991438
0.000000 0.658137 0.926011
0.000000 0.841862 0.993827
0.000000 0.837271 0.995399
0.000000 0.592081 0.963423
0.000000 0.951233 0.957533
0.000000 0.647135 0.857490
0.000000 0.593649 0.995987
0.000000 0.614404 0.994464
0.000000 0.725997 0.876691
0.000000 0.803714 0.963650
0.000000 0.926484 0.999916
0.000000 0.626431 0.828567
0.000000 0.647309 0.847818
0.000000 0.841435 0.974474
0.000000 0.719514 0.861177
0.000000 0.636950 0.796398
0.000000 0.601263 0.890626
0.000000 0.776117 0.935420
0.000000 0.946621 0.991804
0.000000 0.589017 0.901498
0.000000 0.694982 0.979974
0.000000 0.846689 0.981093
0.000000 0.637100 0.840315
0.000000 0.635916 0.859565
0.000000 0.692517 0.920224
0.000000 0.578871 0.992846
0.000000 0.833664 0.857825
0.000000 0.754438 0.876181
0.000000 0.613600 0.809283
0.000000 0.961299 0.990682
0.000000 0.773063 0.966173
0.000000 0.650022 0.835507
0.000000 0.628625 0.865124
0.000000 0.701001 0.862378
0.000000 0.749041 0.853994
0.000000 0.758018 0.931299
0.000000 0.685342 0.864597
0.000000 0.635620 0.822417
0.000000 0.697758 0.849407
0.000000 0.963194 0.966942
0.000000 0.678107 0.822112
0.000000 0.637963 0.838950
0.000000 0.942441 0.948029
0.000000 0.704544 0.944413
0.000000 0.609113 0.907273
0.000000 0.655148 0.886084
0.000000 0.688211 0.968192
0.000000 0.614289 0.825535
0.000000 0.775250 0.839580
0.000000 0.772650 0.986498
0.000000 0.747545 0.980415
0.000000 0.587929 0.998994
0.000000 0.834821 0.838069
0.000000 0.796644 0.840289
0.000000 0.716387 0.908367
0.000000 0.814218 0.871793
0.000000 0.639084 0.791749
0.000000 0.824180 0.916601
0.000000 0.795764 0.895739
0.000000 0.602659 0.874552
0.000000 0.572815 0.988481
0.000000 0.727148 0.918905
0.000000 0.841161 0.987780
0.000000 0.593768 0.920654
0.000000 0.699277 0.844787
0.000000 0.613905 0.812628
0.000000 0.609831 0.874029
0.000000 0.763771 0.852873
0.000000 0.819150 0.974389
0.000000 0.780759 0.897166
0.000000 0.625341 0.964541
0.000000 0.756358 0.977431
0.000000 0.780953 0.937751
0.000000 0.878019 0.971150
0.000000 0.765727 0.876157
0.000000 0.765747 0.889764
0.000000 0.777564 0.887759
0.000000 0.661253 0.877331
0.000000 0.794576 0.954605
0.000000 0.576313 0.909669
0.000000 0.774234 0.988302
0.000000 0.769973 0.995529
0.000000 0.923015 0.948711
0.000000 0.841726 0.966582
0.000000 0.836503 0.948556
0.000000 0.726389 0.949813
0.000000 0.777828 0.862506
0.000000 0.722552 0.959058
0.000000 0.823576 0.842199
0.000000 0.630593 0.988283
0.000000 0.892299 0.940274
0.000000 0.603156 0.945972
0.000000 0.814787 0.895428
0.000000 0.841065 0.921796
0.000000 0.564955 0.987690
0.000000 0.800829 0.873486
0.000000 0.813980 0.920453
0.000000 0.880052 0.991633
0.000000 0.664265 0.974628
0.000000 0.829805 0.934268
0.000000 0.697693 0.845195
0.000000 0.659697 0.810309
0.000000 0.866273 0.941136
0.000000 0.751231 0.921871
0.000000 0.773367 0.902207
0.000000 0.637378 0.819763
0.000000 0.752635 0.982906
0.000000 0.811725 0.878034
0.000000 0.647554 0.838212
0.000000 0.900031 0.935328
0.000000 0.650203 0.891991
0.000000 0.757486 0.910375
0.000000 0.680570 0.811542
0.000000 0.809804 0.825430
0.000000 0.638239 0.897581
0.000000 0.635650 0.796466
0.000000 0.759000 0.837191
0.000000 0.824425 0.848744
0.000000 0.754347 0.829699
0.000000 0.799350 0.881048
0.000000 0.637126 0.880204
0.000000 0.926190 0.943184
0.000000 0.788610 0.922864
0.000000 0.780791 0.895894
0.000000 0.595117 0.969219
0.000000 0.840291 0.990888
0.000000 0.673285 0.886323
0.000000 0.713421 0.864647
0.000000 0.762660 0.931566
0.000000 0.746141 0.958738
0.000000 0.794537 0.868028
0.000000 0.675629 0.943451
0.000000 0.651532 0.782934
0.000000 0.711891 0.882844
0.000000 0.577414 0.978393
0.000000 0.570129 0.983909
0.000000 0.846054 0.978558
0.000000 0.643161 0.966111
0.000000 0.711691 0.970200
0.000000 0.696191 0.911224
0.000000 0.705862 0.902755
0.000000 0.826265 0.970450
0.000000 0.638129 0.779343
0.000000 0.827709 0.946795
0.000000 0.721733 0.878914
0.000000 0.577817 0.971943
0.000000 0.615214 0.950236
0.000000 0.610680 0.903072
0.000000 0.667307 0.914390
0.000000 0.829672 0.853128
0.000000 0.721259 0.984534
0.000000 0.825134 0.956397
0.000000 0.640944 0.906620
0.000000 0.698837 0.902256
0.000000 0.923914 0.925670
0.000000 0.681484 0.917609
0.000000 0.627828 0.952633
0.000000 0.754607 0.937469
0.000000 0.699733 0.982940
0.000000 0.728724 0.943775
0.000000 0.763801 0.929141
0.000000 0.691292 0.893185
0.000000 0.757293 0.929648
0.000000 0.875831 0.933272
0.000000 0.846877 0.928598
0.000000 0.699675 0.819332
0.000000 0.680068 0.875797
0.000000 0.712947 0.959045
0.000000 0.749023 0.982303
0.000000 0.845636 0.849460
0.000000 0.784900 0.825494
0.000000 0.661047 0.914616
0.000000 0.903778 0.967953
0.000000 0.668751 0.824481
0.000000 0.687830 0.830559
0.000000 0.824676 0.902854
0.000000 0.684363 0.811915
0.000000 0.873437 0.963660
0.000000 0.652366 0.867569
0.000000 0.721060 0.997535
0.000000 0.713415 0.846192
0.000000 0.697605 0.935296
0.000000 0.711615 0.845822
0.000000 0.626624 0.952896
0.000000 0.546321 0.984781
0.000000 0.716698 0.866726
0.000000 0.612325 0.851673
0.000000 0.762273 0.953331
0.000000 0.721298 0.884305
0.000000 0.771411 0.935203
0.000000 0.556311 0.983839
0.000000 0.787252 0.988507
0.000000 0.754317 0.825004
0.000000 0.778326 0.928842
0.000000 0.739309 0.860405
0.000000 0.625444 0.829446
0.000000 0.698898 0.921678
0.000000 0.851847 0.859984
0.000000 0.856810 0.887739
0.000000 0.866707 0.906114
0.000000 0.681562 0.979371
0.000000 0.790757 0.821412
0.000000 0.723863 0.822031
0.000000 0.886285 0.896278
0.000000 0.873662 0.945913
0.000000 0.801673 0.943360
0.000000 0.600697 0.900648
0.000000 0.587656 0.876974
0.000000 0.807674 0.829057
0.000000 0.667167 0.869072
0.000000 0.736307 0.901348
0.000000 0.864343 0.888346
0.000000 0.926252 0.977955
0.000000 0.660811 0.788599
0.000000 0.654039 0.865701
0.000000 0.800577 0.839025
0.000000 0.684780 0.951910
0.000000 0.783979 0.878690
0.000000 0.731256 0.867275
0.000000 0.620318 0.885574
0.000000 0.844745 0.970906
0.000000 0.670656 0.997751
0.000000 0.620752 0.801660
0.000000 0.632426 0.957730
0.000000 0.903488 0.953583
0.000000 0.657802 0.994327
0.000000 0.751192 0.860381
0.000000 0.606371 0.895115
0.000000 0.612785 0.921507
0.000000 0.556817 0.997891
0.000000 0.840051 0.906102
0.000000 0.699143 0.996550
0.000000 0.919985 0.966599
0.000000 0.893721 0.913900
0.000000 0.617314 0.934572
0.000000 0.738383 0.951215
0.000000 0.738178 0.999565
0.000000 0.568815 0.997927
0.000000 0.909060 0.946522
0.000000 0.597570 0.849685
0.000000 0.684680 0.968802
0.000000 0.848682 0.907599
0.000000 0.877442 0.885072
0.000000 0.777789 0.937726
0.000000 0.850808 0.908246
0.000000 0.685415 0.889338
0.000000 0.907798 0.978388
0.000000 0.851090 0.890687
0.000000 0.728145 0.884915
0.000000 0.733483 0.983634
0.000000 0.815843 0.965983
0.000000 0.682598 0.862227
0.000000 0.675961 0.879385
0.000000 0.647550 0.985253
0.000000 0.759998 0.952421
0.000000 0.638179 0.848893
0.000000 0.700849 0.813777
0.000000 0.658922 0.842305
0.000000 0.959429 0.959749
0.000000 0.803470 0.950722
0.000000 0.773610 0.920415
0.000000 0.635339 0.992595
0.000000 0.548539 0.976019
0.000000 0.934458 0.965169
0.000000 0.820946 0.936003
0.000000 0.721146 0.944174
0.000000 0.747154 0.918612
0.000000 0.656991 0.873791
0.000000 0.739623 0.910251
0.000000 0.799844 0.938324
0.000000 0.874338 0.916763
0.000000 0.676946 0.878957
0.000000 0.644203 0.947903
0.000000 0.809150 0.896727
0.000000 0.761592 0.894223
0.000000 0.638236 0.929764
0.000000 0.745310 0.945750
0.000000 0.931460 0.934506
0.000000 0.804190 0.902515
0.000000 0.596170 0.931195
0.000000 0.667070 0.833397
0.000000 0.608284 0.887506
0.000000 0.700118 0.948842
0.000000 0.571232 0.940513
0.000000 0.907399 0.949616
0.000000 0.683058 0.796772
0.000000 0.855648 0.936781
0.000000 0.581975 0.998444
0.000000 0.572475 0.957500
0.000000 0.721495 0.968973
0.000000 0.631358 0.791317
0.000000 0.794600 0.914812
0.000000 0.710326 0.844744
0.000000 0.855261 0.897119
0.000000 0.926245 0.972448
0.000000 0.658538 0.978465
0.000000 0.556562 0.978239
0.000000 0.686871 0.997862
0.000000 0.799522 0.996565
0.000000 0.874807 0.904449
0.000000 0.720563 0.904030
0.000000 0.823319 0.893947
0.000000 0.896691 0.986564
0.000000 0.821786 0.960166
0.000000 0.581621 0.993387
0.000000 0.850280 0.943031
0.000000 0.659765 0.967484
0.000000 0.867002 0.890981
0.000000 0.691808 0.872044
0.000000 0.639068 0.993244
0.000000 0.613501 0.983691
0.000000 0.604682 0.998309
0.000000 0.898145 0.916794
0.000000 0.756155 0.930558
0.000000 0.753152 0.942012
0.000000 0.934912 0.954728
0.000000 0.668868 0.823382
0.000000 0.655049 0.810151
0.000000 0.572214 0.998749
0.000000 0.656838 0.876578
0.000000 0.781459 0.839495
0.000000 0.545166 0.994914
0.000000 0.679168 0.830315
0.000000 0.673875 0.872016
0.000000 0.712772 0.904899
0.000000 0.656920 0.970019
0.000000 0.734584 0.893907
0.000000 0.709090 0.862928
0.000000 0.767192 0.943326
0.000000 0.655387 0.870357
0.000000 0.685414 0.910825
0.000000 0.626294 0.890948
0.000000 0.629787 0.839993
0.000000 0.598745 0.981040
0.000000 0.840761 0.848234
0.000000 0.840536 0.972075
0.000000 0.898274 0.916317
0.000000 0.761824 0.969452
0.000000 0.870847 0.984815
0.000000 0.858867 0.925665
0.000000 0.797091 0.850762
0.000000 0.836791 0.887529
0.000000 0.609576 0.953000
0.000000 0.678507 0.860257
0.000000 0.895214 0.913761
0.000000 0.691769 0.871373
0.000000 0.826171 0.861553
0.000000 0.661615 0.943511
0.000000 0.763280 0.816947
0.000000 0.735872 0.890249
0.000000 0.655643 0.969118
0.000000 0.794744 0.826420
0.000000 0.681353 0.871612
0.000000 0.823944 0.852050
0.000000 0.816112 0.858413
0.000000 0.874559 0.927840
0.000000 0.722367 0.840752
0.000000 0.880114 0.965572
0.000000 0.620148 0.948067
0.000000 0.911940 0.957387
0.000000 0.598446 0.866682
0.000000 0.659530 0.850570
0.000000 0.613355 0.920404
0.000000 0.740521 0.894884
0.000000 0.713498 0.831325
0.000000 0.840644 0.988267
0.000000 0.711667 0.876491
0.000000 0.807428 0.920151
0.000000 0.613550 0.821165
0.000000 0.720831 0.932490
0.000000 0.763236 0.936399
0.000000 0.746047 0.843568
0.000000 0.741914 0.852084
0.000000 0.695216 0.856619
0.000000 0.605518 0.843255
0.000000 0.840855 0.894271
0.000000 0.640245 0.798912
0.000000 0.750309 0.875378
0.000000 0.733830 0.961640
0.000000 0.686338 0.936031
0.000000 0.655406 0.791391
0.000000 0.904783 0.991726
0.000000 0.702872 0.901408
0.000000 0.652461 0.800989
0.000000 0.709259 0.918392
0.000000 0.636860 0.999456
0.000000 0.602022 0.904620
0.000000 0.745409 0.971994
0.000000 0.736576 0.955090
0.000000 0.709467 0.812818
0.000000 0.735266 0.976928
0.000000 0.840559 0.919118
0.000000 0.731348 0.914890
0.000000 0.832244 0.931753
0.000000 0.713269 0.944785
0.000000 0.843479 0.878929
0.000000 0.629826 0.977482
0.000000 0.795590 0.966508
0.000000 0.743233 0.996613
0.000000 0.698824 0.813510
0.000000 0.623067 0.954060
0.000000 0.919929 0.983852
0.000000 0.677159 0.819640
0.000000 0.577478 0.971356
0.000000 0.711510 0.819708
0.000000 0.696986 0.857689
0.000000 0.703901 0.935706
0.000000 0.603430 0.956958
0.000000 0.873468 0.889662
0.000000 0.710697 0.838030
0.000000 0.734167 0.902332
0.000000 0.730119 0.983159
0.000000 0.700694 0.854018
0.000000 0.678953 0.916701
0.000000 0.809069 0.825165
0.000000 0.906159 0.949541
0.000000 0.845542 0.975806
0.000000 0.704731 0.974713
0.000000 0.932689 0.996210
0.000000 0.641805 0.897522
0.000000 0.839694 0.941036
0.000000 0.586640 0.940442
0.000000 0.850548 0.895527
0.000000 0.702879 0.868444
0.000000 0.650255 0.884051
0.000000 0.709009 0.828073
0.000000 0.837204 0.902412
0.000000 0.648636 0.902039
0.000000 0.727954 0.977287
0.000000 0.658223 0.995601
0.000000 0.793303 0.907203
0.000000 0.665977 0.808486
0.000000 0.687454 0.998065
0.000000 0.828580 0.843043
0.000000 0.887173 0.981236
0.000000 0.706440 0.817158
0.000000 0.696487 0.977119
0.000000 0.793151 0.919675
0.000000 0.702169 0.978095
0.000000 0.963917 0.973339
0.000000 0.793807 0.893597
0.000000 0.824058 0.882547
0.000000 0.571895 0.975294
0.000000 0.684054 0.941913
0.000000 0.957992 0.995713
0.000000 0.797853 0.848620
0.000000 0.563486 0.970843
0.000000 0.572533 0.982336
0.000000 0.630812 0.978188
0.000000 0.827718 0.917291
0.000000 0.822908 0.933430
0.000000 0.623989 0.803186
0.000000 0.589085 0.870474
0.000000 0.691425 0.919335
0.000000 0.785447 0.820331
0.000000 0.761171 0.936108
0.000000 0.826182 0.996957
0.000000 0.690519 0.812465
0.000000 0.832012 0.946364
0.000000 0.766111 0.857522
0.000000 0.647091 0.847068
0.000000 0.860273 0.908920
0.000000 0.658748 0.967721
0.000000 0.724115 0.945233
0.000000 0.854436 0.900348
0.000000 0.937277 0.949838
0.000000 0.830099 0.850773
0.000000 0.929764 0.973169
0.000000 0.666296 0.889037
0.000000 0.678398 0.913432
0.000000 0.927485 0.942640
0.000000 0.626005 0.991582
0.000000 0.762575 0.921076
0.000000 0.694097 0.983281
0.000000 0.706062 0.938001
0.000000 0.782026 0.898349
0.000000 0.767089 0.980561
0.000000 0.764198 0.887977
0.000000 0.674223 0.990099
0.000000 0.628815 0.901194
0.000000 0.631218 0.892587
0.000000 0.835326 0.921017
0.000000 0.791216 0.919460
0.000000 0.724174 0.907445
0.000000 0.654573 0.930935
0.000000 0.749736 0.950650
0.000000 0.624477 0.831417
0.000000 0.690948 0.876059
0.000000 0.614234 0.884198
0.000000 0.844758 0.927158
0.000000 0.831514 0.958318
0.000000 0.600113 0.876382
0.000000 0.609724 0.861917
0.000000 0.872475 0.970980
0.000000 0.643403 0.821940
0.000000 0.681513 0.902709
0.000000 0.765671 0.833127
0.000000 0.815536 0.963400
0.000000 0.605926 0.970595
0.000000 0.748768 0.865750
0.000000 0.643563 0.801974
0.000000 0.681924 0.824610
0.000000 0.747942 0.993093
0.000000 0.960581 0.983730
0.000000 0.791624 0.911210
0.000000 0.716397 0.879983
0.000000 0.624851 0.816491
0.000000 0.604621 0.936663
0.000000 0.854387 0.963869
0.000000 0.902277 0.949420
0.000000 0.758818 0.958612
0.000000 0.661984 0.951003
0.000000 0.739675 0.978894
0.000000 0.612527 0.910455
0.000000 0.662189 0.918918
0.000000 0.573029 0.988343
0.000000 0.837958 0.985088
0.000000 0.629041 0.998658
0.000000 0.635337 0.804058
0.000000 0.658781 0.908567
0.000000 0.920579 0.960828
0.000000 0.685472 0.956370
0.000000 0.753411 0.918168
0.000000 0.811120 0.981264
0.000000 0.826886 0.880133
0.000000 0.790851 0.864002
0.000000 0.693065 0.956198
0.000000 0.735141 0.972692
0.000000 0.759784 0.936383
0.000000 0.840322 0.870524
0.000000 0.623184 0.885595
0.000000 0.713709 0.850448
0.000000 0.831230 0.974846
0.000000 0.686288 0.895748
0.000000 0.625152 0.888961
0.000000 0.714168 0.956355
0.000000 0.685604 0.863050
0.000000 0.607878 0.946043
0.000000 0.604480 0.895050
0.000000 0.670173 0.861247
0.000000 0.657434 0.953518
0.000000 0.565567 0.988603
0.000000 0.735789 0.833348
0.000000 0.668725 0.987497
0.000000 0.936345 0.970797
0.000000 0.595678 0.858783
0.000000 0.889119 0.976015
0.000000 0.753918 0.959857
0.000000 0.719248 0.817483
0.000000 0.840036 0.993762
0.000000 0.600664 0.863161
0.000000 0.680957 0.836021
0.000000 0.735512 0.986465
0.000000 0.700691 0.989159
0.000000 0.635609 0.796317
0.000000 0.905242 0.971843
0.000000 0.742116 0.848872
0.000000 0.742766 0.984556
0.000000 0.849999 0.922160
0.000000 0.741560 0.918287
0.000000 0.792014 0.960582
0.000000 0.680625 0.901573
0.000000 0.733481 0.901076
0.000000 0.696673 0.797123
0.000000 0.801706 0.891113
0.000000 0.597944 0.919273
0.000000 0.853296 0.884830
0.000000 0.763441 0.871472
0.000000 0.779969 0.882020
0.000000 0.763650 0.832667
0.000000 0.759589 0.886828
0.000000 0.707824 0.861566
0.000000 0.593101 0.867247
0.000000 0.799874 0.886621
0.000000 0.858196 0.904158
0.000000 0.743114 0.902884
0.000000 0.885073 0.944205
0.000000 0.708019 0.799237
0.000000 0.652540 0.977542
0.000000 0.895990 0.982738
0.000000 0.688594 0.883185
0.000000 0.588969 0.973904
0.000000 0.642015 0.991496
0.000000 0.646736 0.783436
0.000000 0.922786 0.973083
0.000000 0.857642 0.988681
0.000000 0.825500 0.847323
0.000000 0.700251 0.992094
0.000000 0.596015 0.890560
0.000000 0.670853 0.862370
0.000000 0.724479 0.897815
0.000000 0.796703 0.978837
0.000000 0.868940 0.973430
0.000000 0.759352 0.942202
0.000000 0.592026 0.939549
0.000000 0.806644 0.852132
0.000000 0.821499 0.898877
0.000000 0.618991 0.883446
0.000000 0.826878 0.992085
0.000000 0.576052 0.938946
0.000000 0.717796 0.985236
0.000000 0.658297 0.972939
0.000000 0.801486 0.900884
0.000000 0.839351 0.936491
0.000000 0.651374 0.849226
0.000000 0.782766 0.965134
0.000000 0.780898 0.816713
0.000000 0.632573 0.976639
0.000000 0.822141 0.852080
0.000000 0.761127 0.993343
0.000000 0.764378 0.919567
0.000000 0.720170 0.808551
0.000000 0.620131 0.901893
0.000000 0.769380 0.813045
0.000000 0.637719 0.999126
0.000000 0.700942 0.998914
0.000000 0.740401 0.810603
0.000000 0.557237 0.979846
0.000000 0.590886 0.997763
0.000000 0.593503 0.990789
0.000000 0.766031 0.823433
0.000000 0.722768 0.847987
0.000000 0.901951 0.998611
0.000000 0.757178 0.897692
0.000000 0.892012 0.982187
0.000000 0.791750 0.919652
0.000000 0.669767 0.880608
0.000000 0.593705 0.909389
0.000000 0.667929 0.855327
0.000000 0.842264 0.957461
0.000000 0.865099 0.956450
0.000000 0.641735 0.805224
0.000000 0.815369 0.972727
0.000000 0.924002 0.956266
0.000000 0.704814 0.906341
0.000000 0.637321 0.948273
0.000000 0.831969 0.926515
0.000000 0.871894 0.916782
0.000000 0.832856 0.843455
0.000000 0.622998 0.925237
0.000000 0.653165 0.902282
0.000000 0.886339 0.907528
0.000000 0.644129 0.969767
0.000000 0.811421 0.911095
0.000000 0.673529 0.861844
0.000000 0.915009 0.987913
0.000000 0.923616 0.991337
0.000000 0.764805 0.947789
0.000000 0.756215 0.981390
0.000000 0.704514 0.842435
0.000000 0.628189 0.882529
0.000000 0.722032 0.808869
0.000000 0.662098 0.925612
0.000000 0.731895 0.826640
0.000000 0.718634 0.840624
0.000000 0.785891 0.960428
0.000000 0.808733 0.828429
0.000000 0.641394 0.894120
0.000000 0.598966 0.986213
0.000000 0.722445 0.873959
0.000000 0.639649 0.787180
0.000000 0.837701 0.844707
0.000000 0.778079 0.914195
0.000000 0.751228 0.974812
0.000000 0.796712 0.878761
0.000000 0.759816 0.942541
0.000000 0.907199 0.945037
0.000000 0.792952 0.962127
0.000000 0.662131 0.841352
0.000000 0.797435 0.890665
0.000000 0.812031 0.976541
0.000000 0.827747 0.884457
0.000000 0.707449 0.846950
0.000000 0.685008 0.909913
0.000000 0.820737 0.931371
0.000000 0.819019 0.981496
0.000000 0.756871 0.853309
0.000000 0.762906 0.824199
0.000000 0.668729 0.946667
0.000000 0.789314 0.873682
0.000000 0.634933 0.999341
0.000000 0.798091 0.882668
0.000000 0.844155 0.947590
0.000000 0.704057 0.809614
0.000000 0.830083 0.997865
0.000000 0.657741 0.798233
0.000000 0.704326 0.926713
0.000000 0.846177 0.944297
0.000000 0.814580 0.932337
0.000000 0.745022 0.955949
0.000000 0.833182 0.911525
0.000000 0.701767 0.797920
0.000000 0.792479 0.823627
0.000000 0.685472 0.947339
0.000000 0.616049 0.912758
0.000000 0.729768 0.934440
0.000000 0.921440 0.942595
0.000000 0.686868 0.964364
0.000000 0.860240 0.994962
0.000000 0.801453 0.893370
0.000000 0.724618 0.837375
0.000000 0.844145 0.914912
0.000000 0.866422 0.897711
0.000000 0.704812 0.883343
0.000000 0.665989 0.792392
0.000000 0.600627 0.874571
0.000000 0.645710 0.884814
0.000000 0.714161 0.911971
0.000000 0.669885 0.880584
0.000000 0.614858 0.922887
0.000000 0.604060 0.968456
0.000000 0.629240 0.836205
0.000000 0.670227 0.965324
0.000000 0.853804 0.900294
0.000000 0.830987 0.885543
0.000000 0.788732 0.978433
0.000000 0.763068 0.823292
0.000000 0.635689 0.814548
0.000000 0.811276 0.905900
0.000000 0.546701 0.993651
0.000000 0.696596 0.826701
0.000000 0.631043 0.957447
0.000000 0.719681 0.923580
0.000000 0.734951 0.812423
0.000000 0.644392 0.923920
0.000000 0.730754 0.863060
0.000000 0.725579 0.925601
0.000000 0.757822 0.980832
0.000000 0.683708 0.997942
0.000000 0.633177 0.891576
0.000000 0.897897 0.921263
0.000000 0.658587 0.967854
0.000000 0.704256 0.863985
0.000000 0.811192 0.919518
0.000000 0.850447 0.893351
0.000000 0.868564 0.966286
0.000000 0.840920 0.881316
0.000000 0.796953 0.990877
0.000000 0.803016 0.987680
0.000000 0.815418 0.833079
0.000000 0.766153 0.958200
0.000000 0.709489 0.988213
0.000000 0.795136 0.880117
0.000000 0.758147 0.908540
0.000000 0.860769 0.878054
0.000000 0.886454 0.928224
0.000000 0.688930 0.984724
0.000000 0.664361 0.821241
0.000000 0.861683 0.983054
0.000000 0.663274 0.827685
0.000000 0.693205 0.938675
0.000000 0.647645 0.896885
0.000000 0.719843 0.932901
0.000000 0.784788 0.875187
0.000000 0.722667 0.838035
0.000000 0.782310 0.866093
0.000000 0.840358 0.896056
0.000000 0.929502 0.944131
0.000000 0.625815 0.889307
0.000000 0.641902 0.975556
0.000000 0.674107 0.953289
0.000000 0.728909 0.953339
0.000000 0.674879 0.925250
0.000000 0.915032 0.932024
0.000000 0.855291 0.862675
0.000000 0.618722 0.893820
0.000000 0.686926 0.797349
0.000000 0.875306 0.998305
0.000000 0.812628 0.858488
0.000000 0.782178 0.926567
0.000000 0.830018 0.985498
0.000000 0.816105 0.997035
0.000000 0.932888 0.975139
0.000000 0.792269 0.951934
0.000000 0.847202 0.981964
0.000000 0.839813 0.974382
0.000000 0.776412 0.831762
0.000000 0.615707 0.902966
0.000000 0.611584 0.890021
0.000000 0.889992 0.933578
0.000000 0.779081 0.841762
0.000000 0.652595 0.790628
0.000000 0.698632 0.893203
0.000000 0.885933 0.924226
0.000000 0.773711 0.848892
0.000000 0.880491 0.900893
0.000000 0.747152 0.983581
0.000000 0.713774 0.931017
0.000000 0.770397 0.909263
0.000000 0.839926 0.953084
0.000000 0.696399 0.810438
0.000000 0.804829 0.914378
0.000000 0.611110 0.858603
0.000000 0.615945 0.932579
0.000000 0.665846 0.837907
0.000000 0.740518 0.844831
0.000000 0.747545 0.988181
0.000000 0.867602 0.913985
0.000000 0.679601 0.881333
0.000000 0.934313 0.980623
0.000000 0.596060 0.945611
0.000000 0.892579 0.903304
0.000000 0.827226 0.855711
0.000000 0.746826 0.956757
0.000000 0.934607 0.967633
0.000000 0.702956 0.967183
0.000000 0.632934 0.894402
0.000000 0.719913 0.867921
0.000000 0.783368 0.880326
0.000000 0.789867 0.940768
0.000000 0.691201 0.895342
0.000000 0.780386 0.922092
0.000000 0.714454 0.829811
0.000000 0.856434 0.982451
0.000000 0.621372 0.999896
0.000000 0.747865 0.915060
0.000000 0.561342 0.998019
0.000000 0.651367 0.917155
0.000000 0.850335 0.951663
0.000000 0.757174 0.821350
0.000000 0.885487 0.899284
0.000000 0.691871 0.956917
0.000000 0.613418 0.936105
0.000000 0.677248 0.845675
0.000000 0.748801 0.922191
0.000000 0.798614 0.928777
0.000000 0.607757 0.951079
0.000000 0.945374 0.988538
0.000000 0.632838 0.813900
0.000000 0.751248 0.991576
0.000000 0.808818 0.995636
0.000000 0.595399 0.944332
0.000000 0.636146 0.961277
0.000000 0.590545 0.905140
0.000000 0.872208 0.987123
0.000000 0.625675 0.898077
0.000000 0.965568 0.966996
0.000000 0.634728 0.805839
0.000000 0.724665 0.836428
0.000000 0.705530 0.897727
0.000000 0.939628 0.982378
0.000000 0.578681 0.986832
0.000000 0.759551 0.861013
0.000000 0.667389 0.980034
0.000000 0.947901 0.992014
0.000000 0.570063 0.962844
0.000000 0.876596 0.934645
0.000000 0.776605 0.831430
0.000000 0.766319 0.980297
0.000000 0.759656 0.918022
0.000000 0.892944 0.997318
0.000000 0.614067 0.997366
0.000000 0.834070 0.904176
0.000000 0.846964 0.905535
0.000000 0.907882 0.945497
0.000000 0.642361 0.835699
0.000000 0.621365 0.895568
0.000000 0.582419 0.996597
0.000000 0.792200 0.836014
0.000000 0.642639 0.836889
0.000000 0.664609 0.854622
0.000000 0.689322 0.894289
0.000000 0.560297 0.953758
0.000000 0.856347 0.931008
0.000000 0.585200 0.988343
0.000000 0.682204 0.814525
0.000000 0.894617 0.985437
0.000000 0.901548 0.960451
0.000000 0.786215 0.921410
0.000000 0.876494 0.905081
0.000000 0.649815 0.786429
0.000000 0.641915 0.862950
0.000000 0.642505 0.988671
0.000000 0.566545 0.943598
0.000000 0.814780 0.877411
0.000000 0.693508 0.860819
0.000000 0.879365 0.958024
0.000000 0.751819 0.902003
0.000000 0.810797 0.958536
0.000000 0.788932 0.951822
0.000000 0.903155 0.981108
0.000000 0.609957 0.936044
0.000000 0.813548 0.844276
0.000000 0.624521 0.937136
0.000000 0.757366 0.937939
0.000000 0.762922 0.988847
0.000000 0.814764 0.911325
0.000000 0.899176 0.909798
0.000000 0.726448 0.968072
0.000000 0.619982 0.788324
0.000000 0.821847 0.839632
0.000000 0.783847 0.935313
0.000000 0.876493 0.934287
0.000000 0.612283 0.936030
0.000000 0.873337 0.974091
0.000000 0.858702 0.933680
0.000000 0.585717 0.985930
0.000000 0.813299 0.908870
0.000000 0.781655 0.954674
0.000000 0.824930 0.908557
0.000000 0.644834 0.999424
0.000000 0.958935 0.977894
0.000000 0.755709 0.935816
0.000000 0.831575 0.940895
0.000000 0.653442 0.878637
0.000000 0.916506 0.960293
0.000000 0.672355 0.866988
0.000000 0.615644 0.874377
0.000000 0.764784 0.934226
0.000000 0.815065 0.853018
0.000000 0.873896 0.981561
0.000000 0.753164 0.904733
0.000000 0.775414 0.943365
0.000000 0.635112 0.854263
0.000000 0.660677 0.905820
0.000000 0.769395 0.835152
0.000000 0.773076 0.994052
0.000000 0.957329 0.963882
0.000000 0.684995 0.967698
0.000000 0.678771 0.834636
0.000000 0.805588 0.836702
0.000000 0.702383 0.964587
0.000000 0.853658 0.856781
0.000000 0.648891 0.896687
0.000000 0.637868 0.922065
0.000000 0.702803 0.982715
0.000000 0.834064 0.922338
0.000000 0.768447 0.865541
0.000000 0.639083 0.876253
0.000000 0.601132 0.951621
0.000000 0.606357 0.927804
0.000000 0.872235 0.910392
0.000000 0.774603 0.977398
0.000000 0.748394 0.951260
0.000000 0.614613 0.842400
0.000000 0.802988 0.974671
0.000000 0.704046 0.841314
0.000000 0.867408 0.880664
0.000000 0.813163 0.927682
0.000000 0.614459 0.880707
0.000000 0.688548 0.858245
0.000000 0.681123 0.946870
0.000000 0.706955 0.902046
0.000000 0.778557 0.859018
0.000000 0.737088 0.842190
0.000000 0.617296 0.980311
0.000000 0.585821 0.963918
0.000000 0.767421 0.935237
0.000000 0.765988 0.931079
0.000000 0.582264 0.965741
0.000000 0.850102 0.932287
0.000000 0.648721 0.862560
0.000000 0.703378 0.988962
0.000000 0.627539 0.781739
0.000000 0.621841 0.822946
0.000000 0.602068 0.927994
0.000000 0.757636 0.926659
0.000000 0.814997 0.943014
0.000000 0.835830 0.972592
0.000000 0.711450 0.960888
0.000000 0.739492 0.941464
0.000000 0.765039 0.858619
0.000000 0.832156 0.977820
0.000000 0.931813 0.941216
0.000000 0.874737 0.991247
0.000000 0.766882 0.975043
0.000000 0.728206 0.895419
0.000000 0.881054 0.944203
0.000000 0.887555 0.901698
0.000000 0.751452 0.913639
0.000000 0.848862 0.902140
0.000000 0.705669 0.928183
0.000000 0.605584 0.945477
0.000000 0.620991 0.851575
0.000000 0.921338 0.968734
0.000000 0.771504 0.899397
0.000000 0.963948 0.992987
0.000000 0.862354 0.927829
0.000000 0.793208 0.888243
0.000000 0.928979 0.976107
0.000000 0.690432 0.929278
0.000000 0.586031 0.877374
0.000000 0.634450 0.860001
0.000000 0.560194 0.963799
0.000000 0.894948 0.897954
0.000000 0.890863 0.944142
0.000000 0.883100 0.998819
0.000000 0.681232 0.918916
0.000000 0.635984 0.793570
0.000000 0.626938 0.983251
0.000000 0.743116 0.884174
0.000000 0.584666 0.997081
0.000000 0.752052 0.889830
0.000000 0.769493 0.991591
0.000000 0.734681 0.821427
0.000000 0.668023 0.860131
0.000000 0.648817 0.814829
0.000000 0.798988 0.966353
0.000000 0.684999 0.955453
0.000000 0.804446 0.989838
0.000000 0.758879 0.987712
0.000000 0.757329 0.915161
0.000000 0.633849 0.836655
0.000000 0.876758 0.976656
0.000000 0.719173 0.880693
0.000000 0.873065 0.983075
0.000000 0.820003 0.843565
0.000000 0.814789 0.880512
0.000000 0.707135 0.810141
0.000000 0.619733 0.874550
0.000000 0.818486 0.833564
0.000000 0.890389 0.978148
0.000000 0.648202 0.871073
0.000000 0.755213 0.894951
0.000000 0.817750 0.856331
0.000000 0.861079 0.927520
0.000000 0.928676 0.942706
0.000000 0.689088 0.904579
0.000000 0.877349 0.944038
0.000000 0.702161 0.911376
0.000000 0.645527 0.918034
0.000000 0.626480 0.848182
0.000000 0.773377 0.996031
0.000000 0.646306 0.818585
0.000000 0.759845 0.970220
0.000000 0.732754 0.977210
0.000000 0.718556 0.991468
0.000000 0.778646 0.828374
0.000000 0.593296 0.925487
0.000000 0.888474 0.893023
0.000000 0.712380 0.934174
0.000000 0.776928 0.963294
0.000000 0.770637 0.841233
0.000000 0.742025 0.887142
0.000000 0.658254 0.826163
0.000000 0.714325 0.904787
0.000000 0.821837 0.970473
0.000000 0.871197 0.980012
0.000000 0.745339 0.992239
0.000000 0.578900 0.900167
0.000000 0.564736 0.946952
0.000000 0.687691 0.857485
0.000000 0.867019 0.950683
0.000000 0.741477 0.911943
0.000000 0.627448 0.964460
0.000000 0.845867 0.900577
0.000000 0.738687 0.861566
0.000000 0.659702 0.856901
0.000000 0.671802 0.817678
0.000000 0.915434 0.980699
0.000000 0.846819 0.939840
0.000000 0.831303 0.968715
0.000000 0.822287 0.981276
0.000000 0.762339 0.955077
0.000000 0.713425 0.845636
0.000000 0.593367 0.906537
0.000000 0.725795 0.846148
0.000000 0.880028 0.885724
0.000000 0.789132 0.933859
0.000000 0.608746 0.920940
0.000000 0.742236 0.886378
0.000000 0.800164 0.904362
0.000000 0.676347 0.824986
0.000000 0.611731 0.883052
0.000000 0.901782 0.994548
0.000000 0.737352 0.840841
0.000000 0.769938 0.898345
0.000000 0.826721 0.923067
0.000000 0.836305 0.984556
0.000000 0.775518 0.876705
0.000000 0.679931 0.928180
0.000000 0.788745 0.877638
0.000000 0.614273 0.892386
0.000000 0.737760 0.946735
0.000000 0.852772 0.857025
0.000000 0.757066 0.853485
0.000000 0.912328 0.924980
0.000000 0.674298 0.927845
0.000000 0.654044 0.966897
0.000000 0.666413 0.903038
0.000000 0.742737 0.857536
0.000000 0.615615 0.980122
0.000000 0.772653 0.959516
0.000000 0.710428 0.955870
0.000000 0.766100 0.919736
0.000000 0.817562 0.965352
0.000000 0.684137 0.973636
0.000000 0.905876 0.950934
0.000000 0.899684 0.999508
0.000000 0.649028 0.811335
0.000000 0.578008 0.906066
0.000000 0.661050 0.810234
0.000000 0.688703 0.799461
0.000000 0.710694 0.974645
0.000000 0.622964 0.782862
0.000000 0.782196 0.903380
0.000000 0.890824 0.914954
0.000000 0.804927 0.923648
0.000000 0.804038 0.847010
0.000000 0.919934 0.945528
0.000000 0.659423 0.809159
0.000000 0.787971 0.991881
0.000000 0.777660 0.984879
0.000000 0.567942 0.973311
0.000000 0.837590 0.962540
0.000000 0.790312 0.887914
0.000000 0.675176 0.795194
0.000000 0.569426 0.961105
0.000000 0.806481 0.981803
0.000000 0.723730 0.818759
0.000000 0.706386 0.885818
0.000000 0.699695 0.996771
0.000000 0.859722 0.974831
0.000000 0.620681 0.873011
0.000000 0.692191 0.932723
0.000000 0.666855 0.828081
0.000000 0.926190 0.930229
0.000000 0.887741 0.938212
0.000000 0.683449 0.929600
0.000000 0.612188 0.849013
0.000000 0.643005 0.802656
0.000000 0.824278 0.913852
0.000000 0.841276 0.855940
0.000000 0.757986 0.968102
0.000000 0.694230 0.910528
0.000000 0.901696 0.984919
0.000000 0.655001 0.908597
0.000000 0.913347 0.947898
0.000000 0.761410 0.849109
0.000000 0.716968 0.990309
0.000000 0.787329 0.963365
0.000000 0.585316 0.972671
0.000000 0.842706 0.935212
0.000000 0.608905 0.906139
0.000000 0.751545 0.861722
0.000000 0.793118 0.946479
0.000000 0.684519 0.977124
0.000000 0.635603 0.807342
0.000000 0.653783 0.796364
0.000000 0.784598 0.880689
0.000000 0.566674 0.949969
0.000000 0.784080 0.838930
0.000000 0.764236 0.850581
0.000000 0.762052 0.943300
0.000000 0.800070 0.940363
0.000000 0.795831 0.910300
0.000000 0.765945 0.903870
0.000000 0.665397 0.865652
0.000000 0.711599 0.878305
0.000000 0.722429 0.930115
0.000000 0.857768 0.982360
0.000000 0.669686 0.792322
0.000000 0.654378 0.999432
0.000000 0.865644 0.962052
0.000000 0.867897 0.990832
0.000000 0.943069 0.969578
0.000000 0.832972 0.878345
0.000000 0.904941 0.907478
0.000000 0.785344 0.956063
0.000000 0.809098 0.888503
0.000000 0.845467 0.911244
0.000000 0.749117 0.843641
0.000000 0.787078 0.868952
0.000000 0.579098 0.935110
0.000000 0.672887 0.880968
0.000000 0.621221 0.810348
0.000000 0.830861 0.951339
0.000000 0.775085 0.974410
0.000000 0.768265 0.817035
0.000000 0.668238 0.858827
0.000000 0.882944 0.917043
0.000000 0.869297 0.882542
0.000000 0.679537 0.955940
0.000000 0.862553 0.998113
0.000000 0.543116 0.997776
0.000000 0.671176 0.961258
0.000000 0.858796 0.973529
0.000000 0.831035 0.964473
0.000000 0.666596 0.909104
0.000000 0.839838 0.945937
0.000000 0.728632 0.849863
0.000000 0.710599 0.956930
0.000000 0.680910 0.944197
0.000000 0.883364 0.969787
0.000000 0.757229 0.952174
0.000000 0.651874 0.960741
0.000000 0.728156 0.870571
0.000000 0.804004 0.884109
0.000000 0.734634 0.929109
0.000000 0.765630 0.841632
0.000000 0.617460 0.900781
0.000000 0.641936 0.868059
0.000000 0.601823 0.875334
0.000000 0.943263 0.977241
0.000000 0.616060 0.822059
0.000000 0.752742 0.940151
0.000000 0.861230 0.888885
0.000000 0.665459 0.826227
0.000000 0.744517 0.969784
0.000000 0.693521 0.869963
0.000000 0.814135 0.832435
0.000000 0.620462 0.960643
0.000000 0.585591 0.990165
0.000000 0.808919 0.859050
0.000000 0.753815 0.926908
0.000000 0.635929 0.845728
0.000000 0.746473 0.898286
0.000000 0.912521 0.991668
0.000000 0.628587 0.975497
0.000000 0.606749 0.943137
0.000000 0.661053 0.898559
0.000000 0.832726 0.871497
0.000000 0.867500 0.972544
0.000000 0.762640 0.978896
0.000000 0.903548 0.927544
0.000000 0.901653 0.938643
0.000000 0.673321 0.995567
0.000000 0.844311 0.929049
0.000000 0.780716 0.981667
0.000000 0.808702 0.990866
0.000000 0.820959 0.946778
0.000000 0.718933 0.912159
0.000000 0.723975 0.860006
0.000000 0.756413 0.940284
0.000000 0.621607 0.976006
0.000000 0.876306 0.903880
0.000000 0.748151 0.807856
0.000000 0.907116 0.931907
0.000000 0.684890 0.934118
0.000000 0.774555 0.906457
0.000000 0.733486 0.824088
0.000000 0.884693 0.974867
0.000000 0.787844 0.951770
0.000000 0.632650 0.785030
0.000000 0.692646 0.960987
0.000000 0.698177 0.898611
0.000000 0.609211 0.944879
0.000000 0.718863 0.954786
0.000000 0.836496 0.844000
0.000000 0.861705 0.900261
0.000000 0.794261 0.931540
0.000000 0.840535 0.858560
0.000000 0.737687 0.870347
0.000000 0.738678 0.897329
0.000000 0.777660 0.915175
0.000000 0.582151 0.905589
0.000000 0.775553 0.992864
0.000000 0.681784 0.958207
0.000000 0.797653 0.918431
0.000000 0.892057 0.998073
0.000000 0.934393 0.980781
0.000000 0.744144 0.961737
0.000000 0.582285 0.960282
0.000000 0.629520 0.898087
0.000000 0.658050 0.859891
0.000000 0.592771 0.984574
0.000000 0.960407 0.989924
0.000000 0.608973 0.937380
0.000000 0.669016 0.899082
0.000000 0.676092 0.920869
0.000000 0.874126 0.905946
0.000000 0.738011 0.924878
0.000000 0.897403 0.952164
0.000000 0.953760 0.989500
0.000000 0.706058 0.901980
0.000000 0.589090 0.884888
0.000000 0.813693 0.891313
0.000000 0.689432 0.834462
0.000000 0.656008 0.968500
0.000000 0.946039 0.974495
0.000000 0.935680 0.988919
0.000000 0.558835 0.982841
0.000000 0.854178 0.927164
0.000000 0.816452 0.939176
0.000000 0.585929 0.980132
0.000000 0.751237 0.903097
0.000000 0.813267 0.955426
0.000000 0.757245 0.842226
0.000000 0.659443 0.846403
0.000000 0.776541 0.824001
0.000000 0.901498 0.963239
0.000000 0.655175 0.874755
0.000000 0.733341 0.942841
0.000000 0.776888 0.915017
0.000000 0.922960 0.994830
0.000000 0.689006 0.915473
0.000000 0.702229 0.986246
0.000000 0.702254 0.813166
0.000000 0.661537 0.969279
0.000000 0.831710 0.885675
0.000000 0.893236 0.933140
0.000000 0.620702 0.942653
0.000000 0.595706 0.920382
0.000000 0.621140 0.803864
0.000000 0.829192 0.923951
0.000000 0.777981 0.820567
0.000000 0.859849 0.944911
0.000000 0.625884 0.798418
0.000000 0.870037 0.980588
0.000000 0.604454 0.858883
0.000000 0.636451 0.779685
0.000000 0.634913 0.834443
0.000000 0.714240 0.811182
0.000000 0.779735 0.820003
0.000000 0.775280 0.816375
0.000000 0.904455 0.998427
0.000000 0.689949 0.888184
0.000000 0.705216 0.880576
0.000000 0.929709 0.963397
0.000000 0.739597 0.837147
0.000000 0.931730 0.943701
0.000000 0.742839 0.950422
0.000000 0.706277 0.888680
0.000000 0.769016 0.962775
0.000000 0.683980 0.913806
0.000000 0.603714 0.925727
0.000000 0.657552 0.946111
0.000000 0.950273 0.951275
0.000000 0.635807 0.956113
0.000000 0.626625 0.782592
0.000000 0.633654 0.995536
0.000000 0.801227 0.968648
0.000000 0.824966 0.995339
0.000000 0.907127 0.995467
0.000000 0.700959 0.850753
0.000000 0.764920 0.860765
0.000000 0.758574 0.849615
0.000000 0.744253 0.934904
0.000000 0.844889 0.858856
0.000000 0.610480 0.878207
0.000000 0.667006 0.866420
0.000000 0.921947 0.992047
0.000000 0.957515 0.983096
0.000000 0.723927 0.993332
0.000000 0.587681 0.991114
0.000000 0.687454 0.833151
0.000000 0.912063 0.990875
0.000000 0.892125 0.943205
0.000000 0.599683 0.873486
0.000000 0.675915 0.882061
0.000000 0.862877 0.871356
0.000000 0.632203 0.893721
0.000000 0.688512 0.885030
0.000000 0.784067 0.869518
0.000000 0.889187 0.962885
0.000000 0.848634 0.888722
0.000000 0.765760 0.955225
0.000000 0.750978 0.910809
0.000000 0.923557 0.944083
0.000000 0.679362 0.940678
0.000000 0.750190 0.819671
0.000000 0.659008 0.994168
0.000000 0.623792 0.941499
0.000000 0.613871 0.867473
0.000000 0.684086 0.790192
0.000000 0.879857 0.955267
0.000000 0.681676 0.923525
0.000000 0.741564 0.819786
0.000000 0.618261 0.867077
0.000000 0.655302 0.879518
0.000000 0.664711 0.977556
0.000000 0.868240 0.926878
0.000000 0.820649 0.947772
0.000000 0.857896 0.888332
0.000000 0.674364 0.902951
0.000000 0.745562 0.995083
0.000000 0.898763 0.969703
0.000000 0.562036 0.957327
0.000000 0.689651 0.891990
0.000000 0.849847 0.955975
0.000000 0.668934 0.911853
0.000000 0.685371 0.808842
0.000000 0.854776 0.863521
0.000000 0.957122 0.981800
0.000000 0.835491 0.959043
0.000000 0.785166 0.942658
0.000000 0.774486 0.970665
0.000000 0.733329 0.817263
0.000000 0.789771 0.910132
0.000000 0.620176 0.876546
0.000000 0.744517 0.888541
0.000000 0.573471 0.936456
0.000000 0.621714 0.921696
0.000000 0.676158 0.990688
0.000000 0.688962 0.998538
0.000000 0.817178 0.965337
0.000000 0.674467 0.801799
0.000000 0.719941 0.846345
0.000000 0.753462 0.987593
0.000000 0.859119 0.965672
0.000000 0.703271 0.937897
0.000000 0.842459 0.871528
0.000000 0.821945 0.924261
0.000000 0.750005 0.851260
0.000000 0.715966 0.970722
0.000000 0.828335 0.846401
0.000000 0.732116 0.872369
0.000000 0.774225 0.983420
0.000000 0.702613 0.904347
0.000000 0.700166 0.896248
0.000000 0.775096 0.896194
0.000000 0.685272 0.838482
0.000000 0.562115 0.972746
0.000000 0.620325 0.928295
0.000000 0.702819 0.955755
0.000000 0.864418 0.926584
0.000000 0.744104 0.967346
0.000000 0.798762 0.922142
0.000000 0.825261 0.888528
0.000000 0.734724 0.951367
0.000000 0.774434 0.899109
0.000000 0.844603 0.910310
0.000000 0.740970 0.899776
0.000000 0.947347 0.997947
0.000000 0.710539 0.832031
0.000000 0.698226 0.900836
0.000000 0.583592 0.985742
0.000000 0.874999 0.969123
0.000000 0.709465 0.863677
0.000000 0.821894 0.849110
0.000000 0.764782 0.945879
0.000000 0.711377 0.810532
0.000000 0.681602 0.885878
0.000000 0.782056 0.951321
0.000000 0.704380 0.951464
0.000000 0.652395 0.813092
0.000000 0.866810 0.912002
0.000000 0.601782 0.981611
0.000000 0.840297 0.962669
0.000000 0.622446 0.986624
0.000000 0.680720 0.824414
0.000000 0.662392 0.892057
0.000000 0.661612 0.813407
0.000000 0.753941 0.931866
0.000000 0.865224 0.934643
0.000000 0.808560 0.894872
0.000000 0.938684 0.939829
0.000000 0.765527 0.829287
0.000000 0.653630 0.893118
0.000000 0.766393 0.914734
0.000000 0.719018 0.831214
0.000000 0.845548 0.845808
0.000000 0.843196 0.851677
0.000000 0.673767 0.844437
0.000000 0.602325 0.928391
0.000000 0.694251 0.945246
0.000000 0.726018 0.864467
0.000000 0.712378 0.917148
0.000000 0.633288 0.812906
0.000000 0.807295 0.886859
0.000000 0.628543 0.989338
0.000000 0.610020 0.938298
0.000000 0.619320 0.859952
0.000000 0.924469 0.964703
0.000000 0.784360 0.856845
0.000000 0.791327 0.983866
0.000000 0.738680 0.935339
0.000000 0.714573 0.914505
0.000000 0.641941 0.864249
0.000000 0.638131 0.957009
0.000000 0.728004 0.964330
0.000000 0.733282 0.852454
0.000000 0.850977 0.872502
0.000000 0.637710 0.950864
0.000000 0.703238 0.939995
0.000000 0.586346 0.968302
0.000000 0.745326 0.898893
0.000000 0.617994 0.836846
0.000000 0.906997 0.909135
0.000000 0.727100 0.931348
0.000000 0.794540 0.872358
0.000000 0.632644 0.802534
0.000000 0.638726 0.923409
0.000000 0.688994 0.827937
0.000000 0.607310 0.925377
0.000000 0.907543 0.912852
0.000000 0.731652 0.863569
0.000000 0.700948 0.924581
0.000000 0.663653 0.854824
0.000000 0.839349 0.990470
0.000000 0.673022 0.800118
0.000000 0.753595 0.991550
0.000000 0.602472 0.903684
0.000000 0.954551 0.971502
0.000000 0.756166 0.974028
0.000000 0.617483 0.886211
0.000000 0.552400 0.980152
0.000000 0.695790 0.854577
0.000000 0.909482 0.990645
0.000000 0.589012 0.984282
0.000000 0.814424 0.919898
0.000000 0.649308 0.883175
0.000000 0.656903 0.989914
0.000000 0.741044 0.963496
0.000000 0.868318 0.955912
0.000000 0.697847 0.945555
0.000000 0.575966 0.919078
0.000000 0.610163 0.826518
0.000000 0.796546 0.982145
0.000000 0.747453 0.997246
0.000000 0.798852 0.887280
0.000000 0.557566 0.970796
0.000000 0.602125 0.847871
0.000000 0.573047 0.936479
0.000000 0.686249 0.932191
0.000000 0.804817 0.885578
0.000000 0.730319 0.869181
0.000000 0.588483 0.949474
0.000000 0.627537 0.892406
0.000000 0.852867 0.920241
0.000000 0.652324 0.845045
0.000000 0.622749 0.973030
0.000000 0.696069 0.807927
0.000000 0.690385 0.829177
0.000000 0.649302 0.797578
0.000000 0.629172 0.948726
0.000000 0.619155 0.959864
0.000000 0.747558 0.975889
0.000000 0.738486 0.861495
0.000000 0.637599 0.942203
0.000000 0.846777 0.987978
0.000000 0.608396 0.856219
0.000000 0.745959 0.947358
0.000000 0.618230 0.985562
0.000000 0.658852 0.913077
0.000000 0.663307 0.812437
0.000000 0.871292 0.902866
0.000000 0.659295 0.812366
0.000000 0.648240 0.795058
0.000000 0.812719 0.932508
0.000000 0.862897 0.985470
0.000000 0.691084 0.874414
0.000000 0.771019 0.962655
0.000000 0.930956 0.984960
0.000000 0.809148 0.946470
0.000000 0.769267 0.908880
0.000000 0.676419 0.916143
0.000000 0.804608 0.862648
0.000000 0.653410 0.923832
0.000000 0.666208 0.967369
0.000000 0.833785 0.925622
0.000000 0.580264 0.948362
0.000000 0.673634 0.889976
0.000000 0.603230 0.843268
0.000000 0.826092 0.963409
0.000000 0.788657 0.905242
0.000000 0.620572 0.792886
0.000000 0.653817 0.792111
0.000000 0.773867 0.971446
0.000000 0.714703 0.914843
0.000000 0.622887 0.898303
0.000000 0.762736 0.849140
0.000000 0.776614 0.892656
0.000000 0.600978 0.845800
0.000000 0.613512 0.982265
0.000000 0.672476 0.899428
0.000000 0.766290 0.911946
0.000000 0.663833 0.979675
0.000000 0.750155 0.926425
0.000000 0.736322 0.840487
0.000000 0.799086 0.893768
0.000000 0.922655 0.970851
0.000000 0.604838 0.885180
0.000000 0.812097 0.969072
0.000000 0.667460 0.836802
0.000000 0.738524 0.908756
0.000000 0.682773 0.988587
0.000000 0.561265 0.966932
0.000000 0.862320 0.907117
0.000000 0.742553 0.879655
0.000000 0.766536 0.858513
0.000000 0.729273 0.820469
0.000000 0.676041 0.917331
0.000000 0.911688 0.936765
0.000000 0.729870 0.944209
0.000000 0.569572 0.973661
0.000000 0.791871 0.887591
0.000000 0.745581 0.875072
0.000000 0.768534 0.917822
0.000000 0.617434 0.811266
0.000000 0.776788 0.889480
0.000000 0.741250 0.951722
0.000000 0.789792 0.902921
0.000000 0.755298 0.923747
0.000000 0.817203 0.877632
0.000000 0.644165 0.847320
0.000000 0.779042 0.909901
0.000000 0.649397 0.799861
0.000000 0.732698 0.865006
0.000000 0.607052 0.841783
0.000000 0.600378 0.868371
0.000000 0.753769 0.866049
0.000000 0.684801 0.874405
0.000000 0.588251 0.886033
0.000000 0.794132 0.949338
0.000000 0.612386 0.847488
0.000000 0.812252 0.984307
0.000000 0.796235 0.860158
0.000000 0.619559 0.807351
0.000000 0.895254 0.924456
0.000000 0.915735 0.979899
0.000000 0.871889 0.917379
0.000000 0.756389 0.848586
0.000000 0.624245 0.778624
0.000000 0.834845 0.851519
0.000000 0.771631 0.888000
0.000000 0.762257 0.837057
0.000000 0.745139 0.988569
0.000000 0.772985 0.838880
0.000000 0.678779 0.943330
0.000000 0.573774 0.987096
0.000000 0.766304 0.921668
0.000000 0.643289 0.972692
0.000000 0.816951 0.927356
0.000000 0.552233 0.992639
0.000000 0.823007 0.889642
0.000000 0.672716 0.809777
0.000000 0.908477 0.912970
0.000000 0.684116 0.936291
0.000000 0.819352 0.915255
0.000000 0.646136 0.934620
0.000000 0.704336 0.819461
0.000000 0.573122 0.941305
0.000000 0.660471 0.993039
0.000000 0.754342 0.910255
0.000000 0.607054 0.870122
0.000000 0.934344 0.996018
0.000000 0.624023 0.890100
0.000000 0.666961 0.876669
0.000000 0.780409 0.893938
0.000000 0.647426 0.800620
0.000000 0.742449 0.944621
0.000000 0.857426 0.987799
0.000000 0.667185 0.847737
0.000000 0.772428 0.956945
0.000000 0.948653 0.971910
0.000000 0.558571 0.974534
0.000000 0.588234 0.944959
0.000000 0.595744 0.885650
0.000000 0.676992 0.917558
0.000000 0.789983 0.919905
0.000000 0.825379 0.890048
0.000000 0.762627 0.855496
0.000000 0.847535 0.860392
0.000000 0.809646 0.979566
0.000000 0.776270 0.816863
0.000000 0.614843 0.848112
0.000000 0.855311 0.980173
0.000000 0.773462 0.913336
0.000000 0.869846 0.997390
0.000000 0.755441 0.819126
0.000000 0.841861 0.935911
0.000000 0.846871 0.921288
0.000000 0.841107 0.874797
0.000000 0.562325 0.955257
0.000000 0.595369 0.876166
0.000000 0.840819 0.903597
0.000000 0.813103 0.961023
0.000000 0.610218 0.930881
0.000000 0.765905 0.962143
0.000000 0.674229 0.823195
0.000000 0.820357 0.924615
0.000000 0.799790 0.880091
0.000000 0.738703 0.966924
0.000000 0.679077 0.845852
0.000000 0.796668 0.837370
0.000000 0.656672 0.930014
0.000000 0.728627 0.965640
0.000000 0.607353 0.944071
0.000000 0.694368 0.966974
0.000000 0.869871 0.936385
0.000000 0.766924 0.901645
0.000000 0.838017 0.984267
0.000000 0.744734 0.934055
0.000000 0.824697 0.844219
0.000000 0.602640 0.867905
0.000000 0.808487 0.967786
0.000000 0.872900 0.882323
0.000000 0.665839 0.918999
0.000000 0.597654 0.961674
0.000000 0.740291 0.883349
0.000000 0.731908 0.846867
0.000000 0.672613 0.916683
0.000000 0.632894 0.972106
0.000000 0.765674 0.830745
0.000000 0.885689 0.894718
