0.782724 0.000000 0.475330
0.816951 0.000000 0.675851
0.738850 0.000000 0.424119
0.786987 0.000000 0.392493
0.612476 0.000000 0.493209
0.904000 0.000000 0.842511
0.567557 0.000000 0.566124
0.735212 0.000000 0.600211
0.791835 0.000000 0.519484
0.750177 0.000000 0.527358
0.891038 0.000000 0.408092
0.945319 0.000000 0.639202
0.776694 0.000000 0.751344
0.675552 0.000000 0.648176
0.670229 0.000000 0.582103
0.895258 0.000000 0.535540
0.728617 0.000000 0.541928
0.591968 0.000000 0.545603
0.515625 0.000000 0.452046
0.861060 0.000000 0.347586
0.876905 0.000000 0.816998
0.958622 0.000000 0.847874
0.958652 0.000000 0.320477
0.578478 0.000000 0.497644
0.739613 0.000000 0.559703
0.891903 0.000000 0.855348
0.958172 0.000000 0.705727
0.775643 0.000000 0.648478
0.643350 0.000000 0.520877
0.521873 0.000000 0.507375
0.825171 0.000000 0.800434
0.951747 0.000000 0.440227
0.803967 0.000000 0.436103
0.601685 0.000000 0.517183
0.858949 0.000000 0.780632
0.896880 0.000000 0.542786
0.731205 0.000000 0.615552
0.796389 0.000000 0.620350
0.761223 0.000000 0.592651
0.606153 0.000000 0.531766
0.710353 0.000000 0.702155
0.886460 0.000000 0.551781
0.945654 0.000000 0.581801
0.706509 0.000000 0.481957
0.947382 0.000000 0.338044
0.803635 0.000000 0.794251
0.902914 0.000000 0.496923
0.784444 0.000000 0.556935
0.793414 0.000000 0.722702
0.637006 0.000000 0.506880
0.671750 0.000000 0.414353
0.922645 0.000000 0.791791
0.791598 0.000000 0.374437
0.941059 0.000000 0.322488
0.950279 0.000000 0.928256
0.597107 0.000000 0.547136
0.725741 0.000000 0.414533
0.721280 0.000000 0.705751
0.656439 0.000000 0.566219
0.902769 0.000000 0.538314
0.791754 0.000000 0.692984
0.839585 0.000000 0.785269
0.738689 0.000000 0.472714
0.873953 0.000000 0.391486
0.628810 0.000000 0.626834
0.845739 0.000000 0.581294
0.736631 0.000000 0.724989
0.786752 0.000000 0.566990
0.718319 0.000000 0.563260
0.920654 0.000000 0.409345
0.939888 0.000000 0.614842
0.728469 0.000000 0.414444
0.701306 0.000000 0.415268
0.602591 0.000000 0.508815
0.685614 0.000000 0.568932
0.875360 0.000000 0.836661
0.782264 0.000000 0.756283
0.555610 0.000000 0.481362
0.902605 0.000000 0.449316
0.845745 0.000000 0.687918
0.750419 0.000000 0.748089
0.890325 0.000000 0.828678
0.929080 0.000000 0.926759
0.877080 0.000000 0.468746
0.759718 0.000000 0.656049
0.798508 0.000000 0.793893
0.765710 0.000000 0.683953
0.848867 0.000000 0.782718
0.875799 0.000000 0.824015
0.841055 0.000000 0.714059
0.631985 0.000000 0.579062
0.659587 0.000000 0.479234
0.685082 0.000000 0.606438
0.894902 0.000000 0.542115
0.777391 0.000000 0.609858
0.848037 0.000000 0.396912
0.770221 0.000000 0.610936
0.847656 0.000000 0.792901
0.666664 0.000000 0.551719
0.798617 0.000000 0.788707
0.942928 0.000000 0.395066
0.865170 0.000000 0.652585
0.598825 0.000000 0.450466
0.758154 0.000000 0.580667
0.895913 0.000000 0.618813
0.953253 0.000000 0.545685
0.785667 0.000000 0.485946
0.914817 0.000000 0.646190
0.916240 0.000000 0.856324
0.823887 0.000000 0.384733
0.873346 0.000000 0.802705
0.725994 0.000000 0.709077
0.542419 0.000000 0.520235
0.936469 0.000000 0.673815
0.922935 0.000000 0.875612
0.824006 0.000000 0.822363
0.775303 0.000000 0.675216
0.520670 0.000000 0.467552
0.518538 0.000000 0.461992
0.766711 0.000000 0.632724
0.754728 0.000000 0.536842
0.882036 0.000000 0.646754
0.889464 0.000000 0.422839
0.793510 0.000000 0.778392
0.910304 0.000000 0.342522
0.651313 0.000000 0.418327
0.822831 0.000000 0.487511
0.834091 0.000000 0.705461
0.858085 0.000000 0.725266
0.574272 0.000000 0.440567
0.819280 0.000000 0.380640
0.647864 0.000000 0.646637
0.518581 0.000000 0.486530
0.917348 0.000000 0.710222
0.685415 0.000000 0.610725
0.921656 0.000000 0.700767
0.812515 0.000000 0.560787
0.828656 0.000000 0.737891
0.913867 0.000000 0.515078
0.861837 0.000000 0.608785
0.649057 0.000000 0.450472
0.679491 0.000000 0.588972
0.957396 0.000000 0.381625
0.816855 0.000000 0.424480
0.637922 0.000000 0.470284
0.806826 0.000000 0.668463
0.586175 0.000000 0.465096
0.748192 0.000000 0.385598
0.890870 0.000000 0.831272
0.707464 0.000000 0.534572
0.911036 0.000000 0.907882
0.778879 0.000000 0.665833
0.802558 0.000000 0.480517
0.574120 0.000000 0.427198
0.614309 0.000000 0.488640
0.890497 0.000000 0.804201
0.687515 0.000000 0.442036
0.614681 0.000000 0.499204
0.528582 0.000000 0.442867
0.881487 0.000000 0.569843
0.939728 0.000000 0.552512
0.836941 0.000000 0.702911
0.708981 0.000000 0.639261
0.828455 0.000000 0.672677
0.607378 0.000000 0.477329
0.903243 0.000000 0.345928
0.717586 0.000000 0.708084
0.844425 0.000000 0.680490
0.623454 0.000000 0.442041
0.836581 0.000000 0.347503
0.879058 0.000000 0.576506
0.954778 0.000000 0.697963
0.853766 0.000000 0.368138
0.881293 0.000000 0.815229
0.686857 0.000000 0.514952
0.939539 0.000000 0.933447
0.770151 0.000000 0.556017
0.960711 0.000000 0.572581
0.712087 0.000000 0.393094
0.815305 0.000000 0.466683
0.780190 0.000000 0.686831
0.733058 0.000000 0.379756
0.806515 0.000000 0.368555
0.868766 0.000000 0.436059
0.568315 0.000000 0.491752
0.637020 0.000000 0.432583
0.732139 0.000000 0.731798
0.880175 0.000000 0.543737
0.793734 0.000000 0.603413
0.837390 0.000000 0.446162
0.886293 0.000000 0.707271
0.766686 0.000000 0.476980
0.920874 0.000000 0.501199
0.810722 0.000000 0.430181
0.800010 0.000000 0.365133
0.687212 0.000000 0.515704
0.846541 0.000000 0.491852
0.817401 0.000000 0.480156
0.913520 0.000000 0.573883
0.931484 0.000000 0.602538
0.937329 0.000000 0.809546
0.677112 0.000000 0.632901
0.691116 0.000000 0.589987
0.766912 0.000000 0.390105
0.960370 0.000000 0.804019
0.603325 0.000000 0.453603
0.667118 0.000000 0.433243
0.831232 0.000000 0.826824
0.894263 0.000000 0.345621
0.957519 0.000000 0.503922
0.828329 0.000000 0.459430
0.895134 0.000000 0.386506
0.758530 0.000000 0.644988
0.638129 0.000000 0.626508
0.792294 0.000000 0.755901
0.859307 0.000000 0.539063
0.697945 0.000000 0.420382
0.763173 0.000000 0.509881
0.910180 0.000000 0.613919
0.629907 0.000000 0.507068
0.669947 0.000000 0.623102
0.871642 0.000000 0.521571
0.839426 0.000000 0.363515
0.827955 0.000000 0.726306
0.798131 0.000000 0.595535
0.853441 0.000000 0.476943
0.499174 0.000000 0.473753
0.773553 0.000000 0.694179
0.761360 0.000000 0.434873
0.761895 0.000000 0.641943
0.924325 0.000000 0.714693
0.659387 0.000000 0.517887
0.762666 0.000000 0.725716
0.573381 0.000000 0.515319
0.958078 0.000000 0.823317
0.935003 0.000000 0.779670
0.625665 0.000000 0.444170
0.692191 0.000000 0.679673
0.805467 0.000000 0.638031
0.864286 0.000000 0.628863
0.870380 0.000000 0.677478
0.725470 0.000000 0.648575
0.835433 0.000000 0.665683
0.751197 0.000000 0.736601
0.874281 0.000000 0.652270
0.864188 0.000000 0.497906
0.911132 0.000000 0.807418
0.841322 0.000000 0.570666
0.913879 0.000000 0.410883
0.715594 0.000000 0.651178
0.846525 0.000000 0.730513
0.772331 0.000000 0.481015
0.662221 0.000000 0.534235
0.847000 0.000000 0.447378
0.879380 0.000000 0.684649
0.711568 0.000000 0.665504
0.903921 0.000000 0.584512
0.729742 0.000000 0.597064
0.577511 0.000000 0.466503
0.841550 0.000000 0.527569
0.667675 0.000000 0.549045
0.911004 0.000000 0.846896
0.848187 0.000000 0.523775
0.940305 0.000000 0.867715
0.834021 0.000000 0.782918
0.833980 0.000000 0.661339
0.883601 0.000000 0.686908
0.961794 0.000000 0.758811
0.840941 0.000000 0.643354
0.841016 0.000000 0.764536
0.869390 0.000000 0.486367
0.822358 0.000000 0.400815
0.830743 0.000000 0.477467
0.792037 0.000000 0.726742
0.847383 0.000000 0.638317
0.851705 0.000000 0.747193
0.779253 0.000000 0.427982
0.614212 0.000000 0.595789
0.648480 0.000000 0.559098
0.811179 0.000000 0.592691
0.696746 0.000000 0.457809
0.806930 0.000000 0.708523
0.762064 0.000000 0.553100
0.820033 0.000000 0.485255
0.908383 0.000000 0.815109
0.739781 0.000000 0.482327
0.949709 0.000000 0.827509
0.897113 0.000000 0.410961
0.801473 0.000000 0.379313
0.643449 0.000000 0.484780
0.862763 0.000000 0.832496
0.812925 0.000000 0.687492
0.719368 0.000000 0.498726
0.556256 0.000000 0.539735
0.799577 0.000000 0.486357
0.884346 0.000000 0.744897
0.601029 0.000000 0.554895
0.698109 0.000000 0.513274
0.795229 0.000000 0.740893
0.694439 0.000000 0.499438
0.885697 0.000000 0.501444
0.888954 0.000000 0.658807
0.934658 0.000000 0.765976
0.823230 0.000000 0.512589
0.749091 0.000000 0.480554
0.709001 0.000000 0.464133
0.860570 0.000000 0.801264
0.782030 0.000000 0.630331
0.946262 0.000000 0.910050
0.863553 0.000000 0.479473
0.942175 0.000000 0.842395
0.641148 0.000000 0.494878
0.766923 0.000000 0.525898
0.825061 0.000000 0.394130
0.859598 0.000000 0.452481
0.925861 0.000000 0.320813
0.899346 0.000000 0.449374
0.673543 0.000000 0.433221
0.542127 0.000000 0.528078
0.830620 0.000000 0.568196
0.875689 0.000000 0.855738
0.730927 0.000000 0.566310
0.781431 0.000000 0.401773
0.741238 0.000000 0.722439
0.944979 0.000000 0.762926
0.633111 0.000000 0.572189
0.641483 0.000000 0.482254
0.649955 0.000000 0.420089
0.788602 0.000000 0.781902
0.753858 0.000000 0.576346
0.726206 0.000000 0.714817
0.909465 0.000000 0.755397
0.620120 0.000000 0.493116
0.749024 0.000000 0.403084
0.640330 0.000000 0.521394
0.738333 0.000000 0.528361
0.601833 0.000000 0.488197
0.877289 0.000000 0.834332
0.833609 0.000000 0.667725
0.663041 0.000000 0.416009
0.740367 0.000000 0.570103
0.817585 0.000000 0.812184
0.593111 0.000000 0.564215
0.660889 0.000000 0.470783
0.874766 0.000000 0.630323
0.952350 0.000000 0.439958
0.485724 0.000000 0.456047
0.709338 0.000000 0.555201
0.826792 0.000000 0.637962
0.680678 0.000000 0.494016
0.711542 0.000000 0.654853
0.872085 0.000000 0.759062
0.910423 0.000000 0.878008
0.897610 0.000000 0.878807
0.839678 0.000000 0.419890
0.790749 0.000000 0.564762
0.931639 0.000000 0.378202
0.725932 0.000000 0.412382
0.602895 0.000000 0.528127
0.589533 0.000000 0.504186
0.929356 0.000000 0.570515
0.952934 0.000000 0.497416
0.743760 0.000000 0.450776
0.934143 0.000000 0.435389
0.807774 0.000000 0.481119
0.795301 0.000000 0.794321
0.743730 0.000000 0.574272
0.903643 0.000000 0.836026
0.584981 0.000000 0.456847
0.622299 0.000000 0.493848
0.745088 0.000000 0.721700
0.874839 0.000000 0.570972
0.826798 0.000000 0.546324
0.691000 0.000000 0.491501
0.577841 0.000000 0.495396
0.758654 0.000000 0.735228
0.778175 0.000000 0.667693
0.846498 0.000000 0.426330
0.844678 0.000000 0.572798
0.851014 0.000000 0.501248
0.865793 0.000000 0.666840
0.896904 0.000000 0.632931
0.918059 0.000000 0.595361
0.727264 0.000000 0.666037
0.856743 0.000000 0.689366
0.880146 0.000000 0.749840
0.945626 0.000000 0.537636
0.616558 0.000000 0.415940
0.828795 0.000000 0.483706
0.828503 0.000000 0.379266
0.769272 0.000000 0.657481
0.874824 0.000000 0.725904
0.914261 0.000000 0.397022
0.955917 0.000000 0.353171
0.619410 0.000000 0.556574
0.937908 0.000000 0.566215
0.741578 0.000000 0.569968
0.534689 0.000000 0.490693
0.680991 0.000000 0.446810
0.743916 0.000000 0.531952
0.807260 0.000000 0.799785
0.773099 0.000000 0.744092
0.666686 0.000000 0.563967
0.957309 0.000000 0.389444
0.746466 0.000000 0.622527
0.805090 0.000000 0.612617
0.719675 0.000000 0.683689
0.603082 0.000000 0.436162
0.722518 0.000000 0.528645
0.740649 0.000000 0.432411
0.754789 0.000000 0.375533
0.932809 0.000000 0.467821
0.947989 0.000000 0.562501
0.928023 0.000000 0.428274
0.850237 0.000000 0.358131
0.738626 0.000000 0.398730
0.904353 0.000000 0.650101
0.764589 0.000000 0.676476
0.871324 0.000000 0.782341
0.706449 0.000000 0.597561
0.897570 0.000000 0.892056
0.930753 0.000000 0.877237
0.702208 0.000000 0.643490
0.858271 0.000000 0.378753
0.956805 0.000000 0.553363
0.637790 0.000000 0.566475
0.792402 0.000000 0.485355
0.813400 0.000000 0.651091
0.891657 0.000000 0.458419
0.952155 0.000000 0.764812
0.842518 0.000000 0.527250
0.762392 0.000000 0.723274
0.549999 0.000000 0.519153
0.842830 0.000000 0.680598
0.932193 0.000000 0.428999
0.704369 0.000000 0.386349
0.908266 0.000000 0.441559
0.821665 0.000000 0.794914
0.638730 0.000000 0.500036
0.862177 0.000000 0.799026
0.921467 0.000000 0.767552
0.621432 0.000000 0.589764
0.919707 0.000000 0.482855
0.683762 0.000000 0.663882
0.834304 0.000000 0.458462
0.823444 0.000000 0.787660
0.833008 0.000000 0.546232
0.952416 0.000000 0.646145
0.838023 0.000000 0.350418
0.655281 0.000000 0.474550
0.947297 0.000000 0.597739
0.715460 0.000000 0.705477
0.670151 0.000000 0.405033
0.681954 0.000000 0.450090
0.788010 0.000000 0.449161
0.955770 0.000000 0.562644
0.586924 0.000000 0.586051
0.645989 0.000000 0.644639
0.914220 0.000000 0.742775
0.862776 0.000000 0.770841
0.952711 0.000000 0.618885
0.633160 0.000000 0.433515
0.777072 0.000000 0.382972
0.779937 0.000000 0.606697
0.726643 0.000000 0.582279
0.787412 0.000000 0.382138
0.735682 0.000000 0.459851
0.667070 0.000000 0.629415
0.951022 0.000000 0.858769
0.830680 0.000000 0.442873
0.884924 0.000000 0.716414
0.744849 0.000000 0.613750
0.729983 0.000000 0.656024
0.866174 0.000000 0.669894
0.826387 0.000000 0.447790
0.924899 0.000000 0.688473
0.823720 0.000000 0.514913
0.685541 0.000000 0.483418
0.799881 0.000000 0.451113
0.630996 0.000000 0.513979
0.922732 0.000000 0.840388
0.944253 0.000000 0.522182
0.931560 0.000000 0.552430
0.615108 0.000000 0.432899
0.648950 0.000000 0.625631
0.881667 0.000000 0.734310
0.571070 0.000000 0.489644
0.793850 0.000000 0.499047
0.961537 0.000000 0.333310
0.909106 0.000000 0.396828
0.848995 0.000000 0.369062
0.762160 0.000000 0.708393
0.907219 0.000000 0.838082
0.579928 0.000000 0.518533
0.904555 0.000000 0.549072
0.896085 0.000000 0.846302
0.909259 0.000000 0.560389
0.573002 0.000000 0.494097
0.838646 0.000000 0.758521
0.914726 0.000000 0.602310
0.716739 0.000000 0.548468
0.916131 0.000000 0.442790
0.849849 0.000000 0.442601
0.764260 0.000000 0.640798
0.738511 0.000000 0.464037
0.953789 0.000000 0.933551
0.763486 0.000000 0.682081
0.797406 0.000000 0.522142
0.756240 0.000000 0.686719
0.769724 0.000000 0.533335
0.692528 0.000000 0.414305
0.958268 0.000000 0.886530
0.794110 0.000000 0.700377
0.867195 0.000000 0.337412
0.925294 0.000000 0.663961
0.852920 0.000000 0.627367
0.782629 0.000000 0.481142
0.668164 0.000000 0.420979
0.850918 0.000000 0.624071
0.732746 0.000000 0.485940
0.918843 0.000000 0.870372
0.836995 0.000000 0.398872
0.775610 0.000000 0.765518
0.772196 0.000000 0.623524
0.607135 0.000000 0.577910
0.919753 0.000000 0.588305
0.919688 0.000000 0.908949
0.908958 0.000000 0.338024
0.715354 0.000000 0.526506
0.814215 0.000000 0.435772
0.683591 0.000000 0.397393
0.628422 0.000000 0.455092
0.824313 0.000000 0.765186
0.861890 0.000000 0.784370
0.896085 0.000000 0.330710
0.841032 0.000000 0.481420
0.703532 0.000000 0.661405
0.772780 0.000000 0.452701
0.911987 0.000000 0.606416
0.838529 0.000000 0.749556
0.648984 0.000000 0.411418
0.912568 0.000000 0.884720
0.861584 0.000000 0.412395
0.659242 0.000000 0.546854
0.819981 0.000000 0.401706
0.772268 0.000000 0.677091
0.692618 0.000000 0.639696
0.810415 0.000000 0.583130
0.823218 0.000000 0.607294
0.852753 0.000000 0.483218
0.935119 0.000000 0.752529
0.660344 0.000000 0.610476
0.860656 0.000000 0.580042
0.560139 0.000000 0.470439
0.556837 0.000000 0.527615
0.614655 0.000000 0.581096
0.602653 0.000000 0.468884
0.926246 0.000000 0.483698
0.827182 0.000000 0.499062
0.937652 0.000000 0.450130
0.882991 0.000000 0.627976
0.955555 0.000000 0.774800
0.645282 0.000000 0.583478
0.835063 0.000000 0.726156
0.936712 0.000000 0.660955
0.743875 0.000000 0.401086
0.879985 0.000000 0.378765
0.871450 0.000000 0.698577
0.900309 0.000000 0.522118
0.929049 0.000000 0.512393
0.818934 0.000000 0.452825
0.959976 0.000000 0.669487
0.935263 0.000000 0.791208
0.612232 0.000000 0.438818
0.535098 0.000000 0.481556
0.833182 0.000000 0.691214
0.827255 0.000000 0.637549
0.687555 0.000000 0.646349
0.866390 0.000000 0.463076
0.811720 0.000000 0.779097
0.810058 0.000000 0.450219
0.893830 0.000000 0.780049
0.868232 0.000000 0.586179
0.930066 0.000000 0.616969
0.892990 0.000000 0.785808
0.940577 0.000000 0.369282
0.796826 0.000000 0.489232
0.746902 0.000000 0.744600
0.834915 0.000000 0.829103
0.915425 0.000000 0.647821
0.790537 0.000000 0.392696
0.808012 0.000000 0.418620
0.607373 0.000000 0.537911
0.819986 0.000000 0.559336
0.942508 0.000000 0.743195
0.952359 0.000000 0.744175
0.784678 0.000000 0.614149
0.685290 0.000000 0.483732
0.644202 0.000000 0.504863
0.910004 0.000000 0.540425
0.672101 0.000000 0.573164
0.915618 0.000000 0.530127
0.751565 0.000000 0.427950
0.846265 0.000000 0.844016
0.823649 0.000000 0.359773
0.629264 0.000000 0.628539
0.679349 0.000000 0.626900
0.746151 0.000000 0.558476
0.499570 0.000000 0.478375
0.723717 0.000000 0.467245
0.804818 0.000000 0.462373
0.784844 0.000000 0.772638
0.784069 0.000000 0.610820
0.780493 0.000000 0.568209
0.819541 0.000000 0.388095
0.714172 0.000000 0.563555
0.823770 0.000000 0.766734
0.884703 0.000000 0.656724
0.682676 0.000000 0.549405
0.661841 0.000000 0.563102
0.947589 0.000000 0.406320
0.886446 0.000000 0.388437
0.517250 0.000000 0.487642
0.793111 0.000000 0.549298
0.538569 0.000000 0.536495
0.839135 0.000000 0.812199
0.894173 0.000000 0.828243
0.864547 0.000000 0.800143
0.943668 0.000000 0.892549
0.641503 0.000000 0.580986
0.956152 0.000000 0.755720
0.828401 0.000000 0.726899
0.925595 0.000000 0.342667
0.922796 0.000000 0.692434
0.880702 0.000000 0.715242
0.921387 0.000000 0.804987
0.721248 0.000000 0.515375
0.959971 0.000000 0.727290
0.890284 0.000000 0.662983
0.826065 0.000000 0.734494
0.739865 0.000000 0.385646
0.878307 0.000000 0.416539
0.861869 0.000000 0.641345
0.900077 0.000000 0.894006
0.959094 0.000000 0.533281
0.870229 0.000000 0.640969
0.923018 0.000000 0.403768
0.902149 0.000000 0.633845
0.766112 0.000000 0.501386
0.807972 0.000000 0.429261
0.729820 0.000000 0.647632
0.890044 0.000000 0.669371
0.957060 0.000000 0.792830
0.764989 0.000000 0.720030
0.872411 0.000000 0.870130
0.884957 0.000000 0.332891
0.595055 0.000000 0.531916
0.906374 0.000000 0.739868
0.523470 0.000000 0.476894
0.931921 0.000000 0.926541
0.920946 0.000000 0.716149
0.904667 0.000000 0.748975
0.514357 0.000000 0.455983
0.706049 0.000000 0.619758
0.936871 0.000000 0.537124
0.853768 0.000000 0.777308
0.888459 0.000000 0.462269
0.744223 0.000000 0.521103
0.783109 0.000000 0.645760
0.713510 0.000000 0.697260
0.805234 0.000000 0.575160
0.920150 0.000000 0.406170
0.622400 0.000000 0.444463
0.655222 0.000000 0.411827
0.925882 0.000000 0.873548
0.721558 0.000000 0.467198
0.940522 0.000000 0.725980
0.958020 0.000000 0.834485
0.646543 0.000000 0.468682
0.951569 0.000000 0.313869
0.879849 0.000000 0.539058
0.591743 0.000000 0.539720
0.744873 0.000000 0.456388
0.783951 0.000000 0.468586
0.840771 0.000000 0.567072
0.611054 0.000000 0.477029
0.612281 0.000000 0.480421
0.943700 0.000000 0.495318
0.728782 0.000000 0.500393
0.734804 0.000000 0.441828
0.916535 0.000000 0.727372
0.887365 0.000000 0.437592
0.861117 0.000000 0.703534
0.865295 0.000000 0.361144
0.877961 0.000000 0.875583
0.918075 0.000000 0.659537
0.647281 0.000000 0.583618
0.642694 0.000000 0.504273
0.693068 0.000000 0.622231
0.531291 0.000000 0.498487
0.822432 0.000000 0.785287
0.708261 0.000000 0.663879
0.882515 0.000000 0.609379
0.910346 0.000000 0.699702
0.867154 0.000000 0.672655
0.707755 0.000000 0.423050
0.940948 0.000000 0.314887
0.903017 0.000000 0.890884
0.647519 0.000000 0.530296
0.784012 0.000000 0.438983
0.589708 0.000000 0.446926
0.883002 0.000000 0.795913
0.957736 0.000000 0.354377
0.764436 0.000000 0.514093
0.912694 0.000000 0.515855
0.577442 0.000000 0.575413
0.675401 0.000000 0.441635
0.529468 0.000000 0.526035
0.906446 0.000000 0.808932
0.891678 0.000000 0.492993
0.759728 0.000000 0.500257
0.823403 0.000000 0.460465
0.624552 0.000000 0.438872
0.596682 0.000000 0.573178
0.897237 0.000000 0.376322
0.728891 0.000000 0.629578
0.935606 0.000000 0.414000
0.548231 0.000000 0.543662
0.931738 0.000000 0.388072
0.850139 0.000000 0.560117
0.783751 0.000000 0.702934
0.745073 0.000000 0.556539
0.517146 0.000000 0.503464
0.948153 0.000000 0.795401
0.699398 0.000000 0.621961
0.556607 0.000000 0.530253
0.777814 0.000000 0.369102
0.769721 0.000000 0.734103
0.904312 0.000000 0.629122
0.763628 0.000000 0.740511
0.838091 0.000000 0.780667
0.886382 0.000000 0.345525
0.874476 0.000000 0.504584
0.689806 0.000000 0.488176
0.701660 0.000000 0.453787
0.723382 0.000000 0.430921
0.655045 0.000000 0.420422
0.925507 0.000000 0.904913
0.919607 0.000000 0.582478
0.604915 0.000000 0.545849
0.898497 0.000000 0.380872
0.606460 0.000000 0.435622
0.632478 0.000000 0.527224
0.908416 0.000000 0.610469
0.950501 0.000000 0.935583
0.630757 0.000000 0.623244
0.802591 0.000000 0.371973
0.643902 0.000000 0.413436
0.496931 0.000000 0.472322
0.925005 0.000000 0.734441
0.849789 0.000000 0.372911
0.929416 0.000000 0.687319
0.859228 0.000000 0.535291
0.783785 0.000000 0.435315
0.725982 0.000000 0.558012
0.845944 0.000000 0.643273
0.789887 0.000000 0.665194
0.594232 0.000000 0.579622
0.592748 0.000000 0.440090
0.845616 0.000000 0.768223
0.930905 0.000000 0.777164
0.703310 0.000000 0.494214
0.840920 0.000000 0.795806
0.589472 0.000000 0.510545
0.705676 0.000000 0.689187
0.830476 0.000000 0.654928
0.886067 0.000000 0.683628
0.735615 0.000000 0.675558
0.730702 0.000000 0.550716
0.561902 0.000000 0.530810
0.714968 0.000000 0.585699
0.810253 0.000000 0.459614
0.913500 0.000000 0.383616
0.613148 0.000000 0.579390
0.592290 0.000000 0.424414
0.856254 0.000000 0.784157
0.665945 0.000000 0.453478
0.900021 0.000000 0.327058
0.731142 0.000000 0.528607
0.573963 0.000000 0.429190
0.732838 0.000000 0.567906
0.767954 0.000000 0.696015
0.669562 0.000000 0.447273
0.550175 0.000000 0.468966
0.598453 0.000000 0.438689
0.844770 0.000000 0.409537
0.858977 0.000000 0.679134
0.730072 0.000000 0.613621
0.767626 0.000000 0.617193
0.618515 0.000000 0.458020
0.769032 0.000000 0.487510
0.750276 0.000000 0.530893
0.952880 0.000000 0.436864
0.912473 0.000000 0.579537
0.947134 0.000000 0.424427
0.696139 0.000000 0.482091
0.759457 0.000000 0.739751
0.634813 0.000000 0.600238
0.823580 0.000000 0.701616
0.857072 0.000000 0.562224
0.915986 0.000000 0.859845
0.733099 0.000000 0.606419
0.599871 0.000000 0.560692
0.631976 0.000000 0.468073
0.869172 0.000000 0.751905
0.793288 0.000000 0.761926
0.819524 0.000000 0.699433
0.729968 0.000000 0.558227
0.723405 0.000000 0.595725
0.902242 0.000000 0.621710
0.493880 0.000000 0.485084
0.903843 0.000000 0.890287
0.880909 0.000000 0.354290
0.904248 0.000000 0.474027
0.734868 0.000000 0.470856
0.896423 0.000000 0.542181
0.551172 0.000000 0.529060
0.821244 0.000000 0.815541
0.584747 0.000000 0.456747
0.657972 0.000000 0.453367
0.850150 0.000000 0.823777
0.901670 0.000000 0.869119
0.525581 0.000000 0.482832
0.595603 0.000000 0.525013
0.759107 0.000000 0.751921
0.777371 0.000000 0.772280
0.698717 0.000000 0.691797
0.839705 0.000000 0.439963
0.756161 0.000000 0.493479
0.899166 0.000000 0.583640
0.814305 0.000000 0.686576
0.831218 0.000000 0.806822
0.779875 0.000000 0.558626
0.822786 0.000000 0.796170
0.708157 0.000000 0.451482
0.834601 0.000000 0.403346
0.796241 0.000000 0.520615
0.882581 0.000000 0.405148
0.784115 0.000000 0.512153
0.685566 0.000000 0.576126
0.888093 0.000000 0.853200
0.940447 0.000000 0.382835
0.585582 0.000000 0.550519
0.851452 0.000000 0.586591
0.885127 0.000000 0.820114
0.614448 0.000000 0.512310
0.911837 0.000000 0.691649
0.594819 0.000000 0.588907
0.717003 0.000000 0.711525
0.906258 0.000000 0.439965
0.762380 0.000000 0.477246
0.838519 0.000000 0.548094
0.921055 0.000000 0.825651
0.961155 0.000000 0.725207
0.890672 0.000000 0.671644
0.673474 0.000000 0.412058
0.863922 0.000000 0.385215
0.904377 0.000000 0.708998
0.621599 0.000000 0.572669
0.899557 0.000000 0.452989
0.741466 0.000000 0.446902
0.830867 0.000000 0.589170
0.802191 0.000000 0.477513
0.823370 0.000000 0.615088
0.915114 0.000000 0.408216
0.775545 0.000000 0.551960
0.754434 0.000000 0.413804
0.708819 0.000000 0.509592
0.766159 0.000000 0.653214
0.896631 0.000000 0.545559
0.603098 0.000000 0.555252
0.856862 0.000000 0.648091
0.657669 0.000000 0.640901
0.914164 0.000000 0.745132
0.934992 0.000000 0.388532
0.766992 0.000000 0.441716
0.935208 0.000000 0.667787
0.934083 0.000000 0.333822
0.658524 0.000000 0.496213
0.842090 0.000000 0.595240
0.581210 0.000000 0.530880
0.893386 0.000000 0.380960
0.774227 0.000000 0.564351
0.759018 0.000000 0.676291
0.547850 0.000000 0.542445
0.862525 0.000000 0.428112
0.802292 0.000000 0.746094
0.927568 0.000000 0.623383
0.916870 0.000000 0.605550
0.561324 0.000000 0.533213
0.784329 0.000000 0.371534
0.733109 0.000000 0.405690
0.920903 0.000000 0.365038
0.834257 0.000000 0.503102
0.875994 0.000000 0.674528
0.794517 0.000000 0.361441
0.774827 0.000000 0.423722
0.668547 0.000000 0.593102
0.955327 0.000000 0.796000
0.788879 0.000000 0.774803
0.858610 0.000000 0.393576
0.541206 0.000000 0.460016
0.625412 0.000000 0.611531
0.678925 0.000000 0.556917
0.824941 0.000000 0.614991
0.962095 0.000000 0.769479
0.950635 0.000000 0.807005
0.562556 0.000000 0.558967
0.742975 0.000000 0.651379
0.631068 0.000000 0.626906
0.591520 0.000000 0.451873
0.854787 0.000000 0.530606
0.916788 0.000000 0.348360
0.733307 0.000000 0.414927
0.679049 0.000000 0.457240
0.843791 0.000000 0.524021
0.883276 0.000000 0.621862
0.836918 0.000000 0.779685
0.758760 0.000000 0.569734
0.731857 0.000000 0.622750
0.630748 0.000000 0.570523
0.589880 0.000000 0.529383
0.895167 0.000000 0.825658
0.912748 0.000000 0.392120
0.921151 0.000000 0.470888
0.909191 0.000000 0.855407
0.929090 0.000000 0.802931
0.901210 0.000000 0.392319
0.729170 0.000000 0.391437
0.808931 0.000000 0.782454
0.917060 0.000000 0.704042
0.957861 0.000000 0.705014
0.874883 0.000000 0.345592
0.729706 0.000000 0.401840
0.832036 0.000000 0.446515
0.672876 0.000000 0.477802
0.718251 0.000000 0.572566
0.934774 0.000000 0.719713
0.800239 0.000000 0.726832
0.787549 0.000000 0.556948
0.648101 0.000000 0.481679
0.576831 0.000000 0.532958
0.846540 0.000000 0.678645
0.908125 0.000000 0.474426
0.659665 0.000000 0.576642
0.914368 0.000000 0.700563
0.822727 0.000000 0.660549
0.798740 0.000000 0.767730
0.818635 0.000000 0.534917
0.817329 0.000000 0.521879
0.625145 0.000000 0.416841
0.857310 0.000000 0.410613
0.669835 0.000000 0.507247
0.923861 0.000000 0.335963
0.594248 0.000000 0.465612
0.669576 0.000000 0.465759
0.644703 0.000000 0.508203
0.803220 0.000000 0.798555
0.840030 0.000000 0.474573
0.897239 0.000000 0.411576
0.704837 0.000000 0.589409
0.650877 0.000000 0.480009
0.868553 0.000000 0.798215
0.702075 0.000000 0.414781
0.706909 0.000000 0.602436
0.593367 0.000000 0.571669
0.693976 0.000000 0.465273
0.736037 0.000000 0.561441
0.584472 0.000000 0.465398
0.830731 0.000000 0.417731
0.836933 0.000000 0.678076
0.960601 0.000000 0.688026
0.845007 0.000000 0.803781
0.957110 0.000000 0.433300
0.959726 0.000000 0.665160
0.777501 0.000000 0.594568
0.761800 0.000000 0.737765
0.755704 0.000000 0.568961
0.907520 0.000000 0.531557
0.757552 0.000000 0.404828
0.803551 0.000000 0.675915
0.881381 0.000000 0.481491
0.737908 0.000000 0.723508
0.814818 0.000000 0.442149
0.622977 0.000000 0.598028
0.683794 0.000000 0.608867
0.786665 0.000000 0.416058
0.739610 0.000000 0.403227
0.887975 0.000000 0.541766
0.776338 0.000000 0.757677
0.597191 0.000000 0.575508
0.901538 0.000000 0.612417
0.943316 0.000000 0.799243
0.542856 0.000000 0.497827
0.798548 0.000000 0.595857
0.636895 0.000000 0.541128
0.540622 0.000000 0.467777
0.611927 0.000000 0.481016
0.820004 0.000000 0.568042
0.901565 0.000000 0.576806
0.792094 0.000000 0.413048
0.818470 0.000000 0.466600
0.915503 0.000000 0.452488
0.954881 0.000000 0.500256
0.618287 0.000000 0.554538
0.760526 0.000000 0.670182
0.823136 0.000000 0.377201
0.724684 0.000000 0.620113
0.940056 0.000000 0.832364
0.898075 0.000000 0.869503
0.817161 0.000000 0.600402
0.843002 0.000000 0.733735
0.838908 0.000000 0.517629
0.865790 0.000000 0.459726
0.569990 0.000000 0.521283
0.947927 0.000000 0.676063
0.744465 0.000000 0.687001
0.835451 0.000000 0.674129
0.803427 0.000000 0.763212
0.933753 0.000000 0.405760
0.831010 0.000000 0.612858
0.767761 0.000000 0.606434
0.726347 0.000000 0.698278
0.883655 0.000000 0.708663
0.858496 0.000000 0.724761
0.857939 0.000000 0.538900
0.714036 0.000000 0.411632
0.881308 0.000000 0.634242
0.957657 0.000000 0.764171
0.708117 0.000000 0.579920
0.703516 0.000000 0.689516
0.961941 0.000000 0.556469
0.880859 0.000000 0.338734
0.545874 0.000000 0.507360
0.956544 0.000000 0.420045
0.748441 0.000000 0.385543
0.571409 0.000000 0.559526
0.928745 0.000000 0.569940
0.693048 0.000000 0.442369
0.905293 0.000000 0.510739
0.939213 0.000000 0.436879
0.767311 0.000000 0.393495
0.768789 0.000000 0.597307
0.926920 0.000000 0.386086
0.794330 0.000000 0.765095
0.871569 0.000000 0.495366
0.954476 0.000000 0.946662
0.961235 0.000000 0.670616
0.780117 0.000000 0.766919
0.825005 0.000000 0.634639
0.666326 0.000000 0.665488
0.766103 0.000000 0.391352
0.647923 0.000000 0.404777
0.844318 0.000000 0.456971
0.675249 0.000000 0.547031
0.653834 0.000000 0.408755
0.889185 0.000000 0.445904
0.867184 0.000000 0.423944
0.764489 0.000000 0.413237
0.849320 0.000000 0.759394
0.637053 0.000000 0.420348
0.793639 0.000000 0.538597
0.881552 0.000000 0.861225
0.833442 0.000000 0.652421
0.960931 0.000000 0.689412
0.641571 0.000000 0.438811
0.948257 0.000000 0.456630
0.707429 0.000000 0.582436
0.893811 0.000000 0.644274
0.799544 0.000000 0.668353
0.760717 0.000000 0.412455
0.944584 0.000000 0.663079
0.955180 0.000000 0.831097
0.815493 0.000000 0.582006
0.824474 0.000000 0.750087
0.622969 0.000000 0.412049
0.787547 0.000000 0.537919
0.817039 0.000000 0.528855
0.899967 0.000000 0.356662
0.881851 0.000000 0.815552
0.836418 0.000000 0.791470
0.797341 0.000000 0.672529
0.701125 0.000000 0.437977
0.619714 0.000000 0.495624
0.909237 0.000000 0.591772
0.935870 0.000000 0.689026
0.707446 0.000000 0.515947
0.825906 0.000000 0.796481
0.905928 0.000000 0.567626
0.700257 0.000000 0.418167
0.770485 0.000000 0.650454
0.896425 0.000000 0.737690
0.556474 0.000000 0.507286
0.819783 0.000000 0.372773
0.628123 0.000000 0.535694
0.662800 0.000000 0.430479
0.609838 0.000000 0.493284
0.894044 0.000000 0.432812
0.684013 0.000000 0.538938
0.947882 0.000000 0.398632
0.774683 0.000000 0.583806
0.859695 0.000000 0.447081
0.939299 0.000000 0.889276
0.680173 0.000000 0.550487
0.909586 0.000000 0.774918
0.952305 0.000000 0.474280
0.737594 0.000000 0.570885
0.618307 0.000000 0.487773
0.870431 0.000000 0.373760
0.712319 0.000000 0.658443
0.582784 0.000000 0.441870
0.945789 0.000000 0.348843
0.864021 0.000000 0.617522
0.862652 0.000000 0.414958
0.873886 0.000000 0.385856
0.655346 0.000000 0.640262
0.893218 0.000000 0.450714
0.809200 0.000000 0.419595
0.824356 0.000000 0.744108
0.646315 0.000000 0.449229
0.651161 0.000000 0.423012
0.556614 0.000000 0.529962
0.833525 0.000000 0.454363
0.920716 0.000000 0.726282
0.890865 0.000000 0.592932
0.598060 0.000000 0.535322
0.781545 0.000000 0.557825
0.877614 0.000000 0.333572
0.855946 0.000000 0.572757
0.816816 0.000000 0.355885
0.723013 0.000000 0.618524
0.906411 0.000000 0.645100
0.584144 0.000000 0.561475
0.947434 0.000000 0.324052
0.680086 0.000000 0.437715
0.698016 0.000000 0.614753
0.921669 0.000000 0.382254
0.710804 0.000000 0.514343
0.613108 0.000000 0.434147
0.571096 0.000000 0.460126
0.936575 0.000000 0.782702
0.914157 0.000000 0.612581
0.812813 0.000000 0.639398
0.837341 0.000000 0.373924
0.545716 0.000000 0.537398
0.858846 0.000000 0.756928
0.901850 0.000000 0.352129
0.818225 0.000000 0.448900
0.866853 0.000000 0.576239
0.572473 0.000000 0.569147
0.925137 0.000000 0.763904
0.774093 0.000000 0.759934
0.767515 0.000000 0.487642
0.739114 0.000000 0.411199
0.525500 0.000000 0.450561
0.953149 0.000000 0.937519
0.774806 0.000000 0.565236
0.800985 0.000000 0.396736
0.913354 0.000000 0.395291
0.943711 0.000000 0.724773
0.839253 0.000000 0.596933
0.704303 0.000000 0.416109
0.910614 0.000000 0.656242
0.957857 0.000000 0.600639
0.953864 0.000000 0.312732
0.620755 0.000000 0.489106
0.653612 0.000000 0.606640
0.882248 0.000000 0.833600
0.523394 0.000000 0.487596
0.744540 0.000000 0.406156
0.941195 0.000000 0.826542
0.786431 0.000000 0.709966
0.871890 0.000000 0.595272
0.788310 0.000000 0.637300
0.721692 0.000000 0.443241
0.848532 0.000000 0.384671
0.842826 0.000000 0.374478
0.661980 0.000000 0.499343
0.880792 0.000000 0.498180
0.929798 0.000000 0.581587
0.943977 0.000000 0.760127
0.549478 0.000000 0.472319
0.886028 0.000000 0.753486
0.695613 0.000000 0.435230
0.809258 0.000000 0.765647
0.916133 0.000000 0.913913
0.728584 0.000000 0.390543
0.888312 0.000000 0.839176
0.619002 0.000000 0.521542
0.826552 0.000000 0.549713
0.951039 0.000000 0.483250
0.632811 0.000000 0.507367
0.817838 0.000000 0.800454
0.723525 0.000000 0.673440
0.601996 0.000000 0.443046
0.912914 0.000000 0.440524
0.705933 0.000000 0.538393
0.785215 0.000000 0.779201
0.870579 0.000000 0.415182
0.595897 0.000000 0.556633
0.541081 0.000000 0.471771
0.914081 0.000000 0.774075
0.780787 0.000000 0.384518
0.831543 0.000000 0.737063
0.938986 0.000000 0.850470
0.636420 0.000000 0.502474
0.939310 0.000000 0.618750
0.629145 0.000000 0.542863
0.804279 0.000000 0.450780
0.879670 0.000000 0.412470
0.922360 0.000000 0.644745
0.795121 0.000000 0.704847
0.900783 0.000000 0.684864
0.892467 0.000000 0.372196
0.950818 0.000000 0.337505
0.770845 0.000000 0.575989
0.868981 0.000000 0.360763
0.877486 0.000000 0.354032
0.667729 0.000000 0.597335
0.697810 0.000000 0.549440
0.707877 0.000000 0.703749
0.594026 0.000000 0.436900
0.834239 0.000000 0.768444
0.942470 0.000000 0.322062
0.931555 0.000000 0.787819
0.961871 0.000000 0.776169
0.881618 0.000000 0.531415
0.923976 0.000000 0.900087
0.861426 0.000000 0.749494
0.803146 0.000000 0.757095
0.758590 0.000000 0.530792
0.900868 0.000000 0.818518
0.921953 0.000000 0.845002
0.860631 0.000000 0.554168
0.895421 0.000000 0.637359
0.813426 0.000000 0.604604
0.839397 0.000000 0.746798
0.799460 0.000000 0.705112
0.879390 0.000000 0.636823
0.911758 0.000000 0.432475
0.860644 0.000000 0.470153
0.939419 0.000000 0.831966
0.944006 0.000000 0.380901
0.738071 0.000000 0.586050
0.763162 0.000000 0.748639
0.777220 0.000000 0.634011
0.592918 0.000000 0.422892
0.916355 0.000000 0.635890
0.790273 0.000000 0.581404
0.750041 0.000000 0.438772
0.837885 0.000000 0.786838
0.787155 0.000000 0.374226
0.496758 0.000000 0.477610
0.719371 0.000000 0.701656
0.895355 0.000000 0.538321
0.770746 0.000000 0.741008
0.629818 0.000000 0.466681
0.942942 0.000000 0.319436
0.853528 0.000000 0.492945
0.906674 0.000000 0.766940
0.950547 0.000000 0.549077
0.715928 0.000000 0.658316
0.806356 0.000000 0.429028
0.877171 0.000000 0.858768
0.818548 0.000000 0.750987
0.571137 0.000000 0.546723
0.928462 0.000000 0.544267
0.562193 0.000000 0.481436
0.887970 0.000000 0.422406
0.892818 0.000000 0.718997
0.876197 0.000000 0.699919
0.763177 0.000000 0.477409
0.805289 0.000000 0.392271
0.919576 0.000000 0.392250
0.826440 0.000000 0.515499
0.826991 0.000000 0.449174
0.805623 0.000000 0.450750
0.512582 0.000000 0.462366
0.932667 0.000000 0.849849
0.773142 0.000000 0.639259
0.727098 0.000000 0.696497
0.801008 0.000000 0.428307
0.863294 0.000000 0.353940
0.932982 0.000000 0.343990
0.938944 0.000000 0.498702
0.926579 0.000000 0.345280
0.704114 0.000000 0.592960
0.953819 0.000000 0.395904
0.575988 0.000000 0.529596
0.869976 0.000000 0.572026
0.894284 0.000000 0.558985
0.852107 0.000000 0.469190
0.846555 0.000000 0.379863
0.823986 0.000000 0.667629
0.788047 0.000000 0.771669
0.589912 0.000000 0.537224
0.758240 0.000000 0.440233
0.952888 0.000000 0.564907
0.960353 0.000000 0.448513
0.887401 0.000000 0.858778
0.902581 0.000000 0.408385
0.961823 0.000000 0.364798
0.957251 0.000000 0.342268
0.738096 0.000000 0.458535
0.959832 0.000000 0.834942
0.520930 0.000000 0.517035
0.774206 0.000000 0.736073
0.872190 0.000000 0.671838
0.944355 0.000000 0.830102
0.772970 0.000000 0.439578
0.908213 0.000000 0.439401
0.734764 0.000000 0.391326
0.659978 0.000000 0.601404
0.553295 0.000000 0.497265
0.754303 0.000000 0.617439
0.825503 0.000000 0.555618
0.769440 0.000000 0.678106
0.855398 0.000000 0.621345
0.764095 0.000000 0.529891
0.920286 0.000000 0.336616
0.840640 0.000000 0.723020
0.902056 0.000000 0.480519
0.866412 0.000000 0.484578
0.660130 0.000000 0.422642
0.945181 0.000000 0.486916
0.544627 0.000000 0.477511
0.826235 0.000000 0.351373
0.760005 0.000000 0.531221
0.603177 0.000000 0.571995
0.755906 0.000000 0.580063
0.959562 0.000000 0.897386
0.687024 0.000000 0.505098
0.822903 0.000000 0.526170
0.917123 0.000000 0.804989
0.939482 0.000000 0.874151
0.728851 0.000000 0.719048
0.946694 0.000000 0.636153
0.704121 0.000000 0.566610
0.823756 0.000000 0.370188
0.794066 0.000000 0.557447
0.755696 0.000000 0.374455
0.938504 0.000000 0.531538
0.694348 0.000000 0.692810
0.830211 0.000000 0.763376
0.931144 0.000000 0.481424
0.836353 0.000000 0.512357
0.687152 0.000000 0.563419
0.721185 0.000000 0.556662
0.804422 0.000000 0.788520
0.946897 0.000000 0.717940
0.901658 0.000000 0.711198
0.908171 0.000000 0.808580
0.684447 0.000000 0.486092
0.656394 0.000000 0.511222
0.862666 0.000000 0.827742
0.688348 0.000000 0.647637
0.953453 0.000000 0.801995
0.937438 0.000000 0.644711
0.896338 0.000000 0.803558
0.775675 0.000000 0.774491
0.638959 0.000000 0.607714
0.839919 0.000000 0.792646
0.574177 0.000000 0.499801
0.715202 0.000000 0.450939
0.752010 0.000000 0.609904
0.787167 0.000000 0.359841
0.645739 0.000000 0.481822
0.648152 0.000000 0.415656
0.869990 0.000000 0.624705
0.935670 0.000000 0.866416
0.857689 0.000000 0.469864
0.849639 0.000000 0.766375
0.605238 0.000000 0.446938
0.731962 0.000000 0.684233
0.843952 0.000000 0.640246
0.880253 0.000000 0.665398
0.882294 0.000000 0.739208
0.962002 0.000000 0.521197
0.906018 0.000000 0.600081
0.641102 0.000000 0.469473
0.724395 0.000000 0.413359
0.768163 0.000000 0.454176
0.735955 0.000000 0.731492
0.846130 0.000000 0.837593
0.667292 0.000000 0.510555
0.806168 0.000000 0.622672
0.899274 0.000000 0.602184
0.877013 0.000000 0.715504
0.863321 0.000000 0.552601
0.941413 0.000000 0.328746
0.532130 0.000000 0.463808
0.836536 0.000000 0.476533
0.859525 0.000000 0.439038
0.908008 0.000000 0.573967
0.767070 0.000000 0.580147
0.793263 0.000000 0.784963
0.952256 0.000000 0.950297
0.902706 0.000000 0.767659
0.769890 0.000000 0.664395
0.908055 0.000000 0.600180
0.624855 0.000000 0.414543
0.755562 0.000000 0.431596
0.941658 0.000000 0.464349
0.927645 0.000000 0.489454
0.610236 0.000000 0.603797
0.798400 0.000000 0.462535
0.957286 0.000000 0.636988
0.934719 0.000000 0.669713
0.854418 0.000000 0.838892
0.658100 0.000000 0.412074
0.885745 0.000000 0.764917
0.602085 0.000000 0.467928
0.931096 0.000000 0.756937
0.846877 0.000000 0.786134
0.696388 0.000000 0.646461
0.894686 0.000000 0.410600
0.743401 0.000000 0.398336
0.692235 0.000000 0.507328
0.594110 0.000000 0.445092
0.928998 0.000000 0.706499
0.916713 0.000000 0.866265
0.762323 0.000000 0.488986
0.917679 0.000000 0.454205
0.900399 0.000000 0.449708
0.683135 0.000000 0.509680
0.849270 0.000000 0.473341
0.921973 0.000000 0.848381
0.794059 0.000000 0.469542
0.738173 0.000000 0.541288
0.851645 0.000000 0.602662
0.596742 0.000000 0.516029
0.664593 0.000000 0.487416
0.889524 0.000000 0.406147
0.955415 0.000000 0.501976
0.772592 0.000000 0.464504
0.938002 0.000000 0.527921
0.898235 0.000000 0.738123
0.839918 0.000000 0.377547
0.865338 0.000000 0.699629
0.786719 0.000000 0.464450
0.931235 0.000000 0.799801
0.893406 0.000000 0.627418
0.741402 0.000000 0.551400
0.954665 0.000000 0.613608
0.759524 0.000000 0.501865
0.794394 0.000000 0.410067
0.908199 0.000000 0.391411
0.591681 0.000000 0.447835
0.813928 0.000000 0.518647
0.661901 0.000000 0.575646
0.778210 0.000000 0.376004
0.582461 0.000000 0.579411
0.637367 0.000000 0.454227
0.833875 0.000000 0.646485
0.942057 0.000000 0.690168
0.707188 0.000000 0.583188
0.782459 0.000000 0.576137
0.562767 0.000000 0.553319
0.805663 0.000000 0.448462
0.633934 0.000000 0.492090
0.911223 0.000000 0.753628
0.797253 0.000000 0.472233
0.780392 0.000000 0.753762
0.643974 0.000000 0.612595
0.644604 0.000000 0.442968
0.921543 0.000000 0.756936
0.798715 0.000000 0.406743
0.779269 0.000000 0.490979
0.805263 0.000000 0.694985
0.604828 0.000000 0.538725
0.807501 0.000000 0.694853
0.728504 0.000000 0.596056
0.741824 0.000000 0.633712
0.666602 0.000000 0.535982
0.747096 0.000000 0.701728
0.825297 0.000000 0.816970
0.880818 0.000000 0.651883
0.886859 0.000000 0.404589
0.846356 0.000000 0.687644
0.892695 0.000000 0.533417
0.955744 0.000000 0.565964
0.720143 0.000000 0.706773
0.931808 0.000000 0.656084
0.688543 0.000000 0.585395
0.902374 0.000000 0.822705
0.863154 0.000000 0.474877
0.671830 0.000000 0.556357
0.959553 0.000000 0.819742
0.777284 0.000000 0.533792
0.585403 0.000000 0.471824
0.893163 0.000000 0.398611
0.889473 0.000000 0.798337
0.575459 0.000000 0.505418
0.550173 0.000000 0.542459
0.897781 0.000000 0.555698
0.919632 0.000000 0.752477
0.747109 0.000000 0.644563
0.772023 0.000000 0.742580
0.877613 0.000000 0.715462
0.571967 0.000000 0.447660
0.866626 0.000000 0.423378
0.932008 0.000000 0.362333
0.897193 0.000000 0.331325
0.520976 0.000000 0.476080
0.922077 0.000000 0.411380
0.926019 0.000000 0.779945
0.948632 0.000000 0.590253
0.930245 0.000000 0.316637
0.859763 0.000000 0.550007
0.525533 0.000000 0.484938
0.934233 0.000000 0.476675
0.821157 0.000000 0.805602
0.813479 0.000000 0.395738
0.681525 0.000000 0.620837
0.949319 0.000000 0.749659
0.939815 0.000000 0.453457
0.900122 0.000000 0.641158
0.692602 0.000000 0.450387
0.846345 0.000000 0.797384
0.937301 0.000000 0.469536
0.942608 0.000000 0.580480
0.829068 0.000000 0.403407
0.649926 0.000000 0.557468
0.910373 0.000000 0.816755
0.674984 0.000000 0.674791
0.930034 0.000000 0.737028
0.892113 0.000000 0.559716
0.873952 0.000000 0.789427
0.869260 0.000000 0.571397
0.728037 0.000000 0.662205
0.554109 0.000000 0.457299
0.714711 0.000000 0.481387
0.660385 0.000000 0.529943
0.863596 0.000000 0.440810
0.956484 0.000000 0.376635
0.956778 0.000000 0.885649
0.571629 0.000000 0.494631
0.607199 0.000000 0.548518
0.777708 0.000000 0.610754
0.881905 0.000000 0.712548
0.696023 0.000000 0.442379
0.883715 0.000000 0.864906
0.942618 0.000000 0.378434
0.732446 0.000000 0.704064
0.775155 0.000000 0.700050
0.606668 0.000000 0.432096
0.941552 0.000000 0.567256
0.840876 0.000000 0.364876
0.822014 0.000000 0.386891
0.804455 0.000000 0.527294
0.689308 0.000000 0.544134
0.759328 0.000000 0.655767
0.904181 0.000000 0.904098
0.834541 0.000000 0.454327
0.485262 0.000000 0.483725
0.657499 0.000000 0.610432
0.768204 0.000000 0.620100
0.944499 0.000000 0.595506
0.709101 0.000000 0.618345
0.700606 0.000000 0.399055
0.686943 0.000000 0.402646
0.699017 0.000000 0.549832
0.790714 0.000000 0.635653
0.752266 0.000000 0.504625
0.878410 0.000000 0.768928
0.823603 0.000000 0.674959
0.898918 0.000000 0.429561
0.758344 0.000000 0.679673
0.881818 0.000000 0.497666
0.695361 0.000000 0.447308
0.893424 0.000000 0.481774
0.845432 0.000000 0.518128
0.947392 0.000000 0.467359
0.914733 0.000000 0.685845
0.920752 0.000000 0.532370
0.848068 0.000000 0.343546
0.580221 0.000000 0.458152
0.933313 0.000000 0.761574
0.783658 0.000000 0.702511
0.706137 0.000000 0.663191
0.577192 0.000000 0.485534
0.958522 0.000000 0.898017
0.755745 0.000000 0.707726
0.535672 0.000000 0.510224
0.677012 0.000000 0.435998
0.779472 0.000000 0.522460
0.801861 0.000000 0.406090
0.736654 0.000000 0.564701
0.878081 0.000000 0.787804
0.620110 0.000000 0.616713
0.750935 0.000000 0.632359
0.897448 0.000000 0.460027
0.744886 0.000000 0.412225
0.818607 0.000000 0.811686
0.633065 0.000000 0.440246
0.790034 0.000000 0.511244
0.936458 0.000000 0.578324
0.892471 0.000000 0.517820
0.715221 0.000000 0.684808
0.912479 0.000000 0.664830
0.816991 0.000000 0.505571
0.804204 0.000000 0.739565
0.708488 0.000000 0.394873
0.643170 0.000000 0.487918
0.807899 0.000000 0.707026
0.864413 0.000000 0.614530
0.702196 0.000000 0.648419
0.867679 0.000000 0.550940
0.899159 0.000000 0.613362
0.786148 0.000000 0.597921
0.513452 0.000000 0.486049
0.766044 0.000000 0.679597
0.764942 0.000000 0.755310
0.958665 0.000000 0.808647
0.920416 0.000000 0.473798
0.717326 0.000000 0.489506
0.749769 0.000000 0.529991
0.761915 0.000000 0.563893
0.820076 0.000000 0.707792
0.911119 0.000000 0.533695
0.958805 0.000000 0.526053
0.911814 0.000000 0.835086
0.891089 0.000000 0.653218
0.703238 0.000000 0.590487
0.786268 0.000000 0.375948
0.807990 0.000000 0.664484
0.886723 0.000000 0.843484
0.662694 0.000000 0.627690
0.877405 0.000000 0.668878
0.717978 0.000000 0.468351
0.923563 0.000000 0.898671
0.836896 0.000000 0.544246
0.862340 0.000000 0.579161
0.681911 0.000000 0.613661
0.918340 0.000000 0.573471
0.686973 0.000000 0.512345
0.826166 0.000000 0.585005
0.697964 0.000000 0.512750
0.585433 0.000000 0.493216
0.850028 0.000000 0.823630
0.875826 0.000000 0.811458
0.871715 0.000000 0.710330
0.889064 0.000000 0.776042
0.934555 0.000000 0.380271
0.844136 0.000000 0.440137
0.946837 0.000000 0.568006
0.831931 0.000000 0.766417
0.680751 0.000000 0.518457
0.667220 0.000000 0.558065
0.885566 0.000000 0.643450
0.837991 0.000000 0.556830
0.945084 0.000000 0.817310
0.947989 0.000000 0.941633
0.670294 0.000000 0.641430
0.817266 0.000000 0.775445
0.634358 0.000000 0.455567
0.802544 0.000000 0.400697
0.626827 0.000000 0.486937
0.932143 0.000000 0.356655
0.948032 0.000000 0.577882
0.915398 0.000000 0.365633
0.819341 0.000000 0.803399
0.818481 0.000000 0.764773
0.653630 0.000000 0.445336
0.794747 0.000000 0.562392
0.930586 0.000000 0.460526
0.852980 0.000000 0.727972
0.871141 0.000000 0.526313
0.771709 0.000000 0.488882
0.864966 0.000000 0.661794
0.654819 0.000000 0.550087
0.673752 0.000000 0.595840
0.799587 0.000000 0.797009
0.594441 0.000000 0.575257
0.776040 0.000000 0.470419
0.585972 0.000000 0.439179
0.883784 0.000000 0.758360
0.707253 0.000000 0.491132
0.887040 0.000000 0.406606
0.876378 0.000000 0.528762
0.802575 0.000000 0.682154
0.872150 0.000000 0.339352
0.802686 0.000000 0.418350
0.914215 0.000000 0.896190
0.780017 0.000000 0.458920
0.543259 0.000000 0.481427
0.678708 0.000000 0.591201
0.959454 0.000000 0.500746
0.728758 0.000000 0.457522
0.933130 0.000000 0.788430
0.938334 0.000000 0.491036
0.872538 0.000000 0.728633
0.874432 0.000000 0.499972
0.646542 0.000000 0.452693
0.902667 0.000000 0.670124
0.937292 0.000000 0.774548
0.672926 0.000000 0.451209
0.661316 0.000000 0.543510
0.798668 0.000000 0.395470
0.885058 0.000000 0.622924
0.833889 0.000000 0.824976
0.689512 0.000000 0.395807
0.729706 0.000000 0.680514
0.916001 0.000000 0.617173
0.802362 0.000000 0.572131
0.697708 0.000000 0.551292
0.701162 0.000000 0.660729
0.873931 0.000000 0.747574
0.553870 0.000000 0.461157
0.800419 0.000000 0.479769
0.932705 0.000000 0.508981
0.853359 0.000000 0.548082
0.545987 0.000000 0.442253
0.754844 0.000000 0.748279
0.819100 0.000000 0.411656
0.841604 0.000000 0.456471
0.901884 0.000000 0.506905
0.831278 0.000000 0.443680
0.803459 0.000000 0.595463
0.857978 0.000000 0.688901
0.863706 0.000000 0.410620
0.765464 0.000000 0.742150
0.952461 0.000000 0.923276
0.762161 0.000000 0.650568
0.829673 0.000000 0.666235
0.873015 0.000000 0.644911
0.852019 0.000000 0.555490
0.746253 0.000000 0.714086
0.936471 0.000000 0.366725
0.842139 0.000000 0.418466
0.788042 0.000000 0.495429
0.951950 0.000000 0.603161
0.915958 0.000000 0.809337
0.718812 0.000000 0.419159
0.885961 0.000000 0.394190
0.620131 0.000000 0.495592
0.796441 0.000000 0.542709
0.642152 0.000000 0.630611
0.775220 0.000000 0.371970
0.933523 0.000000 0.507276
0.851350 0.000000 0.385226
0.941401 0.000000 0.407182
0.728860 0.000000 0.409763
0.912825 0.000000 0.348065
0.783633 0.000000 0.376476
0.928976 0.000000 0.485742
0.895177 0.000000 0.774407
0.707254 0.000000 0.424086
0.934130 0.000000 0.840336
0.903706 0.000000 0.342716
0.717955 0.000000 0.484433
0.676638 0.000000 0.597602
0.950212 0.000000 0.499100
0.846711 0.000000 0.548744
0.808500 0.000000 0.487116
0.879050 0.000000 0.596101
0.791466 0.000000 0.790138
0.838925 0.000000 0.523392
0.797774 0.000000 0.786726
0.831259 0.000000 0.658597
0.946459 0.000000 0.396278
0.873438 0.000000 0.550625
0.698303 0.000000 0.524328
0.488285 0.000000 0.471511
0.783396 0.000000 0.641403
0.681289 0.000000 0.532007
0.772129 0.000000 0.709519
