0.000000 0.218992 0.748163
0.000000 0.161275 0.790591
0.000000 0.032469 0.729310
0.000000 0.269686 0.887143
0.000000 0.127181 0.663290
0.000000 0.456085 0.741571
0.000000 0.264153 0.708204
0.000000 0.402656 0.942328
0.000000 0.010547 0.683587
0.000000 0.156445 0.975437
0.000000 0.404014 0.831989
0.000000 0.483785 0.806190
0.000000 0.024607 0.971839
0.000000 0.574938 0.891083
0.000000 0.313961 0.854936
0.000000 0.217435 0.892786
0.000000 0.172251 0.966149
0.000000 0.093640 0.895095
0.000000 0.210564 0.915671
0.000000 0.536415 0.952070
0.000000 0.456165 0.942438
0.000000 0.009919 0.990503
0.000000 0.222054 0.974003
0.000000 0.447218 0.731646
0.000000 0.213208 0.861435
0.000000 0.406953 0.900580
0.000000 0.013741 0.987014
0.000000 0.072218 0.870950
0.000000 0.240492 0.993882
0.000000 0.199484 0.826099
0.000000 0.199566 0.801329
0.000000 0.492062 0.800355
0.000000 0.167036 0.949289
0.000000 0.346979 0.866504
0.000000 0.015063 0.711834
0.000000 0.129063 0.646576
0.000000 0.060723 0.697874
0.000000 0.192563 0.890206
0.000000 0.126093 0.877316
0.000000 0.172898 0.949720
0.000000 0.543931 0.848022
0.000000 0.547492 0.926682
0.000000 0.202977 0.826149
0.000000 0.040356 0.902389
0.000000 0.066142 0.890672
0.000000 0.179820 0.923619
0.000000 0.444576 0.793083
0.000000 0.233755 0.926813
0.000000 0.323512 0.732399
0.000000 0.341216 0.828444
0.000000 0.508307 0.848282
0.000000 0.174142 0.998325
0.000000 0.101036 0.975400
0.000000 0.107617 0.732395
0.000000 0.051583 0.804422
0.000000 0.098557 0.735616
0.000000 0.033245 0.672556
0.000000 0.085026 0.701866
0.000000 0.330439 0.980969
0.000000 0.076277 0.900585
0.000000 0.286888 0.963355
0.000000 0.143787 0.907513
0.000000 0.165699 0.937188
0.000000 0.541234 0.901231
0.000000 0.303783 0.768867
0.000000 0.088775 0.861739
0.000000 0.194208 0.961394
0.000000 0.294247 0.769250
0.000000 0.224633 0.809834
0.000000 0.315471 0.938747
0.000000 0.029243 0.923532
0.000000 0.421199 0.801452
0.000000 0.045530 0.706540
0.000000 0.509639 0.911415
0.000000 0.353371 0.861398
0.000000 0.181668 0.953157
0.000000 0.113101 0.640399
0.000000 0.087879 0.932724
0.000000 0.303148 0.834360
0.000000 0.096129 0.738340
0.000000 0.601509 0.785847
0.000000 0.101790 0.883330
0.000000 0.144063 0.815092
0.000000 0.373079 0.811979
0.000000 0.137086 0.726897
0.000000 0.169985 0.839260
0.000000 0.099983 0.800284
0.000000 0.522630 0.854063
0.000000 0.077583 0.898076
0.000000 0.029785 0.949894
0.000000 0.140262 0.707726
0.000000 0.392812 0.859214
0.000000 0.181098 0.668403
0.000000 0.056259 0.992138
0.000000 0.107997 0.973881
0.000000 0.410887 0.772164
0.000000 0.368892 0.963264
0.000000 0.381060 0.818856
0.000000 0.262626 0.826523
0.000000 0.513204 0.891069
0.000000 0.176986 0.877261
0.000000 0.490793 0.769321
0.000000 0.061770 0.786385
0.000000 0.014444 0.688222
0.000000 0.027827 0.924306
0.000000 0.337844 0.706939
0.000000 0.164922 0.873944
0.000000 0.199224 0.986221
0.000000 0.260578 0.972429
0.000000 0.031466 0.650636
0.000000 0.016452 0.983491
0.000000 0.586467 0.842215
0.000000 0.382160 0.846847
0.000000 0.115855 0.826727
0.000000 0.246437 0.707564
0.000000 0.013229 0.710160
0.000000 0.225965 0.995187
0.000000 0.428486 0.787765
0.000000 0.055549 0.628800
0.000000 0.543401 0.829825
0.000000 0.161694 0.798418
0.000000 0.128063 0.688257
0.000000 0.355421 0.771611
0.000000 0.364700 0.920428
0.000000 0.130590 0.679240
0.000000 0.616808 0.787676
0.000000 0.208757 0.892461
0.000000 0.181298 0.935271
0.000000 0.308618 0.988892
0.000000 0.046320 0.970397
0.000000 0.409806 0.942774
0.000000 0.421131 0.804939
0.000000 0.255804 0.722479
0.000000 0.047283 0.801960
0.000000 0.078436 0.635888
0.000000 0.305358 0.735652
0.000000 0.023542 0.637187
0.000000 0.358560 0.896950
0.000000 0.013369 0.893228
0.000000 0.017558 0.961078
0.000000 0.192527 0.788107
0.000000 0.515624 0.807386
0.000000 0.265895 0.983399
0.000000 0.230528 0.730854
0.000000 0.052823 0.921009
0.000000 0.069466 0.842566
0.000000 0.184079 0.930838
0.000000 0.004380 0.852176
0.000000 0.135959 0.742357
0.000000 0.037878 0.800488
0.000000 0.105118 0.667705
0.000000 0.475321 0.949866
0.000000 0.343542 0.949500
0.000000 0.460094 0.860444
0.000000 0.324362 0.867604
0.000000 0.433453 0.810933
0.000000 0.416730 0.905935
0.000000 0.276727 0.944540
0.000000 0.070380 0.805216
0.000000 0.288661 0.984570
0.000000 0.398891 0.790220
0.000000 0.481421 0.765129
0.000000 0.494886 0.983863
0.000000 0.084494 0.811855
0.000000 0.286245 0.870706
0.000000 0.295759 0.941610
0.000000 0.025802 0.752142
0.000000 0.554347 0.765275
0.000000 0.093011 0.868231
0.000000 0.240138 0.727173
0.000000 0.155166 0.704095
0.000000 0.139155 0.814567
0.000000 0.396549 0.722719
0.000000 0.331678 0.889866
0.000000 0.369054 0.775581
0.000000 0.016035 0.852012
0.000000 0.430982 0.956195
0.000000 0.062620 0.634129
0.000000 0.061637 0.741536
0.000000 0.224524 0.939824
0.000000 0.432234 0.888966
0.000000 0.418942 0.757323
0.000000 0.283832 0.815173
0.000000 0.429538 0.849859
0.000000 0.058756 0.945981
0.000000 0.077004 0.869723
0.000000 0.459814 0.926701
0.000000 0.197763 0.748910
0.000000 0.575703 0.902081
0.000000 0.267724 0.889996
0.000000 0.470285 0.863993
0.000000 0.223939 0.953366
0.000000 0.212115 0.931945
0.000000 0.540068 0.961468
0.000000 0.267858 0.719051
0.000000 0.277490 0.701690
0.000000 0.444047 0.747108
0.000000 0.331162 0.894937
0.000000 0.362008 0.812289
0.000000 0.329552 0.890816
0.000000 0.438678 0.803391
0.000000 0.001829 0.880244
0.000000 0.582124 0.863943
0.000000 0.290339 0.961786
0.000000 0.100813 0.717063
0.000000 0.426841 0.943779
0.000000 0.287957 0.995005
0.000000 0.366008 0.729186
0.000000 0.365748 0.812356
0.000000 0.474504 0.987412
0.000000 0.322327 0.756406
0.000000 0.490045 0.825131
0.000000 0.205159 0.670075
0.000000 0.003042 0.614311
0.000000 0.234713 0.908012
0.000000 0.506134 0.827952
0.000000 0.055517 0.671950
0.000000 0.527438 0.818164
0.000000 0.476696 0.818228
0.000000 0.359617 0.728904
0.000000 0.369201 0.887980
0.000000 0.330542 0.811531
0.000000 0.385072 0.835333
0.000000 0.350999 0.804842
0.000000 0.465758 0.849109
0.000000 0.050586 0.840919
0.000000 0.114902 0.984644
0.000000 0.374971 0.791681
0.000000 0.017254 0.696276
0.000000 0.101579 0.862367
0.000000 0.306233 0.751343
0.000000 0.504742 0.769819
0.000000 0.331163 0.798338
0.000000 0.478144 0.759921
0.000000 0.075800 0.672222
0.000000 0.450364 0.873271
0.000000 0.276271 0.845374
0.000000 0.132105 0.906100
0.000000 0.209140 0.824723
0.000000 0.167530 0.936976
0.000000 0.140541 0.982374
0.000000 0.589490 0.788552
0.000000 0.199434 0.901930
0.000000 0.195850 0.938701
0.000000 0.569477 0.857606
0.000000 0.521726 0.923859
0.000000 0.349011 0.971327
0.000000 0.229640 0.971422
0.000000 0.420006 0.739013
0.000000 0.311127 0.811436
0.000000 0.153330 0.997015
0.000000 0.094334 0.926638
0.000000 0.423374 0.923917
0.000000 0.096426 0.887414
0.000000 0.119196 0.654799
0.000000 0.365997 0.882465
0.000000 0.137028 0.717757
0.000000 0.025610 0.720179
0.000000 0.467990 0.765469
0.000000 0.043685 0.858832
0.000000 0.477115 0.815562
0.000000 0.415071 0.967108
0.000000 0.349214 0.976749
0.000000 0.406423 0.980010
0.000000 0.235346 0.877197
0.000000 0.518825 0.890916
0.000000 0.419438 0.928473
0.000000 0.509082 0.970430
0.000000 0.314810 0.811251
0.000000 0.356329 0.937108
0.000000 0.162846 0.983497
0.000000 0.392318 0.974928
0.000000 0.371096 0.802254
0.000000 0.389570 0.762772
0.000000 0.050044 0.828096
0.000000 0.163381 0.858753
0.000000 0.243502 0.929681
0.000000 0.286564 0.888920
0.000000 0.491636 0.902420
0.000000 0.402371 0.808630
0.000000 0.240329 0.685230
0.000000 0.261290 0.715202
0.000000 0.033876 0.672963
0.000000 0.026087 0.827749
0.000000 0.320605 0.725442
0.000000 0.565022 0.854642
0.000000 0.042436 0.753434
0.000000 0.055454 0.744952
0.000000 0.485919 0.816368
0.000000 0.312822 0.889452
0.000000 0.051025 0.742709
0.000000 0.038840 0.985481
0.000000 0.274767 0.894821
0.000000 0.256284 0.855474
0.000000 0.242937 0.936487
0.000000 0.181126 0.957472
0.000000 0.245993 0.756592
0.000000 0.151050 0.684484
0.000000 0.308109 0.983459
0.000000 0.119955 0.823812
0.000000 0.216732 0.927906
0.000000 0.338188 0.822905
0.000000 0.339885 0.921991
0.000000 0.547859 0.778534
0.000000 0.211446 0.667773
0.000000 0.366781 0.742299
0.000000 0.162163 0.788443
0.000000 0.344165 0.848862
0.000000 0.469842 0.835206
0.000000 0.144368 0.964387
0.000000 0.137770 0.973039
0.000000 0.332508 0.860122
0.000000 0.138672 0.909703
0.000000 0.234820 0.760365
0.000000 0.472830 0.942578
0.000000 0.142485 0.647514
0.000000 0.430407 0.754842
0.000000 0.220582 0.759191
0.000000 0.483355 0.770036
0.000000 0.327048 0.753585
0.000000 0.388467 0.898551
0.000000 0.458414 0.857932
0.000000 0.607393 0.788011
0.000000 0.497554 0.829883
0.000000 0.282749 0.997590
0.000000 0.128071 0.889149
0.000000 0.164088 0.951717
0.000000 0.357034 0.855813
0.000000 0.435894 0.774143
0.000000 0.134764 0.938820
0.000000 0.212589 0.959275
0.000000 0.435622 0.913635
0.000000 0.475859 0.878436
0.000000 0.459368 0.957420
0.000000 0.180165 0.756325
0.000000 0.157622 0.747626
0.000000 0.348464 0.878976
0.000000 0.019710 0.689742
0.000000 0.258598 0.711369
0.000000 0.287820 0.733244
0.000000 0.417343 0.732027
0.000000 0.282144 0.709991
0.000000 0.501202 0.954924
0.000000 0.284871 0.771862
0.000000 0.231350 0.757293
0.000000 0.487270 0.985810
0.000000 0.398867 0.757588
0.000000 0.384524 0.760809
0.000000 0.419895 0.897045
0.000000 0.385076 0.846207
0.000000 0.600267 0.837657
0.000000 0.288479 0.948150
0.000000 0.197281 0.709669
0.000000 0.220506 0.785172
0.000000 0.118304 0.884579
0.000000 0.473600 0.835070
0.000000 0.206958 0.793664
0.000000 0.253899 0.889821
0.000000 0.028534 0.794001
0.000000 0.461456 0.830790
0.000000 0.343880 0.717659
0.000000 0.192484 0.713971
0.000000 0.123770 0.877048
0.000000 0.147732 0.771658
0.000000 0.083910 0.675784
0.000000 0.227378 0.930930
0.000000 0.326841 0.814136
0.000000 0.008746 0.782131
0.000000 0.242085 0.705270
0.000000 0.154944 0.998159
0.000000 0.304626 0.787095
0.000000 0.345102 0.778753
0.000000 0.584181 0.833633
0.000000 0.281826 0.906405
0.000000 0.251131 0.924291
0.000000 0.443213 0.917694
0.000000 0.271515 0.752495
0.000000 0.205376 0.928862
0.000000 0.388204 0.987303
0.000000 0.529641 0.882711
0.000000 0.161703 0.753952
0.000000 0.279570 0.930427
0.000000 0.205839 0.732708
0.000000 0.309278 0.986833
0.000000 0.034644 0.915566
0.000000 0.037339 0.850443
0.000000 0.059291 0.881873
0.000000 0.086083 0.686997
0.000000 0.192835 0.985705
0.000000 0.552277 0.794923
0.000000 0.334758 0.815869
0.000000 0.282549 0.919370
0.000000 0.562072 0.762298
0.000000 0.142199 0.799526
0.000000 0.159222 0.793203
0.000000 0.057170 0.964005
0.000000 0.113262 0.668206
0.000000 0.451571 0.934471
0.000000 0.417675 0.726047
0.000000 0.005237 0.650206
0.000000 0.167514 0.752147
0.000000 0.217028 0.997144
0.000000 0.585448 0.869649
0.000000 0.531985 0.858346
0.000000 0.491070 0.812244
0.000000 0.221598 0.818348
0.000000 0.226368 0.724503
0.000000 0.615097 0.788761
0.000000 0.461337 0.855147
0.000000 0.237687 0.992734
0.000000 0.301574 0.911858
0.000000 0.110370 0.775399
0.000000 0.082212 0.754344
0.000000 0.302685 0.887424
0.000000 0.474507 0.879407
0.000000 0.359674 0.971142
0.000000 0.124159 0.733744
0.000000 0.009940 0.634801
0.000000 0.399325 0.755614
0.000000 0.413361 0.732638
0.000000 0.215929 0.982028
0.000000 0.178634 0.865127
0.000000 0.496458 0.771396
0.000000 0.115735 0.985245
0.000000 0.018901 0.783349
0.000000 0.544835 0.950901
0.000000 0.480623 0.851871
0.000000 0.395112 0.782332
0.000000 0.224788 0.882049
0.000000 0.217533 0.683303
0.000000 0.179592 0.711595
0.000000 0.116498 0.681470
0.000000 0.117379 0.955027
0.000000 0.257900 0.827489
0.000000 0.543635 0.981307
0.000000 0.407536 0.750673
0.000000 0.261904 0.776527
0.000000 0.007144 0.701668
0.000000 0.132788 0.888225
0.000000 0.010691 0.654561
0.000000 0.307694 0.754935
0.000000 0.130745 0.859696
0.000000 0.228111 0.743209
0.000000 0.208895 0.774387
0.000000 0.172705 0.964779
0.000000 0.495326 0.893154
0.000000 0.500056 0.984717
0.000000 0.027217 0.716870
0.000000 0.160348 0.921609
0.000000 0.536286 0.925411
0.000000 0.291385 0.945502
0.000000 0.219332 0.855616
0.000000 0.300062 0.962417
0.000000 0.223445 0.723167
0.000000 0.585252 0.813954
0.000000 0.000967 0.894407
0.000000 0.002033 0.757467
0.000000 0.078267 0.810178
0.000000 0.441147 0.991539
0.000000 0.365347 0.892972
0.000000 0.028408 0.712423
0.000000 0.421098 0.741795
0.000000 0.130207 0.652631
0.000000 0.211806 0.988190
0.000000 0.486028 0.791822
0.000000 0.490860 0.818669
0.000000 0.215485 0.738537
0.000000 0.299671 0.918251
0.000000 0.407644 0.738441
0.000000 0.051669 0.921758
0.000000 0.263544 0.957448
0.000000 0.420620 0.788897
0.000000 0.209184 0.999953
0.000000 0.109134 0.693941
0.000000 0.153711 0.689350
0.000000 0.361621 0.839895
0.000000 0.160861 0.694806
0.000000 0.098010 0.920213
0.000000 0.489250 0.805931
0.000000 0.285009 0.856578
0.000000 0.367550 0.908998
0.000000 0.436513 0.966692
0.000000 0.329976 0.719779
0.000000 0.184647 0.838368
0.000000 0.001886 0.791221
0.000000 0.183674 0.960660
0.000000 0.077517 0.685265
0.000000 0.380719 0.838963
0.000000 0.092171 0.764148
0.000000 0.117557 0.791366
0.000000 0.491349 0.810216
0.000000 0.068172 0.960222
0.000000 0.020168 0.944158
0.000000 0.059460 0.715738
0.000000 0.520360 0.750699
0.000000 0.023369 0.785533
0.000000 0.498599 0.862373
0.000000 0.493163 0.802378
0.000000 0.510679 0.836896
0.000000 0.575135 0.856308
0.000000 0.569893 0.856772
0.000000 0.121764 0.792982
0.000000 0.137274 0.746460
0.000000 0.093696 0.717972
0.000000 0.013472 0.819092
0.000000 0.267600 0.813010
0.000000 0.055534 0.949756
0.000000 0.056680 0.730786
0.000000 0.093001 0.887847
0.000000 0.392998 0.893498
0.000000 0.260420 0.947421
0.000000 0.195373 0.798912
0.000000 0.276158 0.972933
0.000000 0.426044 0.945045
0.000000 0.202448 0.705474
0.000000 0.015367 0.643749
0.000000 0.355490 0.991537
0.000000 0.426116 0.842038
0.000000 0.524738 0.901781
0.000000 0.060177 0.848981
0.000000 0.029099 0.766366
0.000000 0.017588 0.783862
0.000000 0.268095 0.766938
0.000000 0.378978 0.831936
0.000000 0.479915 0.792428
0.000000 0.520728 0.769045
0.000000 0.538890 0.951119
0.000000 0.245861 0.805626
0.000000 0.107376 0.938264
0.000000 0.439587 0.928629
0.000000 0.358482 0.995638
0.000000 0.412534 0.764169
0.000000 0.191277 0.890365
0.000000 0.083205 0.933534
0.000000 0.180073 0.812845
0.000000 0.532127 0.986766
0.000000 0.159509 0.835937
0.000000 0.557421 0.842263
0.000000 0.004546 0.830864
0.000000 0.213126 0.876300
0.000000 0.130867 0.644393
0.000000 0.291320 0.897915
0.000000 0.509050 0.877693
0.000000 0.151812 0.809911
0.000000 0.394274 0.904872
0.000000 0.159569 0.905385
0.000000 0.035308 0.905788
0.000000 0.349038 0.796916
0.000000 0.422898 0.917674
0.000000 0.289058 0.759686
0.000000 0.235985 0.806695
0.000000 0.532479 0.956461
0.000000 0.018880 0.815704
0.000000 0.014075 0.814030
0.000000 0.353535 0.821111
0.000000 0.399781 0.868534
0.000000 0.165464 0.800109
0.000000 0.239489 0.713371
0.000000 0.338860 0.846419
0.000000 0.545995 0.769670
0.000000 0.125704 0.978819
0.000000 0.212843 0.838329
0.000000 0.336264 0.879937
0.000000 0.195350 0.896152
0.000000 0.006977 0.991692
0.000000 0.167339 0.931380
0.000000 0.521518 0.822751
0.000000 0.117549 0.917025
0.000000 0.203987 0.991378
0.000000 0.010880 0.937302
0.000000 0.136380 0.819668
0.000000 0.124276 0.779888
0.000000 0.287079 0.972391
0.000000 0.136481 0.860156
0.000000 0.053717 0.787639
0.000000 0.098079 0.984403
0.000000 0.328795 0.802304
0.000000 0.225210 0.957890
0.000000 0.107695 0.831666
0.000000 0.064655 0.761597
0.000000 0.490379 0.867410
0.000000 0.380753 0.939344
0.000000 0.544829 0.837934
0.000000 0.041738 0.905008
0.000000 0.024422 0.625852
0.000000 0.539080 0.810669
0.000000 0.397767 0.800011
0.000000 0.446682 0.979904
0.000000 0.122035 0.863150
0.000000 0.247037 0.735791
0.000000 0.346355 0.938743
0.000000 0.081311 0.786027
0.000000 0.519655 0.949742
0.000000 0.035802 0.864771
0.000000 0.118426 0.951827
0.000000 0.497271 0.977297
0.000000 0.256338 0.750693
0.000000 0.252031 0.895038
0.000000 0.055146 0.993532
0.000000 0.156100 0.864929
0.000000 0.102598 0.768359
0.000000 0.385399 0.850561
0.000000 0.458439 0.809242
0.000000 0.552125 0.878963
0.000000 0.258667 0.715811
0.000000 0.482849 0.940907
0.000000 0.467230 0.885519
0.000000 0.108716 0.951356
0.000000 0.365829 0.926625
0.000000 0.584739 0.849221
0.000000 0.455682 0.807275
0.000000 0.309337 0.962340
0.000000 0.450245 0.889637
0.000000 0.357427 0.885912
0.000000 0.362673 0.787795
0.000000 0.329137 0.912469
0.000000 0.010833 0.684061
0.000000 0.312689 0.967001
0.000000 0.137443 0.809836
0.000000 0.221136 0.707525
0.000000 0.003045 0.785986
0.000000 0.077701 0.922679
0.000000 0.137711 0.689701
0.000000 0.192054 0.790416
0.000000 0.272405 0.906175
0.000000 0.532992 0.769651
0.000000 0.354919 0.810682
0.000000 0.362417 0.962677
0.000000 0.081366 0.980113
0.000000 0.334474 0.849819
0.000000 0.292140 0.879373
0.000000 0.145728 0.735494
0.000000 0.277614 0.852338
0.000000 0.140395 0.663647
0.000000 0.474215 0.918984
0.000000 0.260625 0.980086
0.000000 0.048108 0.912465
0.000000 0.219497 0.974494
0.000000 0.033737 0.629471
0.000000 0.018760 0.696314
0.000000 0.014154 0.677114
0.000000 0.283457 0.767596
0.000000 0.066008 0.844351
0.000000 0.609179 0.787770
0.000000 0.210083 0.772318
0.000000 0.191899 0.659853
0.000000 0.031003 0.794038
0.000000 0.406697 0.987788
0.000000 0.113611 0.889156
0.000000 0.120108 0.649241
0.000000 0.098926 0.903064
0.000000 0.455776 0.987504
0.000000 0.023746 0.737213
0.000000 0.438688 0.905212
0.000000 0.152036 0.696983
0.000000 0.155807 0.667782
0.000000 0.345191 0.940041
0.000000 0.272564 0.796323
0.000000 0.448156 0.852061
0.000000 0.221231 0.963735
0.000000 0.390160 0.774486
0.000000 0.274639 0.980780
0.000000 0.279181 0.965665
0.000000 0.438327 0.754467
0.000000 0.023140 0.708605
0.000000 0.297067 0.918240
0.000000 0.135006 0.902462
0.000000 0.062984 0.726922
0.000000 0.011887 0.664283
0.000000 0.229990 0.682672
0.000000 0.298915 0.847895
0.000000 0.065966 0.828746
0.000000 0.467557 0.868598
0.000000 0.058716 0.886997
0.000000 0.088272 0.841366
0.000000 0.155428 0.992099
0.000000 0.244663 0.854043
0.000000 0.138368 0.970741
0.000000 0.458325 0.761909
0.000000 0.098731 0.881394
0.000000 0.435264 0.778736
0.000000 0.546634 0.791201
0.000000 0.271022 0.731396
0.000000 0.264653 0.856901
0.000000 0.429223 0.778435
0.000000 0.538683 0.843845
0.000000 0.424185 0.752989
0.000000 0.072276 0.847220
0.000000 0.248460 0.835638
0.000000 0.298593 0.924736
0.000000 0.258055 0.901961
0.000000 0.350884 0.945216
0.000000 0.144186 0.957993
0.000000 0.051386 0.835133
0.000000 0.481127 0.853938
0.000000 0.103679 0.786085
0.000000 0.075698 0.966655
0.000000 0.392312 0.946372
0.000000 0.075449 0.963260
0.000000 0.058784 0.726492
0.000000 0.003627 0.837524
0.000000 0.074411 0.707718
0.000000 0.281815 0.709648
0.000000 0.418093 0.801392
0.000000 0.256736 0.813755
0.000000 0.422734 0.755919
0.000000 0.276248 0.877140
0.000000 0.591379 0.794212
0.000000 0.044415 0.987134
0.000000 0.435270 0.751175
0.000000 0.012036 0.828309
0.000000 0.401619 0.727277
0.000000 0.341303 0.985971
0.000000 0.125486 0.896522
0.000000 0.008146 0.712036
0.000000 0.390706 0.721819
0.000000 0.419524 0.894460
0.000000 0.273180 0.715615
0.000000 0.179087 0.887945
0.000000 0.228219 0.785191
0.000000 0.444558 0.845668
0.000000 0.125003 0.906521
0.000000 0.152484 0.928995
0.000000 0.092819 0.972094
0.000000 0.115486 0.734046
0.000000 0.156186 0.664815
0.000000 0.285380 0.784921
0.000000 0.209212 0.920044
0.000000 0.373563 0.746078
0.000000 0.394970 0.975120
0.000000 0.419975 0.985305
0.000000 0.485505 0.883166
0.000000 0.139067 0.809419
0.000000 0.003171 0.745201
0.000000 0.196996 0.868869
0.000000 0.105322 0.709423
0.000000 0.422573 0.721466
0.000000 0.175293 0.775736
0.000000 0.106321 0.981157
0.000000 0.092114 0.667444
0.000000 0.349507 0.706498
0.000000 0.083716 0.902921
0.000000 0.397238 0.972576
0.000000 0.503754 0.981455
0.000000 0.010469 0.899528
0.000000 0.062617 0.935241
0.000000 0.216803 0.989629
0.000000 0.130012 0.654668
0.000000 0.221281 0.759316
0.000000 0.336066 0.952625
0.000000 0.095338 0.805262
0.000000 0.195123 0.792626
0.000000 0.046309 0.880411
0.000000 0.093394 0.946873
0.000000 0.264997 0.749201
0.000000 0.469201 0.956999
0.000000 0.045059 0.852780
0.000000 0.563352 0.924599
0.000000 0.216023 0.891090
0.000000 0.307166 0.923767
0.000000 0.089478 0.650071
0.000000 0.517114 0.986558
0.000000 0.214418 0.944674
0.000000 0.584892 0.785144
0.000000 0.333376 0.701078
0.000000 0.516483 0.843788
0.000000 0.380935 0.906300
0.000000 0.335952 0.822637
0.000000 0.300504 0.948490
0.000000 0.383340 0.837346
0.000000 0.322594 0.759066
0.000000 0.158732 0.800328
0.000000 0.584905 0.788202
0.000000 0.147930 0.651390
0.000000 0.359896 0.831725
0.000000 0.247952 0.800256
0.000000 0.215483 0.986383
0.000000 0.171599 0.724009
0.000000 0.086159 0.833908
0.000000 0.300064 0.857798
0.000000 0.540404 0.860711
0.000000 0.527469 0.860759
0.000000 0.245079 0.859937
0.000000 0.444698 0.923491
0.000000 0.468302 0.880344
0.000000 0.207203 0.792974
0.000000 0.353786 0.705585
0.000000 0.453254 0.881161
0.000000 0.278697 0.912284
0.000000 0.245818 0.924928
0.000000 0.461602 0.743309
0.000000 0.055562 0.778956
0.000000 0.530898 0.956765
0.000000 0.403823 0.974355
0.000000 0.418341 0.848394
0.000000 0.346330 0.702428
0.000000 0.468781 0.770848
0.000000 0.118582 0.922463
0.000000 0.326022 0.919113
0.000000 0.293198 0.794739
0.000000 0.550889 0.779701
0.000000 0.089481 0.914865
0.000000 0.096619 0.724249
0.000000 0.401996 0.737854
0.000000 0.160599 0.723439
0.000000 0.514543 0.830072
0.000000 0.456861 0.797139
0.000000 0.487862 0.839722
0.000000 0.208300 0.756604
0.000000 0.152769 0.864260
0.000000 0.272315 0.893291
0.000000 0.148591 0.986013
0.000000 0.177123 0.679960
0.000000 0.351918 0.846505
0.000000 0.220040 0.977062
0.000000 0.521926 0.857286
0.000000 0.141483 0.803298
0.000000 0.414666 0.930347
0.000000 0.353780 0.905065
0.000000 0.337505 0.785890
0.000000 0.369640 0.709845
0.000000 0.416107 0.888081
0.000000 0.207930 0.778590
0.000000 0.059012 0.922863
0.000000 0.298128 0.996737
0.000000 0.219209 0.758854
0.000000 0.150107 0.903141
0.000000 0.410935 0.747747
0.000000 0.130605 0.728994
0.000000 0.299950 0.727261
0.000000 0.400161 0.802691
0.000000 0.152231 0.898538
0.000000 0.309935 0.778085
0.000000 0.099131 0.769354
0.000000 0.057271 0.807779
0.000000 0.332510 0.909335
0.000000 0.390118 0.940349
0.000000 0.284704 0.936787
0.000000 0.105421 0.693834
0.000000 0.239798 0.758226
0.000000 0.325193 0.966128
0.000000 0.144947 0.724137
0.000000 0.211925 0.986833
0.000000 0.069896 0.663770
0.000000 0.099162 0.686052
0.000000 0.049432 0.773892
0.000000 0.286129 0.944779
0.000000 0.300724 0.819681
0.000000 0.125735 0.805142
0.000000 0.577807 0.883633
0.000000 0.165743 0.657167
0.000000 0.035855 0.993972
0.000000 0.327123 0.786008
0.000000 0.357074 0.911298
0.000000 0.377187 0.716697
0.000000 0.204506 0.960074
0.000000 0.364044 0.924672
0.000000 0.259371 0.820605
0.000000 0.196048 0.737932
0.000000 0.469491 0.751487
0.000000 0.036127 0.867702
0.000000 0.109034 0.856679
0.000000 0.021414 0.720879
0.000000 0.001418 0.721736
0.000000 0.514828 0.758709
0.000000 0.444847 0.947709
0.000000 0.103967 0.665449
0.000000 0.394756 0.969295
0.000000 0.095633 0.845902
0.000000 0.227048 0.911727
0.000000 0.075687 0.847626
0.000000 0.238027 0.833349
0.000000 0.227394 0.827377
0.000000 0.368351 0.823209
0.000000 0.281425 0.715685
0.000000 0.208991 0.783104
0.000000 0.509708 0.839228
0.000000 0.011205 0.715575
0.000000 0.123252 0.698182
0.000000 0.224555 0.966190
0.000000 0.078073 0.924800
0.000000 0.490902 0.827471
0.000000 0.063255 0.626826
0.000000 0.176259 0.914956
0.000000 0.540885 0.794758
0.000000 0.415638 0.860421
0.000000 0.319863 0.803535
0.000000 0.468349 0.878805
0.000000 0.146729 0.988969
0.000000 0.091097 0.759693
0.000000 0.023846 0.929799
0.000000 0.414074 0.914220
0.000000 0.293298 0.777514
0.000000 0.362159 0.904573
0.000000 0.079130 0.989793
0.000000 0.075167 0.735814
0.000000 0.479542 0.840567
0.000000 0.364854 0.927300
0.000000 0.455377 0.797460
0.000000 0.463476 0.877403
0.000000 0.022968 0.665634
0.000000 0.485150 0.867804
0.000000 0.436629 0.752558
0.000000 0.221575 0.854138
0.000000 0.025995 0.918441
0.000000 0.542291 0.856638
0.000000 0.379361 0.804316
0.000000 0.026292 0.905091
0.000000 0.512677 0.774502
0.000000 0.136192 0.842314
0.000000 0.332724 0.702893
0.000000 0.351277 0.896662
0.000000 0.287231 0.705123
0.000000 0.508461 0.923259
0.000000 0.019132 0.925901
0.000000 0.415599 0.828807
0.000000 0.491105 0.926153
0.000000 0.431854 0.846266
0.000000 0.317656 0.983149
0.000000 0.259676 0.872960
0.000000 0.032132 0.965429
0.000000 0.200768 0.775496
0.000000 0.165581 0.960302
0.000000 0.285417 0.893029
0.000000 0.304755 0.769614
0.000000 0.543168 0.949841
0.000000 0.237814 0.763873
0.000000 0.177812 0.787588
0.000000 0.396992 0.743808
0.000000 0.025878 0.652285
0.000000 0.280059 0.888231
0.000000 0.372260 0.733757
0.000000 0.250197 0.978966
0.000000 0.252295 0.830978
0.000000 0.209902 0.735396
0.000000 0.616159 0.790632
0.000000 0.229229 0.881055
0.000000 0.408857 0.893560
0.000000 0.077703 0.890766
0.000000 0.544059 0.841042
0.000000 0.076960 0.918565
0.000000 0.272868 0.956689
0.000000 0.003096 0.877785
0.000000 0.124102 0.677702
0.000000 0.343877 0.967868
0.000000 0.118050 0.664861
0.000000 0.512876 0.803057
0.000000 0.309420 0.895059
0.000000 0.057851 0.955306
0.000000 0.055617 0.718998
0.000000 0.330553 0.956039
0.000000 0.111292 0.673246
0.000000 0.545387 0.852611
0.000000 0.422932 0.725533
0.000000 0.513784 0.871693
0.000000 0.544954 0.937497
0.000000 0.479439 0.983287
0.000000 0.109804 0.664969
0.000000 0.433470 0.744967
0.000000 0.109336 0.687504
0.000000 0.210605 0.998206
0.000000 0.070748 0.654798
0.000000 0.037868 0.701243
0.000000 0.539394 0.899828
0.000000 0.073657 0.700626
0.000000 0.207379 0.970862
0.000000 0.155470 0.919262
0.000000 0.063825 0.727897
0.000000 0.210983 0.958893
0.000000 0.205872 0.768287
0.000000 0.454364 0.829443
0.000000 0.313850 0.899870
0.000000 0.320633 0.890076
0.000000 0.444915 0.954762
0.000000 0.355936 0.984654
0.000000 0.378145 0.950324
0.000000 0.335143 0.814153
0.000000 0.065847 0.889416
0.000000 0.249815 0.991540
0.000000 0.382361 0.944486
0.000000 0.531915 0.828251
0.000000 0.334131 0.770658
0.000000 0.300929 0.775375
0.000000 0.332884 0.989953
0.000000 0.028370 0.657761
0.000000 0.140056 0.731239
0.000000 0.482967 0.890933
0.000000 0.051004 0.829606
0.000000 0.200323 0.740211
0.000000 0.523028 0.926147
0.000000 0.080782 0.917843
0.000000 0.529041 0.933645
0.000000 0.191706 0.797938
0.000000 0.181926 0.764214
0.000000 0.429793 0.809268
0.000000 0.329175 0.937330
0.000000 0.010631 0.740576
0.000000 0.198742 0.860795
0.000000 0.063594 0.676706
0.000000 0.530228 0.858387
0.000000 0.378095 0.804458
0.000000 0.280145 0.736420
0.000000 0.089687 0.876616
0.000000 0.031805 0.720366
0.000000 0.538827 0.922143
0.000000 0.362536 0.995727
0.000000 0.305826 0.941626
0.000000 0.402293 0.767067
0.000000 0.388492 0.740103
0.000000 0.168024 0.882588
0.000000 0.447723 0.855364
0.000000 0.090791 0.755526
0.000000 0.397525 0.789457
0.000000 0.568405 0.881093
0.000000 0.188932 0.767326
0.000000 0.185849 0.678408
0.000000 0.223319 0.788710
0.000000 0.251481 0.886474
0.000000 0.251556 0.892092
0.000000 0.144562 0.829148
0.000000 0.346287 0.990298
0.000000 0.237890 0.716872
0.000000 0.087877 0.768027
0.000000 0.365023 0.923924
0.000000 0.481288 0.884724
0.000000 0.173717 0.769002
0.000000 0.161793 0.715895
0.000000 0.251989 0.875190
0.000000 0.233226 0.826977
0.000000 0.412886 0.728729
0.000000 0.543694 0.877171
0.000000 0.069914 0.697424
0.000000 0.281149 0.720195
0.000000 0.189434 0.900288
0.000000 0.403908 0.743570
0.000000 0.371615 0.770313
0.000000 0.089295 0.996304
0.000000 0.458419 0.947084
0.000000 0.370052 0.785826
0.000000 0.277630 0.881583
0.000000 0.347830 0.746701
0.000000 0.090861 0.642657
0.000000 0.548977 0.846057
0.000000 0.451949 0.992759
0.000000 0.221808 0.890824
0.000000 0.000093 0.716663
0.000000 0.083336 0.655506
0.000000 0.356266 0.763177
0.000000 0.500568 0.828505
0.000000 0.297063 0.929563
0.000000 0.017426 0.992258
0.000000 0.413042 0.729855
0.000000 0.204811 0.935910
0.000000 0.194949 0.689393
0.000000 0.016307 0.949049
0.000000 0.153990 0.991464
0.000000 0.400905 0.754579
0.000000 0.090123 0.830732
0.000000 0.354525 0.967767
0.000000 0.191149 0.728546
0.000000 0.287647 0.871652
0.000000 0.259132 0.742349
0.000000 0.036728 0.939807
0.000000 0.484340 0.986101
0.000000 0.374619 0.747341
0.000000 0.102522 0.712323
0.000000 0.233217 0.905397
0.000000 0.382535 0.873281
0.000000 0.414465 0.892429
0.000000 0.322972 0.994524
0.000000 0.185130 0.783626
0.000000 0.073007 0.754265
0.000000 0.286152 0.944801
0.000000 0.501772 0.786435
0.000000 0.458246 0.937542
0.000000 0.011798 0.794470
0.000000 0.348348 0.754666
0.000000 0.242338 0.928671
0.000000 0.406691 0.991715
0.000000 0.467374 0.811993
0.000000 0.008637 0.695873
0.000000 0.395067 0.843087
0.000000 0.310143 0.767978
0.000000 0.280190 0.769306
0.000000 0.106576 0.822479
0.000000 0.441001 0.862816
0.000000 0.019733 0.671413
0.000000 0.122805 0.676718
0.000000 0.027120 0.879461
0.000000 0.308548 0.884615
0.000000 0.325186 0.942555
0.000000 0.116362 0.897844
0.000000 0.142486 0.718924
0.000000 0.119620 0.961249
0.000000 0.126883 0.937691
0.000000 0.365455 0.995565
0.000000 0.016099 0.749323
0.000000 0.334028 0.733828
0.000000 0.436159 0.832439
0.000000 0.520517 0.852853
0.000000 0.266240 0.727552
0.000000 0.197908 0.792748
0.000000 0.591534 0.839990
0.000000 0.512080 0.830232
0.000000 0.097559 0.912033
0.000000 0.598196 0.805049
0.000000 0.323240 0.887804
0.000000 0.514285 0.891381
0.000000 0.406066 0.744833
0.000000 0.292305 0.920078
0.000000 0.457786 0.742111
0.000000 0.168841 0.726164
0.000000 0.301830 0.756694
0.000000 0.206192 0.839415
0.000000 0.384501 0.731654
0.000000 0.497950 0.851024
0.000000 0.201382 0.738999
0.000000 0.578577 0.869005
0.000000 0.434770 0.992645
0.000000 0.036911 0.980520
0.000000 0.039503 0.922093
0.000000 0.447226 0.792161
0.000000 0.195254 0.696939
0.000000 0.578012 0.797871
0.000000 0.051883 0.671336
0.000000 0.576006 0.799702
0.000000 0.336100 0.880895
0.000000 0.383655 0.745919
0.000000 0.181891 0.884633
0.000000 0.265277 0.764081
0.000000 0.503515 0.915948
0.000000 0.000735 0.967615
0.000000 0.000548 0.611085
0.000000 0.469121 0.804800
0.000000 0.238331 0.672878
0.000000 0.453380 0.772991
0.000000 0.148481 0.734368
0.000000 0.167916 0.673724
0.000000 0.237101 0.982672
0.000000 0.544124 0.978278
0.000000 0.382994 0.961121
0.000000 0.274482 0.970191
0.000000 0.040259 0.751650
0.000000 0.016495 0.928912
0.000000 0.144265 0.912602
0.000000 0.049877 0.888728
0.000000 0.161770 0.972916
0.000000 0.473288 0.993176
0.000000 0.053440 0.652366
0.000000 0.198210 0.670393
0.000000 0.439236 0.773002
0.000000 0.253165 0.837440
0.000000 0.003724 0.631950
0.000000 0.384876 0.822419
0.000000 0.042301 0.968839
0.000000 0.055628 0.891815
0.000000 0.193515 0.753822
0.000000 0.474648 0.923486
0.000000 0.393926 0.906801
0.000000 0.461959 0.839653
0.000000 0.162219 0.790181
0.000000 0.495403 0.754851
0.000000 0.541171 0.765753
0.000000 0.200252 0.869269
0.000000 0.306134 0.798529
0.000000 0.170228 0.654326
0.000000 0.330002 0.859709
0.000000 0.227766 0.741922
0.000000 0.023196 0.616467
0.000000 0.186292 0.667853
0.000000 0.384040 0.917594
0.000000 0.012574 0.685959
0.000000 0.293443 0.810010
0.000000 0.117409 0.915925
0.000000 0.422816 0.985802
0.000000 0.000431 0.880748
0.000000 0.517501 0.886376
0.000000 0.445618 0.883891
0.000000 0.057884 0.993924
0.000000 0.229660 0.891281
0.000000 0.212293 0.909449
0.000000 0.137102 0.854559
0.000000 0.250000 0.879489
0.000000 0.349733 0.897153
0.000000 0.121807 0.845175
0.000000 0.429459 0.997060
0.000000 0.279786 0.874185
0.000000 0.061705 0.901513
0.000000 0.554700 0.757499
0.000000 0.064467 0.912371
0.000000 0.536509 0.924599
0.000000 0.211616 0.987836
0.000000 0.533948 0.794539
0.000000 0.486420 0.743472
0.000000 0.290156 0.965318
0.000000 0.465460 0.931748
0.000000 0.152391 0.852762
0.000000 0.537753 0.911627
0.000000 0.061921 0.857509
0.000000 0.209234 0.774461
0.000000 0.051908 0.795766
0.000000 0.337383 0.907299
0.000000 0.125126 0.672954
0.000000 0.328504 0.769861
0.000000 0.156435 0.975062
0.000000 0.149774 0.675778
0.000000 0.202615 0.679767
0.000000 0.372293 0.889389
0.000000 0.465401 0.931802
0.000000 0.134345 0.678686
0.000000 0.256033 0.906807
0.000000 0.126564 0.933675
0.000000 0.130286 0.843714
0.000000 0.007808 0.716678
0.000000 0.010482 0.816556
0.000000 0.422398 0.865741
0.000000 0.239205 0.845629
0.000000 0.248749 0.817092
0.000000 0.191841 0.685528
0.000000 0.490037 0.807196
0.000000 0.291298 0.746296
0.000000 0.129376 0.697633
0.000000 0.323344 0.940242
0.000000 0.066467 0.916381
0.000000 0.373789 0.925822
0.000000 0.007554 0.930172
0.000000 0.052904 0.985229
0.000000 0.051047 0.832371
0.000000 0.491920 0.981264
0.000000 0.000658 0.626034
0.000000 0.363134 0.877950
0.000000 0.413381 0.835811
0.000000 0.275798 0.816465
0.000000 0.144613 0.738921
0.000000 0.094639 0.636770
0.000000 0.464173 0.798931
0.000000 0.577857 0.826720
0.000000 0.009498 0.896474
0.000000 0.282030 0.971977
0.000000 0.474948 0.998696
0.000000 0.585036 0.859671
0.000000 0.226934 0.776777
0.000000 0.059059 0.880879
0.000000 0.610345 0.781151
0.000000 0.346700 0.717317
0.000000 0.407849 0.764215
0.000000 0.211555 0.925659
0.000000 0.358936 0.868479
0.000000 0.087262 0.827204
0.000000 0.282935 0.693770
0.000000 0.233992 0.705363
0.000000 0.227858 0.991734
0.000000 0.468920 0.991195
0.000000 0.512958 0.812489
0.000000 0.083592 0.961248
0.000000 0.088046 0.647117
0.000000 0.300082 0.853617
0.000000 0.067794 0.812825
0.000000 0.420175 0.923797
0.000000 0.566846 0.811388
0.000000 0.070309 0.828778
0.000000 0.296724 0.963103
0.000000 0.167342 0.860384
0.000000 0.156873 0.945003
0.000000 0.433419 0.838744
0.000000 0.124071 0.972067
0.000000 0.320120 0.986013
0.000000 0.184220 0.951191
0.000000 0.456638 0.964336
0.000000 0.191817 0.678119
0.000000 0.273608 0.938533
0.000000 0.535352 0.800225
0.000000 0.025734 0.622519
0.000000 0.266423 0.851235
0.000000 0.285660 0.701473
0.000000 0.197094 0.961649
0.000000 0.326743 0.849792
0.000000 0.040578 0.770431
0.000000 0.269346 0.687512
0.000000 0.154474 0.673676
0.000000 0.548557 0.765211
0.000000 0.496434 0.854930
0.000000 0.352132 0.866762
0.000000 0.366993 0.988617
0.000000 0.441194 0.773571
0.000000 0.084249 0.771845
0.000000 0.139554 0.680847
0.000000 0.410945 0.940042
0.000000 0.560061 0.764534
0.000000 0.244498 0.916673
0.000000 0.260776 0.868791
0.000000 0.073596 0.707583
0.000000 0.401436 0.832024
0.000000 0.515469 0.882502
0.000000 0.059502 0.930794
0.000000 0.305979 0.751529
0.000000 0.412448 0.731463
0.000000 0.138592 0.962456
0.000000 0.075492 0.816653
0.000000 0.344709 0.770352
0.000000 0.067439 0.688389
0.000000 0.263456 0.776456
0.000000 0.185287 0.808250
0.000000 0.446126 0.852340
0.000000 0.248643 0.948420
0.000000 0.168507 0.976542
0.000000 0.224486 0.681575
0.000000 0.064999 0.909086
0.000000 0.102918 0.707943
0.000000 0.398823 0.754334
0.000000 0.007689 0.743588
0.000000 0.250355 0.748108
0.000000 0.244436 0.826875
0.000000 0.331997 0.827050
0.000000 0.432348 0.809648
0.000000 0.277053 0.917829
0.000000 0.175780 0.923236
0.000000 0.098289 0.711726
0.000000 0.206801 0.940610
0.000000 0.538323 0.977996
0.000000 0.521103 0.905137
0.000000 0.083339 0.836697
0.000000 0.330406 0.825792
0.000000 0.289378 0.822916
0.000000 0.272062 0.710434
0.000000 0.337150 0.765907
0.000000 0.354645 0.766261
0.000000 0.127435 0.679183
0.000000 0.400813 0.851218
0.000000 0.083155 0.979444
0.000000 0.431558 0.886352
0.000000 0.355953 0.815765
0.000000 0.051981 0.932323
0.000000 0.053635 0.667384
0.000000 0.166642 0.837464
0.000000 0.156962 0.929971
0.000000 0.004540 0.804384
0.000000 0.068159 0.961801
0.000000 0.419606 0.751868
0.000000 0.135322 0.821196
0.000000 0.128604 0.676821
0.000000 0.233342 0.981701
0.000000 0.060349 0.896824
0.000000 0.467138 0.952220
0.000000 0.176092 0.951559
0.000000 0.473033 0.875537
0.000000 0.137428 0.949245
0.000000 0.211852 0.924921
0.000000 0.333783 0.779963
0.000000 0.393265 0.995076
0.000000 0.516907 0.892409
0.000000 0.520885 0.846360
0.000000 0.349184 0.878309
0.000000 0.311795 0.814096
0.000000 0.140849 0.840720
0.000000 0.391262 0.996109
0.000000 0.264129 0.907898
0.000000 0.179627 0.768138
0.000000 0.171911 0.662991
0.000000 0.493467 0.991719
0.000000 0.413415 0.983039
0.000000 0.346917 0.724828
0.000000 0.514938 0.959578
0.000000 0.017895 0.630548
0.000000 0.088897 0.674174
0.000000 0.553708 0.914891
0.000000 0.154618 0.894927
0.000000 0.130524 0.923346
0.000000 0.210350 0.800233
0.000000 0.433251 0.805940
0.000000 0.378559 0.740372
0.000000 0.327815 0.743678
0.000000 0.315626 0.980568
0.000000 0.426517 0.738963
0.000000 0.432524 0.959462
0.000000 0.507752 0.813927
0.000000 0.306400 0.900993
0.000000 0.028933 0.869405
0.000000 0.158372 0.798098
0.000000 0.422552 0.831573
0.000000 0.127387 0.940675
0.000000 0.218417 0.779778
0.000000 0.114179 0.699481
0.000000 0.118849 0.793485
0.000000 0.179174 0.979203
0.000000 0.262510 0.751804
0.000000 0.423618 0.971511
0.000000 0.033185 0.696759
0.000000 0.533665 0.973310
0.000000 0.106576 0.735690
0.000000 0.436959 0.984282
0.000000 0.244949 0.867523
0.000000 0.530734 0.806004
0.000000 0.131936 0.741511
0.000000 0.063537 0.887634
0.000000 0.261462 0.902142
0.000000 0.394300 0.746982
0.000000 0.090526 0.770413
0.000000 0.524391 0.921088
0.000000 0.296715 0.877253
0.000000 0.228830 0.877791
0.000000 0.277773 0.738740
0.000000 0.171406 0.925051
0.000000 0.376801 0.786629
0.000000 0.577758 0.763704
0.000000 0.150832 0.920131
0.000000 0.153957 0.848257
0.000000 0.578544 0.791355
0.000000 0.420963 0.923603
0.000000 0.571900 0.895896
0.000000 0.049393 0.833986
0.000000 0.221127 0.972833
0.000000 0.044510 0.953628
0.000000 0.185880 0.868236
0.000000 0.478681 0.913239
0.000000 0.336949 0.872325
0.000000 0.232443 0.711862
0.000000 0.599060 0.773952
0.000000 0.148690 0.867597
0.000000 0.191019 0.993498
0.000000 0.047749 0.706568
0.000000 0.402791 0.902655
0.000000 0.209914 0.831943
0.000000 0.158973 0.980295
0.000000 0.069995 0.879462
0.000000 0.290441 0.814099
0.000000 0.444120 0.813576
0.000000 0.508081 0.819123
0.000000 0.460117 0.935922
0.000000 0.059068 0.953299
0.000000 0.087315 0.821407
0.000000 0.022307 0.617882
0.000000 0.181188 0.700300
0.000000 0.149249 0.718098
0.000000 0.046085 0.993388
0.000000 0.408507 0.985922
0.000000 0.451621 0.842289
0.000000 0.510066 0.806991
0.000000 0.149940 0.917019
0.000000 0.176755 0.811299
0.000000 0.378276 0.984835
0.000000 0.317563 0.800668
0.000000 0.296855 0.926576
0.000000 0.217947 0.711264
0.000000 0.248250 0.777018
0.000000 0.355214 0.739782
0.000000 0.403253 0.860697
0.000000 0.359773 0.895788
0.000000 0.160026 0.866733
0.000000 0.071959 0.754534
0.000000 0.197536 0.806066
0.000000 0.078308 0.975961
0.000000 0.387817 0.913088
0.000000 0.315752 0.901570
0.000000 0.197698 0.747912
0.000000 0.517264 0.796935
0.000000 0.351562 0.983380
0.000000 0.412019 0.725914
0.000000 0.236843 0.705697
0.000000 0.478783 0.914675
0.000000 0.403793 0.728829
0.000000 0.490269 0.783052
0.000000 0.547879 0.949998
0.000000 0.221256 0.933586
0.000000 0.498647 0.765085
0.000000 0.109267 0.740459
0.000000 0.465769 0.870232
0.000000 0.113475 0.888222
0.000000 0.240079 0.939170
0.000000 0.486261 0.924291
0.000000 0.189963 0.681595
0.000000 0.184640 0.963724
0.000000 0.085995 0.726443
0.000000 0.212961 0.863252
0.000000 0.352442 0.951379
0.000000 0.134015 0.757586
0.000000 0.054925 0.741418
0.000000 0.212564 0.836116
0.000000 0.374417 0.972433
0.000000 0.172666 0.766515
0.000000 0.231510 0.789892
0.000000 0.337331 0.700549
0.000000 0.124911 0.690073
0.000000 0.499689 0.883467
0.000000 0.527903 0.785732
0.000000 0.010825 0.612123
0.000000 0.269836 0.915797
0.000000 0.386417 0.826003
0.000000 0.052821 0.905434
0.000000 0.042259 0.820454
0.000000 0.109554 0.701283
0.000000 0.011033 0.970979
0.000000 0.330639 0.918912
0.000000 0.249874 0.820460
0.000000 0.093140 0.937145
0.000000 0.275267 0.818460
0.000000 0.048168 0.793009
0.000000 0.359857 0.886130
0.000000 0.399796 0.830097
0.000000 0.189610 0.814940
0.000000 0.458941 0.868749
0.000000 0.485049 0.902830
0.000000 0.003542 0.786083
0.000000 0.483749 0.766987
0.000000 0.297044 0.987754
0.000000 0.126595 0.791650
0.000000 0.205376 0.959883
0.000000 0.410631 0.997435
0.000000 0.151122 0.933894
0.000000 0.002768 0.962138
0.000000 0.298205 0.825173
0.000000 0.078397 0.980616
0.000000 0.152369 0.898509
0.000000 0.243179 0.998273
0.000000 0.253803 0.891769
0.000000 0.081452 0.655466
0.000000 0.408006 0.756272
0.000000 0.510605 0.804811
0.000000 0.364227 0.883009
0.000000 0.508929 0.952958
0.000000 0.566646 0.914036
0.000000 0.394207 0.731810
0.000000 0.214672 0.834090
0.000000 0.143536 0.868392
0.000000 0.249400 0.722472
0.000000 0.186266 0.795706
0.000000 0.102642 0.925789
0.000000 0.488731 0.795465
0.000000 0.515882 0.878278
0.000000 0.054190 0.778716
0.000000 0.068473 0.642300
0.000000 0.146067 0.900397
0.000000 0.173611 0.839323
0.000000 0.244310 0.766342
0.000000 0.020321 0.639042
0.000000 0.421805 0.802868
0.000000 0.134406 0.968419
0.000000 0.511279 0.972404
0.000000 0.512384 0.921971
0.000000 0.035965 0.928589
0.000000 0.554001 0.874113
0.000000 0.141010 0.818245
0.000000 0.271116 0.825728
0.000000 0.391848 0.924034
0.000000 0.386932 0.882142
0.000000 0.510828 0.943534
0.000000 0.134213 0.700373
0.000000 0.033170 0.828660
0.000000 0.296582 0.927004
0.000000 0.491786 0.944742
0.000000 0.071913 0.771881
0.000000 0.125678 0.708610
0.000000 0.411975 0.932442
0.000000 0.058553 0.690214
0.000000 0.117408 0.999247
0.000000 0.012504 0.929665
0.000000 0.522790 0.890875
0.000000 0.494789 0.873035
0.000000 0.066193 0.901578
0.000000 0.029751 0.884943
0.000000 0.055715 0.766004
0.000000 0.093279 0.692204
0.000000 0.220911 0.742032
0.000000 0.495638 0.870346
0.000000 0.032184 0.862522
0.000000 0.279336 0.943263
0.000000 0.328994 0.710282
0.000000 0.049672 0.914222
0.000000 0.436334 0.856024
0.000000 0.011613 0.672752
0.000000 0.319579 0.850876
0.000000 0.472694 0.950166
0.000000 0.293412 0.730086
0.000000 0.537422 0.872525
0.000000 0.344589 0.980521
0.000000 0.316981 0.986169
0.000000 0.496384 0.981848
0.000000 0.006710 0.650261
0.000000 0.550886 0.762091
0.000000 0.362700 0.774872
0.000000 0.427386 0.815087
0.000000 0.103839 0.665778
0.000000 0.067855 0.654449
0.000000 0.074182 0.761415
0.000000 0.239663 0.790152
0.000000 0.320318 0.775761
0.000000 0.479740 0.955081
0.000000 0.358075 0.745963
0.000000 0.222696 0.902033
0.000000 0.037649 0.927051
0.000000 0.329220 0.970042
0.000000 0.221939 0.797658
0.000000 0.412191 0.728895
0.000000 0.259626 0.705303
0.000000 0.101434 0.842603
0.000000 0.563888 0.930218
0.000000 0.153406 0.800547
0.000000 0.248829 0.825870
0.000000 0.032879 0.895478
0.000000 0.527790 0.819726
0.000000 0.000672 0.829570
0.000000 0.540502 0.777225
0.000000 0.531200 0.752872
0.000000 0.408175 0.761096
0.000000 0.242699 0.814983
0.000000 0.358191 0.733318
0.000000 0.021697 0.974371
0.000000 0.529784 0.899397
0.000000 0.037546 0.822451
0.000000 0.481986 0.961257
0.000000 0.440799 0.786546
0.000000 0.050129 0.797520
0.000000 0.037375 0.779213
0.000000 0.495978 0.752899
0.000000 0.440639 0.747156
0.000000 0.088292 0.751712
0.000000 0.127419 0.915690
0.000000 0.015755 0.997322
0.000000 0.095725 0.758521
0.000000 0.540231 0.853611
0.000000 0.112740 0.779860
0.000000 0.319401 0.950511
0.000000 0.248897 0.680716
0.000000 0.329976 0.740943
0.000000 0.576435 0.857013
0.000000 0.332835 0.976938
0.000000 0.139088 0.918015
0.000000 0.349409 0.912054
0.000000 0.259008 0.696107
0.000000 0.025302 0.786901
0.000000 0.241584 0.933991
0.000000 0.063202 0.721030
0.000000 0.336004 0.847003
0.000000 0.000409 0.841289
0.000000 0.494943 0.872310
0.000000 0.078736 0.947380
0.000000 0.401013 0.990739
0.000000 0.422885 0.764364
0.000000 0.045039 0.992080
0.000000 0.218516 0.876046
0.000000 0.424210 0.856504
0.000000 0.391682 0.870431
0.000000 0.204232 0.707780
0.000000 0.424078 0.800178
0.000000 0.173967 0.696007
0.000000 0.524089 0.876871
0.000000 0.086317 0.915511
0.000000 0.316256 0.757168
0.000000 0.338898 0.765698
0.000000 0.560771 0.873229
0.000000 0.237773 0.704302
0.000000 0.436889 0.885223
0.000000 0.182751 0.989827
0.000000 0.295368 0.893858
0.000000 0.550298 0.930533
0.000000 0.142572 0.787254
0.000000 0.325920 0.985338
0.000000 0.445031 0.935434
0.000000 0.243129 0.921077
0.000000 0.389796 0.805727
0.000000 0.064761 0.690307
0.000000 0.265618 0.879443
0.000000 0.579669 0.878262
0.000000 0.086589 0.992369
0.000000 0.106330 0.965212
0.000000 0.542961 0.831062
0.000000 0.092493 0.976835
0.000000 0.568409 0.884786
0.000000 0.273994 0.849118
0.000000 0.042994 0.762907
0.000000 0.353717 0.830863
0.000000 0.015078 0.708006
0.000000 0.150289 0.653325
0.000000 0.422070 0.999005
0.000000 0.103528 0.881693
0.000000 0.112253 0.682518
0.000000 0.157718 0.701715
0.000000 0.374231 0.782053
0.000000 0.068229 0.632233
0.000000 0.081978 0.976705
0.000000 0.034962 0.866322
0.000000 0.005740 0.992020
0.000000 0.414751 0.850817
0.000000 0.018716 0.616996
0.000000 0.427406 0.956208
0.000000 0.368372 0.808809
0.000000 0.414492 0.947124
0.000000 0.419371 0.725000
0.000000 0.442858 0.785657
0.000000 0.440361 0.767682
0.000000 0.057860 0.641050
0.000000 0.144473 0.804395
0.000000 0.275455 0.962933
0.000000 0.368558 0.795325
0.000000 0.272070 0.864077
0.000000 0.143795 0.737215
0.000000 0.346984 0.756134
0.000000 0.021921 0.685018
0.000000 0.233251 0.865524
0.000000 0.057502 0.751780
0.000000 0.182336 0.933588
0.000000 0.296494 0.998134
0.000000 0.076011 0.855321
0.000000 0.317271 0.948750
0.000000 0.104029 0.689396
0.000000 0.408931 0.721721
0.000000 0.404324 0.832177
0.000000 0.390910 0.900717
0.000000 0.367718 0.848263
0.000000 0.060033 0.875291
0.000000 0.270566 0.767769
0.000000 0.102174 0.995513
0.000000 0.518918 0.811177
0.000000 0.228791 0.877494
0.000000 0.141550 0.959458
0.000000 0.534032 0.894925
0.000000 0.601829 0.782899
0.000000 0.061093 0.876827
0.000000 0.421420 0.767597
0.000000 0.115964 0.859254
0.000000 0.588221 0.809708
0.000000 0.538803 0.920005
0.000000 0.459525 0.833055
0.000000 0.132382 0.666484
0.000000 0.082253 0.796597
0.000000 0.410639 0.947955
0.000000 0.449652 0.892613
0.000000 0.497901 0.995663
0.000000 0.345452 0.951437
0.000000 0.529983 0.836727
0.000000 0.257699 0.746457
0.000000 0.051888 0.804777
0.000000 0.153100 0.892758
0.000000 0.527099 0.749244
0.000000 0.451139 0.840241
0.000000 0.288469 0.711570
0.000000 0.113367 0.709004
0.000000 0.014306 0.864526
0.000000 0.246192 0.722292
0.000000 0.434501 0.807597
0.000000 0.388262 0.909162
0.000000 0.098207 0.978880
0.000000 0.311157 0.981722
0.000000 0.562571 0.918219
0.000000 0.126580 0.771640
0.000000 0.017577 0.755396
0.000000 0.174936 0.680842
0.000000 0.592800 0.844582
0.000000 0.073700 0.657355
0.000000 0.095147 0.907724
0.000000 0.030958 0.897072
0.000000 0.341015 0.753572
0.000000 0.464142 0.951532
0.000000 0.086855 0.997509
0.000000 0.413469 0.862732
0.000000 0.077441 0.769833
0.000000 0.100198 0.759131
0.000000 0.250429 0.771549
0.000000 0.177009 0.987271
0.000000 0.302794 0.691505
0.000000 0.132948 0.811390
0.000000 0.563941 0.858221
0.000000 0.359782 0.808087
0.000000 0.018913 0.851525
0.000000 0.068498 0.761223
0.000000 0.514980 0.989939
0.000000 0.303856 0.699603
0.000000 0.174862 0.955120
0.000000 0.248268 0.903545
0.000000 0.462310 0.907370
0.000000 0.076628 0.885105
0.000000 0.042472 0.789423
0.000000 0.481181 0.810910
0.000000 0.549022 0.825486
0.000000 0.015331 0.625376
0.000000 0.307818 0.810373
0.000000 0.352369 0.761003
