0.336420 1.000000 0.025383
0.886819 1.000000 0.029205
0.163905 1.000000 0.031927
0.536545 1.000000 0.023982
0.509407 1.000000 0.003116
0.156025 1.000000 0.018156
0.030359 1.000000 0.032304
0.738052 1.000000 0.027553
0.070945 1.000000 0.001517
0.767461 1.000000 0.002998
0.204361 1.000000 0.032237
0.626145 1.000000 0.028146
0.095587 1.000000 0.019501
0.769642 1.000000 0.023099
0.799250 1.000000 0.013842
0.395600 1.000000 0.038099
0.497446 1.000000 0.036267
0.939763 1.000000 0.012712
0.577354 1.000000 0.008425
0.951388 1.000000 0.033710
0.464588 1.000000 0.034568
0.603876 1.000000 0.005628
0.556204 1.000000 0.038426
0.064510 1.000000 0.007264
0.523874 1.000000 0.000041
0.014258 1.000000 0.016724
0.254336 1.000000 0.019402
0.085768 1.000000 0.004903
0.493645 1.000000 0.009525
0.483298 1.000000 0.001747
0.728286 1.000000 0.000899
0.372919 1.000000 0.019657
0.295158 1.000000 0.014029
0.288543 1.000000 0.008935
0.112066 1.000000 0.007800
0.233463 1.000000 0.038305
0.111928 1.000000 0.034815
0.772264 1.000000 0.025972
0.601652 1.000000 0.021694
0.365614 1.000000 0.031935
0.906639 1.000000 0.007270
0.064284 1.000000 0.024923
0.846316 1.000000 0.023733
0.504337 1.000000 0.026368
0.567978 1.000000 0.027591
0.318284 1.000000 0.005112
0.603311 1.000000 0.007812
0.905344 1.000000 0.005956
0.784196 1.000000 0.010536
0.359901 1.000000 0.028015
0.035279 1.000000 0.018745
0.274534 1.000000 0.011830
0.095363 1.000000 0.007491
0.914138 1.000000 0.038147
0.951219 1.000000 0.003006
0.040053 1.000000 0.018359
0.413782 1.000000 0.003141
0.515148 1.000000 0.009694
0.879938 1.000000 0.010944
0.392870 1.000000 0.005202
0.700186 1.000000 0.002448
0.172609 1.000000 0.009892
0.166497 1.000000 0.006236
0.164977 1.000000 0.019524
0.381727 1.000000 0.036215
0.955950 1.000000 0.038894
0.185641 1.000000 0.011244
0.922210 1.000000 0.011826
0.071702 1.000000 0.015300
0.840276 1.000000 0.036701
0.376948 1.000000 0.028478
0.301933 1.000000 0.019530
0.589466 1.000000 0.029307
0.487912 1.000000 0.012731
0.362929 1.000000 0.020014
0.786055 1.000000 0.004820
0.542197 1.000000 0.024014
0.628709 1.000000 0.033236
0.241120 1.000000 0.011029
0.759118 1.000000 0.010528
0.482283 1.000000 0.024639
0.373372 1.000000 0.034826
0.957557 1.000000 0.024331
0.790071 1.000000 0.000007
0.755621 1.000000 0.034357
0.056821 1.000000 0.023238
0.531292 1.000000 0.021978
0.519726 1.000000 0.030176
0.441587 1.000000 0.030578
0.150387 1.000000 0.014770
0.840807 1.000000 0.031724
0.669220 1.000000 0.012576
0.532385 1.000000 0.012248
0.859490 1.000000 0.024448
0.352196 1.000000 0.001234
0.536513 1.000000 0.026143
0.707745 1.000000 0.019265
0.940168 1.000000 0.032622
0.473442 1.000000 0.038516
0.102438 1.000000 0.032287
0.609641 1.000000 0.037351
0.917152 1.000000 0.010862
0.807363 1.000000 0.014145
0.310678 1.000000 0.022070
0.445524 1.000000 0.009062
0.427099 1.000000 0.024812
0.941656 1.000000 0.012258
0.179491 1.000000 0.001047
0.171173 1.000000 0.029501
0.546674 1.000000 0.005430
0.620112 1.000000 0.024609
0.375046 1.000000 0.011185
0.501429 1.000000 0.029624
0.913135 1.000000 0.034831
0.268035 1.000000 0.036075
0.745828 1.000000 0.006327
0.799417 1.000000 0.026713
0.553362 1.000000 0.031914
0.648907 1.000000 0.023344
0.182537 1.000000 0.002090
0.587367 1.000000 0.004346
0.920395 1.000000 0.029645
0.097270 1.000000 0.013179
0.948183 1.000000 0.035382
0.247966 1.000000 0.018826
0.128941 1.000000 0.014659
0.480999 1.000000 0.033906
0.161387 1.000000 0.027379
0.026120 1.000000 0.021553
0.031703 1.000000 0.011744
0.354982 1.000000 0.017386
0.439408 1.000000 0.020584
0.890525 1.000000 0.015624
0.198635 1.000000 0.029958
0.960900 1.000000 0.003164
0.722824 1.000000 0.022846
0.142470 1.000000 0.026039
0.421601 1.000000 0.003043
0.664029 1.000000 0.003565
0.235185 1.000000 0.017745
0.403981 1.000000 0.028979
0.968078 1.000000 0.003364
0.745035 1.000000 0.016010
0.303413 1.000000 0.014823
0.694555 1.000000 0.029904
0.080176 1.000000 0.017133
0.726219 1.000000 0.007023
0.699335 1.000000 0.009738
0.421001 1.000000 0.015934
0.722246 1.000000 0.035449
0.240945 1.000000 0.033260
0.910358 1.000000 0.028789
0.939329 1.000000 0.018795
0.355335 1.000000 0.006140
0.698254 1.000000 0.036492
0.022052 1.000000 0.008494
0.109421 1.000000 0.020353
0.727780 1.000000 0.009024
0.351715 1.000000 0.034123
0.824056 1.000000 0.033308
0.094853 1.000000 0.038142
0.117063 1.000000 0.005481
0.871183 1.000000 0.039033
0.892485 1.000000 0.032611
0.412416 1.000000 0.008239
0.114112 1.000000 0.007331
0.725441 1.000000 0.009781
0.855053 1.000000 0.034684
0.098478 1.000000 0.013813
0.501906 1.000000 0.036960
0.344722 1.000000 0.039613
0.868183 1.000000 0.038015
0.010634 1.000000 0.003388
0.681282 1.000000 0.031414
0.634468 1.000000 0.031672
0.408264 1.000000 0.026829
0.646550 1.000000 0.018870
0.079090 1.000000 0.011509
0.134465 1.000000 0.002755
0.784153 1.000000 0.034972
0.292975 1.000000 0.010547
0.847628 1.000000 0.006469
0.206852 1.000000 0.001618
0.117857 1.000000 0.014420
0.848046 1.000000 0.037472
0.064324 1.000000 0.018173
0.557660 1.000000 0.034757
0.476334 1.000000 0.032881
0.200113 1.000000 0.038958
0.582470 1.000000 0.026730
0.926449 1.000000 0.037544
0.577500 1.000000 0.001578
0.932671 1.000000 0.023485
0.498944 1.000000 0.036732
0.606945 1.000000 0.020787
0.685662 1.000000 0.034377
0.479944 1.000000 0.009688
0.711249 1.000000 0.038867
0.633129 1.000000 0.001121
0.983517 1.000000 0.001848
0.207095 1.000000 0.021757
0.455231 1.000000 0.033133
0.761047 1.000000 0.035810
0.481666 1.000000 0.000131
0.177390 1.000000 0.005924
0.189339 1.000000 0.020119
0.246853 1.000000 0.002998
0.382037 1.000000 0.003483
0.965438 1.000000 0.015103
0.175467 1.000000 0.008095
0.100311 1.000000 0.027027
0.044835 1.000000 0.027536
0.418034 1.000000 0.029207
0.858675 1.000000 0.029662
0.554586 1.000000 0.014026
0.563453 1.000000 0.026061
0.287964 1.000000 0.031326
0.425267 1.000000 0.025238
0.347408 1.000000 0.018505
0.711696 1.000000 0.011633
0.367577 1.000000 0.033398
0.418000 1.000000 0.023138
0.326043 1.000000 0.019723
0.827279 1.000000 0.006001
0.070463 1.000000 0.039902
0.391888 1.000000 0.009804
0.872808 1.000000 0.036587
0.824920 1.000000 0.004812
0.791111 1.000000 0.034129
0.188382 1.000000 0.018623
0.220722 1.000000 0.017669
0.697252 1.000000 0.005140
0.374593 1.000000 0.009029
0.806145 1.000000 0.018977
0.442197 1.000000 0.020049
0.682657 1.000000 0.024616
0.428551 1.000000 0.035588
0.723745 1.000000 0.036632
0.190214 1.000000 0.036199
0.385431 1.000000 0.036389
0.418776 1.000000 0.011400
0.562610 1.000000 0.037127
0.866318 1.000000 0.004324
0.457094 1.000000 0.010135
0.240270 1.000000 0.029917
0.681806 1.000000 0.002634
0.685603 1.000000 0.008231
0.647220 1.000000 0.032569
0.347700 1.000000 0.015767
0.885317 1.000000 0.038268
0.623430 1.000000 0.020707
0.582107 1.000000 0.013868
0.866025 1.000000 0.008100
0.764317 1.000000 0.017088
0.812300 1.000000 0.037359
0.277045 1.000000 0.026447
0.238840 1.000000 0.021780
0.014915 1.000000 0.032207
0.823830 1.000000 0.039313
0.759519 1.000000 0.002578
0.647252 1.000000 0.029065
0.642731 1.000000 0.023162
0.788189 1.000000 0.016121
0.206491 1.000000 0.018931
0.617212 1.000000 0.035320
0.172383 1.000000 0.003744
0.636375 1.000000 0.038977
0.874556 1.000000 0.016525
0.575668 1.000000 0.004828
0.141389 1.000000 0.015218
0.235672 1.000000 0.006885
0.278483 1.000000 0.018287
0.632970 1.000000 0.013652
0.331431 1.000000 0.014226
0.300972 1.000000 0.032766
0.920726 1.000000 0.030586
0.536450 1.000000 0.005122
0.029067 1.000000 0.024329
0.819363 1.000000 0.023754
0.161802 1.000000 0.005679
0.378263 1.000000 0.035745
0.013491 1.000000 0.016860
0.507431 1.000000 0.039780
0.443526 1.000000 0.012257
0.072954 1.000000 0.032827
0.883125 1.000000 0.002320
0.421591 1.000000 0.038347
0.336193 1.000000 0.025923
0.019047 1.000000 0.012433
0.711135 1.000000 0.013818
0.707489 1.000000 0.011066
0.898126 1.000000 0.038095
0.174709 1.000000 0.029831
0.217971 1.000000 0.005392
0.338759 1.000000 0.031067
0.494044 1.000000 0.022919
0.282705 1.000000 0.019743
0.178915 1.000000 0.021969
0.439678 1.000000 0.022852
0.374715 1.000000 0.015985
0.322350 1.000000 0.009243
0.235662 1.000000 0.034794
0.977027 1.000000 0.007657
0.417721 1.000000 0.006481
0.492771 1.000000 0.003189
0.573575 1.000000 0.001696
0.401152 1.000000 0.010529
0.100932 1.000000 0.008095
0.315775 1.000000 0.039462
0.790446 1.000000 0.015600
0.764808 1.000000 0.037841
0.230235 1.000000 0.034583
0.203035 1.000000 0.038158
0.147946 1.000000 0.019826
0.685379 1.000000 0.004007
0.549731 1.000000 0.029703
0.296805 1.000000 0.022144
0.970048 1.000000 0.013044
0.864215 1.000000 0.013733
0.139362 1.000000 0.004560
0.312305 1.000000 0.020148
0.934927 1.000000 0.024371
0.101234 1.000000 0.026145
0.035608 1.000000 0.006399
0.504391 1.000000 0.012202
0.300719 1.000000 0.010015
0.666699 1.000000 0.022000
0.849770 1.000000 0.014225
0.005488 1.000000 0.027955
0.586126 1.000000 0.010995
0.670753 1.000000 0.026371
0.706881 1.000000 0.010543
0.517261 1.000000 0.017458
0.158174 1.000000 0.035979
0.240316 1.000000 0.016412
0.877945 1.000000 0.014660
0.864929 1.000000 0.038076
0.895373 1.000000 0.039851
0.410882 1.000000 0.017124
0.189796 1.000000 0.021291
0.796320 1.000000 0.008115
0.793381 1.000000 0.008095
0.101687 1.000000 0.003509
0.969325 1.000000 0.027512
0.875549 1.000000 0.006928
0.021496 1.000000 0.005889
0.843732 1.000000 0.026843
0.941738 1.000000 0.017781
0.694897 1.000000 0.029089
0.416373 1.000000 0.009800
0.597294 1.000000 0.003892
0.860250 1.000000 0.025980
0.438905 1.000000 0.001165
0.396491 1.000000 0.014625
0.618311 1.000000 0.012593
0.708129 1.000000 0.018868
0.552793 1.000000 0.007209
0.451411 1.000000 0.038890
0.157393 1.000000 0.024134
0.966807 1.000000 0.030689
0.939800 1.000000 0.038886
0.659786 1.000000 0.006271
0.284383 1.000000 0.004471
0.063288 1.000000 0.015094
0.676524 1.000000 0.000119
0.000300 1.000000 0.021264
0.211554 1.000000 0.039446
0.232457 1.000000 0.038177
0.677757 1.000000 0.003421
0.157114 1.000000 0.025937
0.123253 1.000000 0.016880
0.189251 1.000000 0.039305
0.315186 1.000000 0.007471
0.556802 1.000000 0.013158
0.883051 1.000000 0.019063
0.524988 1.000000 0.031818
0.621006 1.000000 0.011661
0.343823 1.000000 0.013089
0.252374 1.000000 0.036568
0.916851 1.000000 0.016122
0.598990 1.000000 0.025344
0.384042 1.000000 0.034242
0.412278 1.000000 0.025035
0.700622 1.000000 0.032520
0.874239 1.000000 0.005549
0.311765 1.000000 0.033806
0.538407 1.000000 0.002816
0.267258 1.000000 0.036014
0.807555 1.000000 0.035585
0.048870 1.000000 0.018736
0.673087 1.000000 0.011687
0.398098 1.000000 0.028651
0.831464 1.000000 0.006091
0.288834 1.000000 0.011276
0.373299 1.000000 0.000130
0.574367 1.000000 0.009763
0.740654 1.000000 0.007889
0.808016 1.000000 0.034779
0.606149 1.000000 0.034049
0.920458 1.000000 0.028730
0.706320 1.000000 0.023601
0.951750 1.000000 0.007035
0.423218 1.000000 0.008225
0.136977 1.000000 0.004498
0.966186 1.000000 0.011519
0.125078 1.000000 0.029275
0.365678 1.000000 0.001972
0.122567 1.000000 0.021956
0.374234 1.000000 0.001915
0.501280 1.000000 0.031268
0.904770 1.000000 0.038061
0.790613 1.000000 0.016855
0.563454 1.000000 0.012582
0.994913 1.000000 0.003056
0.181181 1.000000 0.038721
0.040599 1.000000 0.018384
0.904576 1.000000 0.015208
0.350994 1.000000 0.001666
0.935674 1.000000 0.016884
0.760639 1.000000 0.031519
0.243676 1.000000 0.002457
0.355036 1.000000 0.004099
0.892192 1.000000 0.028955
0.847738 1.000000 0.002528
0.153289 1.000000 0.026038
0.189628 1.000000 0.016446
0.771714 1.000000 0.014022
0.377957 1.000000 0.006987
0.018521 1.000000 0.019982
0.684376 1.000000 0.011647
0.054399 1.000000 0.004374
0.777932 1.000000 0.004229
0.581609 1.000000 0.035908
0.595569 1.000000 0.036831
0.081997 1.000000 0.003683
0.722370 1.000000 0.000150
0.621529 1.000000 0.019633
0.497220 1.000000 0.001987
0.840410 1.000000 0.037459
0.644783 1.000000 0.030006
0.708650 1.000000 0.024847
0.588170 1.000000 0.031003
0.226723 1.000000 0.035486
0.214032 1.000000 0.033760
0.742656 1.000000 0.027980
0.708306 1.000000 0.018945
0.109656 1.000000 0.028292
0.227305 1.000000 0.029046
0.055791 1.000000 0.003289
0.857004 1.000000 0.018738
0.024944 1.000000 0.015017
0.884983 1.000000 0.038458
0.331510 1.000000 0.012494
0.218629 1.000000 0.005801
0.802314 1.000000 0.028192
0.967017 1.000000 0.031247
0.311745 1.000000 0.004385
0.541619 1.000000 0.007688
0.067432 1.000000 0.005046
0.640249 1.000000 0.039044
0.032701 1.000000 0.022539
0.023585 1.000000 0.036560
0.408321 1.000000 0.014718
0.162870 1.000000 0.003859
0.768561 1.000000 0.006701
0.146945 1.000000 0.036959
0.495310 1.000000 0.005066
0.888692 1.000000 0.013189
0.866296 1.000000 0.018095
0.120263 1.000000 0.020507
0.236632 1.000000 0.034932
0.660174 1.000000 0.033846
0.948559 1.000000 0.010636
0.284831 1.000000 0.020210
0.672368 1.000000 0.007807
0.331994 1.000000 0.015458
0.532352 1.000000 0.008334
0.239160 1.000000 0.026510
0.752191 1.000000 0.014692
0.375480 1.000000 0.036457
0.332278 1.000000 0.032897
0.660489 1.000000 0.019696
0.931927 1.000000 0.031618
0.399197 1.000000 0.031954
0.553141 1.000000 0.000111
0.276630 1.000000 0.017215
0.574265 1.000000 0.009460
0.698264 1.000000 0.000080
0.620595 1.000000 0.014878
0.384817 1.000000 0.026542
0.825660 1.000000 0.018810
0.789864 1.000000 0.013983
0.916718 1.000000 0.017956
0.960774 1.000000 0.014450
0.295300 1.000000 0.033504
0.043869 1.000000 0.019592
0.484332 1.000000 0.029271
0.620177 1.000000 0.002770
0.039540 1.000000 0.026529
0.845525 1.000000 0.024478
0.345957 1.000000 0.015569
0.643360 1.000000 0.023347
0.906848 1.000000 0.035162
0.477684 1.000000 0.015865
0.231356 1.000000 0.000419
0.793266 1.000000 0.005132
0.286076 1.000000 0.038680
0.443077 1.000000 0.002321
0.548008 1.000000 0.003481
0.687054 1.000000 0.019381
0.905758 1.000000 0.037379
0.810224 1.000000 0.020119
0.246674 1.000000 0.012178
0.457841 1.000000 0.023548
0.628165 1.000000 0.034007
0.512079 1.000000 0.002557
0.424193 1.000000 0.008160
0.170507 1.000000 0.007785
0.945427 1.000000 0.007638
0.612157 1.000000 0.011298
0.319751 1.000000 0.010961
0.191425 1.000000 0.038884
0.780420 1.000000 0.019724
0.928062 1.000000 0.038142
0.893260 1.000000 0.035958
0.216816 1.000000 0.026079
0.430636 1.000000 0.010359
0.667694 1.000000 0.019172
0.873832 1.000000 0.001979
0.247882 1.000000 0.036792
0.841529 1.000000 0.037410
0.295338 1.000000 0.025103
0.039536 1.000000 0.027105
0.759842 1.000000 0.004160
0.622762 1.000000 0.024569
0.008839 1.000000 0.035577
0.037394 1.000000 0.006660
0.658069 1.000000 0.000942
0.771543 1.000000 0.010955
0.820831 1.000000 0.022972
0.935776 1.000000 0.020587
0.505577 1.000000 0.008557
0.368833 1.000000 0.022621
0.357783 1.000000 0.024924
0.068167 1.000000 0.025144
0.836090 1.000000 0.016723
0.092604 1.000000 0.010000
0.557428 1.000000 0.038330
0.395429 1.000000 0.031301
0.411730 1.000000 0.001884
0.681208 1.000000 0.018835
0.016695 1.000000 0.040049
0.013168 1.000000 0.018278
0.518009 1.000000 0.002354
0.311977 1.000000 0.001898
0.677769 1.000000 0.012863
0.147776 1.000000 0.017138
0.148181 1.000000 0.032006
0.508379 1.000000 0.010852
0.772979 1.000000 0.034478
0.266422 1.000000 0.039236
0.103397 1.000000 0.018128
0.746069 1.000000 0.019627
0.437811 1.000000 0.010942
0.816427 1.000000 0.035375
0.442117 1.000000 0.009156
0.105879 1.000000 0.013830
0.771333 1.000000 0.016659
0.369822 1.000000 0.031594
0.887088 1.000000 0.038650
0.040414 1.000000 0.003914
0.067965 1.000000 0.038902
0.441873 1.000000 0.027241
0.378211 1.000000 0.034170
0.454995 1.000000 0.012156
0.019805 1.000000 0.017043
0.792946 1.000000 0.004213
0.463671 1.000000 0.033842
0.050078 1.000000 0.013955
0.765162 1.000000 0.005578
0.916854 1.000000 0.001818
0.741601 1.000000 0.000475
0.637820 1.000000 0.023510
0.100807 1.000000 0.006016
0.592506 1.000000 0.007472
0.569594 1.000000 0.035318
0.085676 1.000000 0.012052
0.036922 1.000000 0.029374
0.199697 1.000000 0.003659
0.876004 1.000000 0.029592
0.044825 1.000000 0.007865
0.976075 1.000000 0.003360
0.036259 1.000000 0.003628
0.580677 1.000000 0.003022
0.349609 1.000000 0.017115
0.159191 1.000000 0.017127
0.549472 1.000000 0.017376
0.017261 1.000000 0.006208
0.977929 1.000000 0.005550
0.865330 1.000000 0.029491
0.030203 1.000000 0.015323
0.951173 1.000000 0.011611
0.056874 1.000000 0.015079
0.883055 1.000000 0.024095
0.931550 1.000000 0.026083
0.551707 1.000000 0.000529
0.491051 1.000000 0.034510
0.623103 1.000000 0.033669
0.315713 1.000000 0.029925
0.213189 1.000000 0.031451
0.762584 1.000000 0.011859
0.172262 1.000000 0.015303
0.651669 1.000000 0.003331
0.316098 1.000000 0.029504
0.046129 1.000000 0.033904
0.951861 1.000000 0.006750
0.799343 1.000000 0.029847
0.419093 1.000000 0.008725
0.114881 1.000000 0.035244
0.390307 1.000000 0.036327
0.437130 1.000000 0.029978
0.303115 1.000000 0.014803
0.512093 1.000000 0.002498
0.075244 1.000000 0.030857
0.228427 1.000000 0.003129
0.198066 1.000000 0.034593
0.235960 1.000000 0.009332
0.702412 1.000000 0.005196
0.649079 1.000000 0.009398
0.078868 1.000000 0.005361
0.951242 1.000000 0.001401
0.652399 1.000000 0.017554
0.193289 1.000000 0.020797
0.603837 1.000000 0.008315
0.595137 1.000000 0.031123
0.821473 1.000000 0.026275
0.263226 1.000000 0.033897
0.381606 1.000000 0.036230
0.575545 1.000000 0.027930
0.926973 1.000000 0.003804
0.094031 1.000000 0.034915
0.651299 1.000000 0.001563
0.912254 1.000000 0.027117
0.238739 1.000000 0.020179
0.000414 1.000000 0.026666
0.546199 1.000000 0.009622
0.579402 1.000000 0.021598
0.934402 1.000000 0.015319
0.713455 1.000000 0.028047
0.425324 1.000000 0.034530
0.554978 1.000000 0.035481
0.837312 1.000000 0.012752
0.507552 1.000000 0.022792
0.319539 1.000000 0.008144
0.958165 1.000000 0.024066
0.294644 1.000000 0.018157
0.576367 1.000000 0.034276
0.070364 1.000000 0.036133
0.793873 1.000000 0.007330
0.900267 1.000000 0.022349
0.807754 1.000000 0.010021
0.468113 1.000000 0.028174
0.587512 1.000000 0.006992
0.584662 1.000000 0.024724
0.912746 1.000000 0.036005
0.260826 1.000000 0.005988
0.111085 1.000000 0.038833
0.485255 1.000000 0.010259
0.947797 1.000000 0.007447
0.269059 1.000000 0.011292
0.664588 1.000000 0.007864
0.224880 1.000000 0.025480
0.620710 1.000000 0.019873
0.687011 1.000000 0.039687
0.546398 1.000000 0.036062
0.882829 1.000000 0.035901
0.586203 1.000000 0.011576
0.304704 1.000000 0.013367
0.112537 1.000000 0.023038
0.384621 1.000000 0.004157
0.325882 1.000000 0.028709
0.210238 1.000000 0.008823
0.089196 1.000000 0.018062
0.085511 1.000000 0.000639
0.206465 1.000000 0.037154
0.371883 1.000000 0.017944
0.129206 1.000000 0.029577
0.434029 1.000000 0.028184
0.383719 1.000000 0.017265
0.577771 1.000000 0.007016
0.393622 1.000000 0.009929
0.133748 1.000000 0.021851
0.276950 1.000000 0.004132
0.819489 1.000000 0.035565
0.250259 1.000000 0.004428
0.177746 1.000000 0.005778
0.849741 1.000000 0.031266
0.290932 1.000000 0.004224
0.313086 1.000000 0.036529
0.688319 1.000000 0.022425
0.291973 1.000000 0.031712
0.879438 1.000000 0.010455
0.357740 1.000000 0.005948
0.795749 1.000000 0.009237
0.458582 1.000000 0.004304
0.749923 1.000000 0.035642
0.670943 1.000000 0.032753
0.093301 1.000000 0.011953
0.117582 1.000000 0.002219
0.770782 1.000000 0.023913
0.238916 1.000000 0.032044
0.806561 1.000000 0.002739
0.788797 1.000000 0.012599
0.414098 1.000000 0.006708
0.277518 1.000000 0.005752
0.795499 1.000000 0.015425
0.255902 1.000000 0.029032
0.564780 1.000000 0.032052
0.111757 1.000000 0.021249
0.712444 1.000000 0.029340
0.084541 1.000000 0.009960
0.952311 1.000000 0.030540
0.059785 1.000000 0.016840
0.112969 1.000000 0.008472
0.391625 1.000000 0.031571
0.197073 1.000000 0.025754
0.136940 1.000000 0.023541
0.805538 1.000000 0.011790
0.093351 1.000000 0.034008
0.505085 1.000000 0.032267
0.075171 1.000000 0.003553
0.911588 1.000000 0.031363
0.424756 1.000000 0.021622
0.435002 1.000000 0.036808
0.306316 1.000000 0.021544
0.109953 1.000000 0.038710
0.152788 1.000000 0.022631
0.862833 1.000000 0.013919
0.884016 1.000000 0.033693
0.912639 1.000000 0.005216
0.528786 1.000000 0.019171
0.028632 1.000000 0.028823
0.236363 1.000000 0.003347
0.850560 1.000000 0.012438
0.785152 1.000000 0.000176
0.585169 1.000000 0.026711
0.626162 1.000000 0.034486
0.783067 1.000000 0.027921
0.161447 1.000000 0.024195
0.401570 1.000000 0.006881
0.649160 1.000000 0.008781
0.299178 1.000000 0.019985
0.375297 1.000000 0.003749
0.176796 1.000000 0.001236
0.738332 1.000000 0.001953
0.817193 1.000000 0.018300
0.247417 1.000000 0.025882
0.014929 1.000000 0.008096
0.140883 1.000000 0.020073
0.368429 1.000000 0.019825
0.299148 1.000000 0.013927
0.001468 1.000000 0.039666
0.145781 1.000000 0.032616
0.089484 1.000000 0.012518
0.579755 1.000000 0.020933
0.423468 1.000000 0.014266
0.012067 1.000000 0.019257
0.960892 1.000000 0.011169
0.057225 1.000000 0.015243
0.291960 1.000000 0.008048
0.405753 1.000000 0.022702
0.202346 1.000000 0.038711
0.625900 1.000000 0.004700
0.500234 1.000000 0.002494
0.511663 1.000000 0.028044
0.986936 1.000000 0.011424
0.865897 1.000000 0.028358
0.753599 1.000000 0.027343
0.930139 1.000000 0.014926
0.003664 1.000000 0.036845
0.070798 1.000000 0.029341
0.900892 1.000000 0.023154
0.413646 1.000000 0.021504
0.675360 1.000000 0.021549
0.620504 1.000000 0.012996
0.907090 1.000000 0.028497
0.920392 1.000000 0.003837
0.663359 1.000000 0.026677
0.651129 1.000000 0.006742
0.625376 1.000000 0.036319
0.546545 1.000000 0.036217
0.685726 1.000000 0.000890
0.201154 1.000000 0.032917
0.459882 1.000000 0.033577
0.271990 1.000000 0.025245
0.884161 1.000000 0.038776
0.097402 1.000000 0.014031
0.773796 1.000000 0.021020
0.749230 1.000000 0.014473
0.264111 1.000000 0.023219
0.221180 1.000000 0.021846
0.389416 1.000000 0.011502
0.610747 1.000000 0.007738
0.610598 1.000000 0.003736
0.986326 1.000000 0.003915
0.727107 1.000000 0.006312
0.420627 1.000000 0.007150
0.284952 1.000000 0.024954
0.672347 1.000000 0.037654
0.123415 1.000000 0.010402
0.244347 1.000000 0.005456
0.383823 1.000000 0.029364
0.871592 1.000000 0.037884
0.700269 1.000000 0.030721
0.412288 1.000000 0.007742
0.650153 1.000000 0.027499
0.879851 1.000000 0.004163
0.314550 1.000000 0.015969
0.305809 1.000000 0.018814
0.953408 1.000000 0.006115
0.296110 1.000000 0.030393
0.947618 1.000000 0.011638
0.019819 1.000000 0.008414
0.629722 1.000000 0.013601
0.018596 1.000000 0.005537
0.605443 1.000000 0.032842
0.382401 1.000000 0.018981
0.255570 1.000000 0.003877
0.310635 1.000000 0.020892
0.341439 1.000000 0.003102
0.208479 1.000000 0.022664
0.738294 1.000000 0.001539
0.353074 1.000000 0.021492
0.971919 1.000000 0.014924
0.807280 1.000000 0.007413
0.833563 1.000000 0.021437
0.300479 1.000000 0.032121
0.036655 1.000000 0.011407
0.235081 1.000000 0.004414
0.597644 1.000000 0.029592
0.229455 1.000000 0.016991
0.310437 1.000000 0.038789
0.947120 1.000000 0.030365
0.567027 1.000000 0.026812
0.576352 1.000000 0.031509
0.854963 1.000000 0.000624
0.712043 1.000000 0.039332
0.405343 1.000000 0.009046
0.423140 1.000000 0.020491
0.719665 1.000000 0.036407
0.483445 1.000000 0.017974
0.610574 1.000000 0.003134
0.835348 1.000000 0.033743
0.446576 1.000000 0.004177
0.687857 1.000000 0.037557
0.058471 1.000000 0.008441
0.443353 1.000000 0.020921
0.400101 1.000000 0.026417
0.583843 1.000000 0.016252
0.829735 1.000000 0.018782
0.600588 1.000000 0.013912
0.985472 1.000000 0.009695
0.245204 1.000000 0.022981
0.503490 1.000000 0.010944
0.518245 1.000000 0.015163
0.833364 1.000000 0.015271
0.053626 1.000000 0.021656
0.309359 1.000000 0.031977
0.528860 1.000000 0.034044
0.958219 1.000000 0.010272
0.138377 1.000000 0.031793
0.937110 1.000000 0.015982
0.379094 1.000000 0.020090
0.984020 1.000000 0.012583
0.736488 1.000000 0.029362
0.473337 1.000000 0.026051
0.387654 1.000000 0.004468
0.622017 1.000000 0.023306
0.088841 1.000000 0.003245
0.636705 1.000000 0.037521
0.041245 1.000000 0.033415
0.428959 1.000000 0.028821
0.673213 1.000000 0.026455
0.030252 1.000000 0.016317
0.839788 1.000000 0.009823
0.901728 1.000000 0.008386
0.924607 1.000000 0.010300
0.580285 1.000000 0.037697
0.134320 1.000000 0.015811
0.063180 1.000000 0.012082
0.812826 1.000000 0.032579
0.682357 1.000000 0.012834
0.844167 1.000000 0.028377
0.161860 1.000000 0.029404
0.730158 1.000000 0.037159
0.284585 1.000000 0.029593
0.571111 1.000000 0.004518
0.770452 1.000000 0.018393
0.149610 1.000000 0.018709
0.063511 1.000000 0.024441
0.779833 1.000000 0.032458
0.418249 1.000000 0.029513
0.814104 1.000000 0.038485
0.719959 1.000000 0.021186
0.682296 1.000000 0.002208
0.783303 1.000000 0.016625
0.818936 1.000000 0.027145
0.839036 1.000000 0.003994
0.612605 1.000000 0.016056
0.595330 1.000000 0.006252
0.622903 1.000000 0.001574
0.738679 1.000000 0.016611
0.888695 1.000000 0.011812
0.794630 1.000000 0.017347
0.344024 1.000000 0.024402
0.428829 1.000000 0.003230
0.915258 1.000000 0.039803
0.211537 1.000000 0.030758
0.875631 1.000000 0.016370
0.252739 1.000000 0.026077
0.771195 1.000000 0.009008
0.525089 1.000000 0.031729
0.657736 1.000000 0.002448
0.754234 1.000000 0.034709
0.947128 1.000000 0.028860
0.702548 1.000000 0.032499
0.392041 1.000000 0.000667
0.967786 1.000000 0.024071
0.329886 1.000000 0.033987
0.601421 1.000000 0.029234
0.608944 1.000000 0.020372
0.052521 1.000000 0.006562
0.049715 1.000000 0.011754
0.666057 1.000000 0.034276
0.292539 1.000000 0.019414
0.630411 1.000000 0.031497
0.663990 1.000000 0.037739
0.803338 1.000000 0.017648
0.610365 1.000000 0.037315
0.353460 1.000000 0.025427
0.107369 1.000000 0.031795
0.319888 1.000000 0.000702
0.944362 1.000000 0.025384
0.749960 1.000000 0.025045
0.066907 1.000000 0.031640
0.552637 1.000000 0.021040
0.746008 1.000000 0.011700
0.464260 1.000000 0.016616
0.749482 1.000000 0.031750
0.254153 1.000000 0.028156
0.242863 1.000000 0.018511
0.365857 1.000000 0.029069
0.314771 1.000000 0.038466
0.967271 1.000000 0.028072
0.961022 1.000000 0.038559
0.920855 1.000000 0.026946
0.433160 1.000000 0.006768
0.952233 1.000000 0.000907
0.123698 1.000000 0.010558
0.679251 1.000000 0.008642
0.254893 1.000000 0.011297
0.882870 1.000000 0.028715
0.304626 1.000000 0.034866
0.734128 1.000000 0.015356
0.621365 1.000000 0.010561
0.471132 1.000000 0.032380
0.893179 1.000000 0.037777
0.801157 1.000000 0.030106
0.870490 1.000000 0.025129
0.861515 1.000000 0.003414
0.886057 1.000000 0.019952
0.067247 1.000000 0.031748
0.086454 1.000000 0.010472
0.612464 1.000000 0.039777
0.282285 1.000000 0.035681
0.722077 1.000000 0.009538
0.830275 1.000000 0.026183
0.651653 1.000000 0.020027
0.539804 1.000000 0.032568
0.120425 1.000000 0.033836
0.260960 1.000000 0.006870
0.636256 1.000000 0.017737
0.351092 1.000000 0.003530
0.548760 1.000000 0.029620
0.488357 1.000000 0.018261
0.835656 1.000000 0.032102
0.097514 1.000000 0.030228
0.798697 1.000000 0.025400
0.731849 1.000000 0.006469
0.674557 1.000000 0.016304
0.283373 1.000000 0.001366
0.618025 1.000000 0.014585
0.708675 1.000000 0.031129
0.427486 1.000000 0.013707
0.394420 1.000000 0.026609
0.866311 1.000000 0.028112
0.728445 1.000000 0.018228
0.641002 1.000000 0.016736
0.747373 1.000000 0.014820
0.281547 1.000000 0.012536
0.642865 1.000000 0.015497
0.368558 1.000000 0.032522
0.754553 1.000000 0.011365
0.176370 1.000000 0.013374
0.746259 1.000000 0.028449
0.649835 1.000000 0.031609
0.618459 1.000000 0.014833
0.364527 1.000000 0.013380
0.064974 1.000000 0.020656
0.058863 1.000000 0.000730
0.655571 1.000000 0.003634
0.236621 1.000000 0.023943
0.148182 1.000000 0.034880
0.955482 1.000000 0.001262
0.264606 1.000000 0.024397
0.287836 1.000000 0.004223
0.230569 1.000000 0.024055
0.539014 1.000000 0.018406
0.239581 1.000000 0.012403
0.628227 1.000000 0.025995
0.746277 1.000000 0.011181
0.721067 1.000000 0.035577
0.279562 1.000000 0.009638
0.687668 1.000000 0.013350
0.727686 1.000000 0.008199
0.235997 1.000000 0.033114
0.761872 1.000000 0.010444
0.152682 1.000000 0.035439
0.894844 1.000000 0.024551
0.586447 1.000000 0.035321
0.454904 1.000000 0.023220
0.206468 1.000000 0.020311
0.471145 1.000000 0.003819
0.672474 1.000000 0.016633
0.907489 1.000000 0.003868
0.402194 1.000000 0.027421
0.987983 1.000000 0.000916
0.649618 1.000000 0.021214
0.313461 1.000000 0.001895
0.164006 1.000000 0.008456
0.845311 1.000000 0.029422
0.468510 1.000000 0.023566
0.679445 1.000000 0.035951
0.288990 1.000000 0.029668
0.893235 1.000000 0.036319
0.583350 1.000000 0.013067
0.519731 1.000000 0.010544
0.253380 1.000000 0.036462
0.137966 1.000000 0.019672
0.362890 1.000000 0.014972
0.075880 1.000000 0.032728
0.841112 1.000000 0.033547
0.856678 1.000000 0.017763
0.483662 1.000000 0.015854
0.018398 1.000000 0.013611
0.733983 1.000000 0.030642
0.192568 1.000000 0.001632
0.510638 1.000000 0.003043
0.657348 1.000000 0.027435
0.711216 1.000000 0.035196
0.460403 1.000000 0.014792
0.408896 1.000000 0.024913
0.378149 1.000000 0.037411
0.559030 1.000000 0.024930
0.172722 1.000000 0.033216
0.934570 1.000000 0.001115
0.184733 1.000000 0.002558
0.855198 1.000000 0.000289
0.027643 1.000000 0.026259
0.231959 1.000000 0.034278
0.028682 1.000000 0.016176
0.683715 1.000000 0.005874
0.682067 1.000000 0.037255
0.054205 1.000000 0.001025
0.789838 1.000000 0.016135
0.455491 1.000000 0.002459
0.439114 1.000000 0.028987
0.737184 1.000000 0.009016
0.222709 1.000000 0.026375
0.443534 1.000000 0.017142
0.692677 1.000000 0.027157
0.902230 1.000000 0.015558
0.954320 1.000000 0.011159
0.275975 1.000000 0.026734
0.343326 1.000000 0.031536
0.277568 1.000000 0.002399
0.919968 1.000000 0.031888
0.010814 1.000000 0.003524
0.894787 1.000000 0.037619
0.686007 1.000000 0.018709
0.479958 1.000000 0.010425
0.716560 1.000000 0.017381
0.541485 1.000000 0.020342
0.322359 1.000000 0.037928
0.687925 1.000000 0.036331
0.829747 1.000000 0.019045
0.311154 1.000000 0.006800
0.348234 1.000000 0.019670
0.167951 1.000000 0.027124
0.828696 1.000000 0.034107
0.941422 1.000000 0.003305
0.028567 1.000000 0.018853
0.843386 1.000000 0.013773
0.055348 1.000000 0.018614
0.438948 1.000000 0.029853
0.666690 1.000000 0.029585
0.823213 1.000000 0.025956
0.347248 1.000000 0.031749
0.004005 1.000000 0.031471
0.085823 1.000000 0.013374
0.516378 1.000000 0.002343
0.209008 1.000000 0.019363
0.053644 1.000000 0.006948
0.932114 1.000000 0.024313
0.268777 1.000000 0.020140
0.484753 1.000000 0.038739
0.689844 1.000000 0.001399
0.735530 1.000000 0.036603
0.536875 1.000000 0.008801
0.761106 1.000000 0.034995
0.515451 1.000000 0.002512
0.917444 1.000000 0.030732
0.902183 1.000000 0.024390
0.014307 1.000000 0.024487
0.939032 1.000000 0.006823
0.391881 1.000000 0.028182
0.405028 1.000000 0.029120
0.444476 1.000000 0.000875
0.602697 1.000000 0.019232
0.520112 1.000000 0.019599
0.485502 1.000000 0.008871
0.255202 1.000000 0.037960
0.270396 1.000000 0.012230
0.392638 1.000000 0.012123
0.375946 1.000000 0.019182
0.638937 1.000000 0.033478
0.783770 1.000000 0.011515
0.278889 1.000000 0.026011
0.458975 1.000000 0.004457
0.938421 1.000000 0.037594
0.864027 1.000000 0.016438
0.835205 1.000000 0.007009
0.085155 1.000000 0.026524
0.676603 1.000000 0.021388
0.848826 1.000000 0.007589
0.907585 1.000000 0.002088
0.325442 1.000000 0.040044
0.754098 1.000000 0.038406
0.078097 1.000000 0.033377
0.692786 1.000000 0.036491
0.873442 1.000000 0.006864
0.035839 1.000000 0.023322
0.437089 1.000000 0.003152
0.841671 1.000000 0.015123
0.913277 1.000000 0.023248
0.879314 1.000000 0.001336
0.291550 1.000000 0.029158
0.319700 1.000000 0.010550
0.168286 1.000000 0.009655
0.748172 1.000000 0.010552
0.793821 1.000000 0.014135
0.489571 1.000000 0.039003
0.391378 1.000000 0.006504
0.410169 1.000000 0.014319
0.812818 1.000000 0.016580
0.205384 1.000000 0.028357
0.027105 1.000000 0.016451
0.216632 1.000000 0.027760
0.118955 1.000000 0.003421
0.195335 1.000000 0.006176
0.647584 1.000000 0.039102
0.324677 1.000000 0.022212
0.780101 1.000000 0.013405
0.593840 1.000000 0.002059
0.486496 1.000000 0.035820
0.588129 1.000000 0.028754
0.268717 1.000000 0.018777
0.898041 1.000000 0.024649
0.260135 1.000000 0.008403
0.635323 1.000000 0.013047
0.720723 1.000000 0.035260
0.498199 1.000000 0.005792
0.072025 1.000000 0.017516
0.814016 1.000000 0.014674
0.362919 1.000000 0.028720
0.098001 1.000000 0.035423
0.981121 1.000000 0.016408
0.666478 1.000000 0.012095
0.715795 1.000000 0.038256
0.232265 1.000000 0.035393
0.104824 1.000000 0.018965
0.204699 1.000000 0.022605
0.796350 1.000000 0.022093
0.869175 1.000000 0.037361
0.512942 1.000000 0.003746
0.703966 1.000000 0.012725
0.521313 1.000000 0.037041
0.236971 1.000000 0.023356
0.220770 1.000000 0.009483
0.335649 1.000000 0.023652
0.026601 1.000000 0.016951
0.820513 1.000000 0.033611
0.758607 1.000000 0.008977
0.917003 1.000000 0.002762
0.129026 1.000000 0.014667
0.507634 1.000000 0.024880
0.983009 1.000000 0.008143
0.494334 1.000000 0.022572
0.903280 1.000000 0.020889
0.590669 1.000000 0.021860
0.929060 1.000000 0.036488
0.842052 1.000000 0.000433
0.981291 1.000000 0.004473
0.847662 1.000000 0.002002
0.329529 1.000000 0.001751
0.124716 1.000000 0.020142
0.197292 1.000000 0.033626
0.366999 1.000000 0.036406
0.281515 1.000000 0.014362
0.430672 1.000000 0.037953
0.423448 1.000000 0.036641
0.217548 1.000000 0.016282
0.085315 1.000000 0.018674
0.896909 1.000000 0.008366
0.705256 1.000000 0.005835
0.321471 1.000000 0.035253
0.532714 1.000000 0.017925
0.913076 1.000000 0.028534
0.092622 1.000000 0.005370
0.803054 1.000000 0.014616
0.479140 1.000000 0.026567
0.155442 1.000000 0.016248
0.558715 1.000000 0.006452
0.286517 1.000000 0.031967
0.751420 1.000000 0.023977
0.109401 1.000000 0.023278
0.935852 1.000000 0.005104
0.545201 1.000000 0.015697
0.429734 1.000000 0.000758
0.810573 1.000000 0.036685
0.344772 1.000000 0.028850
0.974175 1.000000 0.000646
0.372053 1.000000 0.038113
0.408738 1.000000 0.009074
0.048619 1.000000 0.035099
0.064882 1.000000 0.001966
0.108105 1.000000 0.037760
0.322877 1.000000 0.032753
0.482619 1.000000 0.031614
0.065764 1.000000 0.036756
0.772315 1.000000 0.023182
0.522929 1.000000 0.030461
0.537621 1.000000 0.037495
0.112002 1.000000 0.031034
0.248325 1.000000 0.024502
0.500678 1.000000 0.017388
0.866584 1.000000 0.013209
0.040317 1.000000 0.016597
0.350043 1.000000 0.021109
0.324900 1.000000 0.012760
0.491346 1.000000 0.033167
0.353103 1.000000 0.010445
0.176282 1.000000 0.005979
0.819794 1.000000 0.000807
0.247596 1.000000 0.020887
0.239681 1.000000 0.031349
0.060218 1.000000 0.001625
0.090801 1.000000 0.028123
0.654637 1.000000 0.009501
0.406122 1.000000 0.039817
0.283793 1.000000 0.017721
0.807410 1.000000 0.022163
0.013291 1.000000 0.008794
0.307754 1.000000 0.011965
0.827008 1.000000 0.032838
0.920327 1.000000 0.029258
0.908215 1.000000 0.009337
0.743602 1.000000 0.011023
0.660948 1.000000 0.039954
0.273648 1.000000 0.015215
0.826087 1.000000 0.017222
0.190579 1.000000 0.032237
0.897229 1.000000 0.037708
0.013161 1.000000 0.040018
0.211900 1.000000 0.026716
0.243390 1.000000 0.018970
0.405245 1.000000 0.033959
0.635230 1.000000 0.038815
0.373289 1.000000 0.030864
0.131301 1.000000 0.030708
0.775058 1.000000 0.027283
0.381295 1.000000 0.026902
0.459218 1.000000 0.023479
0.830923 1.000000 0.010481
0.329328 1.000000 0.023932
0.966050 1.000000 0.013133
0.528260 1.000000 0.001114
0.023990 1.000000 0.027756
0.389160 1.000000 0.009025
0.600809 1.000000 0.021153
0.563302 1.000000 0.001812
0.132699 1.000000 0.027886
0.976539 1.000000 0.018018
0.337009 1.000000 0.023663
0.789242 1.000000 0.002895
0.294160 1.000000 0.017935
0.524917 1.000000 0.011922
0.326731 1.000000 0.021392
0.684717 1.000000 0.011037
0.638157 1.000000 0.039629
0.899859 1.000000 0.039757
0.336526 1.000000 0.007234
0.377854 1.000000 0.027928
0.269641 1.000000 0.038662
0.773468 1.000000 0.003293
0.830068 1.000000 0.030251
0.522575 1.000000 0.003968
0.863431 1.000000 0.002208
0.307539 1.000000 0.035610
0.540250 1.000000 0.004981
0.352505 1.000000 0.034989
0.409403 1.000000 0.036051
0.628386 1.000000 0.039778
0.027299 1.000000 0.010606
0.015155 1.000000 0.037769
0.428869 1.000000 0.021111
0.849205 1.000000 0.016134
0.454864 1.000000 0.018410
0.437821 1.000000 0.039974
0.070906 1.000000 0.029199
0.299051 1.000000 0.006944
0.642314 1.000000 0.025037
0.212539 1.000000 0.039639
0.931731 1.000000 0.002124
0.663854 1.000000 0.039154
0.640217 1.000000 0.013428
0.850559 1.000000 0.006887
0.708421 1.000000 0.031551
0.323474 1.000000 0.034966
0.577123 1.000000 0.026411
0.440877 1.000000 0.005241
0.622412 1.000000 0.002353
0.030321 1.000000 0.023749
0.861138 1.000000 0.000679
0.579828 1.000000 0.021922
0.687257 1.000000 0.001512
0.500787 1.000000 0.028940
0.992163 1.000000 0.006866
0.680629 1.000000 0.005457
0.193188 1.000000 0.021762
0.621519 1.000000 0.017253
0.795092 1.000000 0.015973
0.212588 1.000000 0.001305
0.005620 1.000000 0.007421
0.773541 1.000000 0.017934
0.879526 1.000000 0.015212
0.573248 1.000000 0.029918
0.672795 1.000000 0.032934
0.910747 1.000000 0.039747
0.661962 1.000000 0.005674
0.016961 1.000000 0.004780
0.198857 1.000000 0.008060
0.237579 1.000000 0.034736
0.405408 1.000000 0.018642
0.909518 1.000000 0.030080
0.323111 1.000000 0.027103
0.135456 1.000000 0.036824
0.136129 1.000000 0.025084
0.662188 1.000000 0.000096
0.787259 1.000000 0.036254
0.367978 1.000000 0.005294
0.463842 1.000000 0.009530
0.394753 1.000000 0.026321
0.142425 1.000000 0.018365
0.579147 1.000000 0.026385
0.745598 1.000000 0.020960
0.554864 1.000000 0.020757
0.042669 1.000000 0.037367
0.776263 1.000000 0.009812
0.340587 1.000000 0.012715
0.542966 1.000000 0.037492
0.869909 1.000000 0.004452
0.923174 1.000000 0.029527
0.564425 1.000000 0.002058
0.682692 1.000000 0.015556
0.465304 1.000000 0.017499
0.733101 1.000000 0.029462
0.160130 1.000000 0.028246
0.629392 1.000000 0.036534
0.724238 1.000000 0.033329
0.865653 1.000000 0.029853
0.947366 1.000000 0.036189
0.318740 1.000000 0.023011
0.929976 1.000000 0.016039
0.802216 1.000000 0.030194
0.303758 1.000000 0.000375
0.792120 1.000000 0.011827
0.192830 1.000000 0.037755
0.045750 1.000000 0.006310
0.180392 1.000000 0.019237
0.405938 1.000000 0.014351
0.161404 1.000000 0.032694
0.469234 1.000000 0.013624
0.312793 1.000000 0.011268
0.896863 1.000000 0.030070
0.139678 1.000000 0.025137
0.965139 1.000000 0.020157
0.000073 1.000000 0.015821
0.462714 1.000000 0.012582
0.218247 1.000000 0.030946
0.045330 1.000000 0.000257
0.653154 1.000000 0.010593
0.555588 1.000000 0.029116
0.535587 1.000000 0.027171
0.458188 1.000000 0.019077
0.804759 1.000000 0.004791
0.846944 1.000000 0.003123
0.702034 1.000000 0.013177
0.131750 1.000000 0.019029
0.347904 1.000000 0.011400
0.816358 1.000000 0.027740
0.755076 1.000000 0.023991
0.604447 1.000000 0.012653
0.076737 1.000000 0.026836
0.472986 1.000000 0.022455
0.722897 1.000000 0.004469
0.114270 1.000000 0.022127
0.613437 1.000000 0.011215
0.804686 1.000000 0.032425
0.108370 1.000000 0.023372
0.698809 1.000000 0.015485
0.451406 1.000000 0.022776
0.948767 1.000000 0.013848
0.188719 1.000000 0.002132
0.578203 1.000000 0.015469
0.768608 1.000000 0.030862
0.130367 1.000000 0.002117
0.686589 1.000000 0.004965
0.601081 1.000000 0.023582
0.228333 1.000000 0.014496
0.242720 1.000000 0.026519
0.489841 1.000000 0.007627
0.755435 1.000000 0.020709
0.387725 1.000000 0.004823
0.859377 1.000000 0.021821
0.963628 1.000000 0.006511
0.936363 1.000000 0.031582
0.693970 1.000000 0.016203
0.401745 1.000000 0.037421
0.971845 1.000000 0.005308
0.589068 1.000000 0.014960
0.097982 1.000000 0.028854
0.065636 1.000000 0.030954
0.288413 1.000000 0.031694
0.566121 1.000000 0.011300
0.644702 1.000000 0.012156
0.072613 1.000000 0.014303
0.034763 1.000000 0.023354
0.934979 1.000000 0.014853
0.043493 1.000000 0.019663
0.493006 1.000000 0.016145
0.901247 1.000000 0.026138
0.631603 1.000000 0.026491
0.781586 1.000000 0.004650
0.582808 1.000000 0.001114
0.812204 1.000000 0.035835
0.579304 1.000000 0.038379
0.041916 1.000000 0.038117
0.497785 1.000000 0.031793
0.404091 1.000000 0.037259
0.498674 1.000000 0.003420
0.672887 1.000000 0.028510
0.506465 1.000000 0.021548
0.568045 1.000000 0.028279
0.569758 1.000000 0.010721
0.598673 1.000000 0.013748
0.828306 1.000000 0.036985
0.825599 1.000000 0.013669
0.567553 1.000000 0.024118
0.240121 1.000000 0.030988
0.505430 1.000000 0.009785
0.666582 1.000000 0.009924
0.701480 1.000000 0.008383
0.584084 1.000000 0.027692
0.070585 1.000000 0.023209
0.939869 1.000000 0.018915
0.219958 1.000000 0.029169
0.758047 1.000000 0.013709
0.834397 1.000000 0.003331
0.032668 1.000000 0.010833
0.318391 1.000000 0.030318
0.109629 1.000000 0.003728
0.929521 1.000000 0.025183
0.464501 1.000000 0.037841
0.841159 1.000000 0.015442
0.063583 1.000000 0.033584
0.826137 1.000000 0.014174
0.870513 1.000000 0.014024
0.924876 1.000000 0.006066
0.115219 1.000000 0.038831
0.189853 1.000000 0.017540
0.138441 1.000000 0.014641
0.546253 1.000000 0.004726
0.863920 1.000000 0.020737
0.490820 1.000000 0.036334
0.701823 1.000000 0.005022
0.351435 1.000000 0.029104
0.449882 1.000000 0.015064
0.682202 1.000000 0.027659
0.234965 1.000000 0.003458
0.503083 1.000000 0.014214
0.145437 1.000000 0.029672
0.659655 1.000000 0.013615
0.024229 1.000000 0.012540
0.955489 1.000000 0.037574
0.541029 1.000000 0.003349
0.595538 1.000000 0.004550
0.514056 1.000000 0.013545
0.755088 1.000000 0.037923
0.809393 1.000000 0.038044
0.153385 1.000000 0.017700
0.130393 1.000000 0.023544
0.004929 1.000000 0.036674
0.449878 1.000000 0.035026
0.038508 1.000000 0.019929
0.620255 1.000000 0.004062
0.206945 1.000000 0.000966
0.763391 1.000000 0.018737
0.818576 1.000000 0.039270
0.854391 1.000000 0.011943
0.606660 1.000000 0.006192
0.692767 1.000000 0.039367
0.079643 1.000000 0.022756
0.335152 1.000000 0.034198
0.397340 1.000000 0.010298
0.967021 1.000000 0.001627
0.793934 1.000000 0.038396
0.778059 1.000000 0.039018
0.726447 1.000000 0.000389
0.472678 1.000000 0.013866
0.182579 1.000000 0.030178
0.436639 1.000000 0.028799
0.865939 1.000000 0.004912
0.535317 1.000000 0.001000
0.006978 1.000000 0.027742
0.653246 1.000000 0.036003
0.689520 1.000000 0.026788
0.127771 1.000000 0.036282
0.606483 1.000000 0.039881
0.689655 1.000000 0.025352
0.424418 1.000000 0.003321
0.292279 1.000000 0.017847
0.137062 1.000000 0.028399
0.253736 1.000000 0.021292
0.618895 1.000000 0.037617
0.067766 1.000000 0.021183
0.382864 1.000000 0.029788
0.132940 1.000000 0.016800
0.900429 1.000000 0.014788
0.498608 1.000000 0.035482
0.346649 1.000000 0.029015
0.154794 1.000000 0.021652
0.194289 1.000000 0.036577
0.506883 1.000000 0.019258
0.926480 1.000000 0.019840
0.055749 1.000000 0.018450
0.415840 1.000000 0.019659
0.094985 1.000000 0.009387
0.271882 1.000000 0.003745
0.373342 1.000000 0.016691
0.598385 1.000000 0.035973
0.407556 1.000000 0.027389
0.070272 1.000000 0.028986
0.627283 1.000000 0.009887
0.774603 1.000000 0.023791
0.684080 1.000000 0.018034
0.641152 1.000000 0.024902
0.879412 1.000000 0.022348
0.351219 1.000000 0.031881
0.595728 1.000000 0.026181
0.698509 1.000000 0.005875
0.029629 1.000000 0.023229
0.579841 1.000000 0.017761
0.011086 1.000000 0.026993
0.943577 1.000000 0.008116
0.211663 1.000000 0.018968
0.333101 1.000000 0.019156
0.768435 1.000000 0.039961
0.441672 1.000000 0.003979
0.095102 1.000000 0.034613
0.838401 1.000000 0.028020
0.849734 1.000000 0.004507
0.773568 1.000000 0.024202
0.672642 1.000000 0.027548
0.870966 1.000000 0.019524
0.156341 1.000000 0.004881
0.526229 1.000000 0.025631
0.737577 1.000000 0.009935
0.854136 1.000000 0.034552
0.028158 1.000000 0.035435
0.937443 1.000000 0.019036
0.315079 1.000000 0.029920
0.265634 1.000000 0.018794
0.211138 1.000000 0.038130
0.915604 1.000000 0.018033
0.729221 1.000000 0.012612
0.073501 1.000000 0.015058
0.820207 1.000000 0.028935
0.414327 1.000000 0.021077
0.094350 1.000000 0.027261
0.104487 1.000000 0.030065
0.543969 1.000000 0.022114
0.474388 1.000000 0.008215
0.976424 1.000000 0.021264
0.103236 1.000000 0.026038
0.995348 1.000000 0.003510
0.838724 1.000000 0.031934
0.710403 1.000000 0.012899
0.190153 1.000000 0.000886
0.355777 1.000000 0.039266
0.637003 1.000000 0.039120
0.797106 1.000000 0.018255
0.443300 1.000000 0.022214
0.039190 1.000000 0.014870
0.220057 1.000000 0.022721
0.892652 1.000000 0.036736
0.612451 1.000000 0.002121
0.035012 1.000000 0.023203
0.542729 1.000000 0.010993
0.851603 1.000000 0.003435
0.396456 1.000000 0.019146
0.449691 1.000000 0.019387
0.499961 1.000000 0.009456
0.481506 1.000000 0.009979
0.010060 1.000000 0.003447
0.078452 1.000000 0.037129
0.839398 1.000000 0.007958
0.515352 1.000000 0.002824
0.024970 1.000000 0.039623
0.863028 1.000000 0.026416
0.670517 1.000000 0.007252
0.276962 1.000000 0.026979
0.630936 1.000000 0.037600
0.245243 1.000000 0.014509
0.634463 1.000000 0.033348
0.181401 1.000000 0.028088
0.092277 1.000000 0.010552
0.007630 1.000000 0.019321
0.112079 1.000000 0.035373
0.376635 1.000000 0.007453
0.833603 1.000000 0.036740
0.192349 1.000000 0.002828
0.349726 1.000000 0.013165
0.640268 1.000000 0.028433
0.798708 1.000000 0.034499
0.222182 1.000000 0.018593
0.579356 1.000000 0.024309
0.210525 1.000000 0.035635
0.309980 1.000000 0.031081
0.340799 1.000000 0.018708
0.100213 1.000000 0.019027
0.713918 1.000000 0.018561
0.930905 1.000000 0.031949
0.841592 1.000000 0.031921
0.027483 1.000000 0.040010
0.273118 1.000000 0.030145
0.954984 1.000000 0.027534
0.094556 1.000000 0.005108
0.922219 1.000000 0.032497
0.841195 1.000000 0.030068
0.631687 1.000000 0.017393
0.145262 1.000000 0.034614
0.157742 1.000000 0.039035
0.906645 1.000000 0.030407
0.445636 1.000000 0.009022
0.293334 1.000000 0.008533
0.103985 1.000000 0.036145
0.964218 1.000000 0.022317
0.755606 1.000000 0.032578
0.067214 1.000000 0.030563
0.665054 1.000000 0.029848
0.468451 1.000000 0.017856
0.236596 1.000000 0.024828
0.809494 1.000000 0.025616
0.543153 1.000000 0.032018
0.653516 1.000000 0.021622
0.184328 1.000000 0.021116
0.901521 1.000000 0.020049
0.891710 1.000000 0.013408
0.187551 1.000000 0.014238
0.560167 1.000000 0.015673
0.187449 1.000000 0.007528
0.384810 1.000000 0.039058
0.710551 1.000000 0.035334
0.699546 1.000000 0.010483
0.804175 1.000000 0.029986
0.545870 1.000000 0.037974
0.161292 1.000000 0.020852
0.872867 1.000000 0.006123
0.484153 1.000000 0.011387
0.790199 1.000000 0.002696
0.206835 1.000000 0.007945
0.537357 1.000000 0.010656
0.972644 1.000000 0.025038
0.534239 1.000000 0.013290
0.615779 1.000000 0.021652
0.043969 1.000000 0.015025
0.289055 1.000000 0.008781
0.743353 1.000000 0.004295
0.602678 1.000000 0.030806
0.583579 1.000000 0.008480
0.025916 1.000000 0.002835
0.332428 1.000000 0.035065
0.824862 1.000000 0.034370
0.904018 1.000000 0.030545
0.455848 1.000000 0.013655
0.734269 1.000000 0.024856
0.012460 1.000000 0.020329
0.107520 1.000000 0.028324
0.882917 1.000000 0.036115
0.644247 1.000000 0.024573
0.912580 1.000000 0.031889
0.079957 1.000000 0.000088
0.747608 1.000000 0.017012
0.977452 1.000000 0.004185
0.214297 1.000000 0.020922
0.195587 1.000000 0.005595
0.763193 1.000000 0.017750
0.667277 1.000000 0.029487
0.834600 1.000000 0.036054
0.161438 1.000000 0.028019
0.144466 1.000000 0.013843
0.305180 1.000000 0.035821
0.355231 1.000000 0.002078
0.464018 1.000000 0.032749
0.664282 1.000000 0.008812
0.789640 1.000000 0.017371
0.272946 1.000000 0.004425
0.141167 1.000000 0.016360
0.682036 1.000000 0.035399
0.008356 1.000000 0.028367
0.867037 1.000000 0.006072
0.198428 1.000000 0.038426
0.456449 1.000000 0.021974
0.819524 1.000000 0.032244
0.557621 1.000000 0.008006
0.062789 1.000000 0.025063
0.959032 1.000000 0.016200
0.640563 1.000000 0.021448
0.307062 1.000000 0.024958
0.207326 1.000000 0.029795
0.261113 1.000000 0.002028
0.401245 1.000000 0.013692
0.593984 1.000000 0.035256
0.909430 1.000000 0.023144
0.440766 1.000000 0.009625
0.242849 1.000000 0.016526
0.743208 1.000000 0.017535
0.709576 1.000000 0.031967
0.255822 1.000000 0.026163
0.681553 1.000000 0.034991
0.036765 1.000000 0.033053
0.757231 1.000000 0.001942
0.876545 1.000000 0.007097
0.479474 1.000000 0.002634
0.033324 1.000000 0.038608
0.947168 1.000000 0.003351
0.700082 1.000000 0.022036
0.319985 1.000000 0.001459
0.159596 1.000000 0.007262
0.954618 1.000000 0.009581
0.096261 1.000000 0.034016
0.009434 1.000000 0.008322
0.548327 1.000000 0.032806
0.284287 1.000000 0.022791
0.417013 1.000000 0.039988
0.925488 1.000000 0.001823
