0.894365 1.000000 0.880771
0.458844 1.000000 0.788514
0.667751 1.000000 0.968701
0.498601 1.000000 0.930453
0.101338 1.000000 0.967570
0.788857 1.000000 0.934796
0.250836 1.000000 0.848979
0.024928 1.000000 0.977836
0.512555 1.000000 0.784687
0.510295 1.000000 0.833635
0.313140 1.000000 0.971427
0.805539 1.000000 0.801687
0.434104 1.000000 0.877396
0.236718 1.000000 0.857881
0.511908 1.000000 0.949595
0.755169 1.000000 0.846195
0.931141 1.000000 0.918880
0.688969 1.000000 0.995046
0.714909 1.000000 0.839457
0.677880 1.000000 0.724478
0.140388 1.000000 0.971495
0.929011 1.000000 0.646427
0.313426 1.000000 0.988104
0.856590 1.000000 0.623974
0.666377 1.000000 0.893255
0.791381 1.000000 0.776863
0.266902 1.000000 0.825686
0.171419 1.000000 0.963490
0.889808 1.000000 0.612697
0.873022 1.000000 0.910066
0.880332 1.000000 0.828387
0.739412 1.000000 0.730752
0.392210 1.000000 0.872412
0.724667 1.000000 0.889099
0.987765 1.000000 0.874235
0.289701 1.000000 0.842348
0.135591 1.000000 0.941209
0.333811 1.000000 0.863847
0.569740 1.000000 0.969095
0.572717 1.000000 0.811052
0.622136 1.000000 0.956444
0.106212 1.000000 0.901035
0.170443 1.000000 0.942391
0.808785 1.000000 0.655936
0.771379 1.000000 0.740236
0.945161 1.000000 0.770397
0.930994 1.000000 0.759862
0.616633 1.000000 0.974598
0.247046 1.000000 0.930478
0.450654 1.000000 0.803870
0.765842 1.000000 0.733239
0.320027 1.000000 0.854711
0.640894 1.000000 0.673386
0.965391 1.000000 0.695295
0.124452 1.000000 0.971060
0.972792 1.000000 0.609494
0.553619 1.000000 0.989103
0.811762 1.000000 0.625952
0.545829 1.000000 0.869614
0.865917 1.000000 0.918883
0.746339 1.000000 0.974027
0.288202 1.000000 0.893827
0.860215 1.000000 0.735652
0.152898 1.000000 0.927782
0.657268 1.000000 0.950532
0.919365 1.000000 0.646696
0.081170 1.000000 0.985375
0.864173 1.000000 0.719220
0.590148 1.000000 0.762574
0.124392 1.000000 0.900297
0.984983 1.000000 0.783841
0.758218 1.000000 0.896714
0.687436 1.000000 0.717649
0.862670 1.000000 0.818673
0.211671 1.000000 0.961726
0.784227 1.000000 0.871586
0.543897 1.000000 0.790580
0.247728 1.000000 0.933029
0.630615 1.000000 0.912595
0.810307 1.000000 0.841431
0.386098 1.000000 0.886321
0.782293 1.000000 0.992350
0.758134 1.000000 0.669481
0.931220 1.000000 0.837747
0.790466 1.000000 0.797490
0.861096 1.000000 0.897428
0.764757 1.000000 0.803326
0.943108 1.000000 0.846812
0.979843 1.000000 0.747650
0.403951 1.000000 0.745886
0.982620 1.000000 0.786752
0.910888 1.000000 0.853592
0.200372 1.000000 0.907186
0.591183 1.000000 0.801313
0.740131 1.000000 0.832322
0.444331 1.000000 0.757599
0.378688 1.000000 0.793111
0.728984 1.000000 0.866405
0.525744 1.000000 0.995556
0.925672 1.000000 0.615248
0.696069 1.000000 0.720786
0.753888 1.000000 0.888437
0.117819 1.000000 0.976805
0.760678 1.000000 0.698436
0.965767 1.000000 0.692433
0.282858 1.000000 0.942923
0.229518 1.000000 0.895261
0.812302 1.000000 0.617686
0.847952 1.000000 0.695613
0.892488 1.000000 0.614102
0.786131 1.000000 0.831400
0.866867 1.000000 0.949831
0.170676 1.000000 0.919457
0.838171 1.000000 0.865573
0.983112 1.000000 0.564559
0.666363 1.000000 0.703447
0.948219 1.000000 0.750014
0.444168 1.000000 0.901244
0.234182 1.000000 0.804689
0.196686 1.000000 0.886991
0.891401 1.000000 0.679062
0.281002 1.000000 0.873839
0.479913 1.000000 0.912953
0.432744 1.000000 0.865571
0.593999 1.000000 0.973552
0.651170 1.000000 0.912010
0.988511 1.000000 0.846373
0.314734 1.000000 0.928084
0.468909 1.000000 0.754997
0.123604 1.000000 0.919402
0.428397 1.000000 0.851159
0.289923 1.000000 0.899697
0.930967 1.000000 0.784281
0.589448 1.000000 0.858606
0.911380 1.000000 0.771552
0.803215 1.000000 0.736465
0.221922 1.000000 0.818282
0.386273 1.000000 0.960961
0.382474 1.000000 0.947021
0.590569 1.000000 0.742527
0.285549 1.000000 0.820280
0.910856 1.000000 0.707209
0.917286 1.000000 0.840387
0.490749 1.000000 0.768738
0.457277 1.000000 0.806897
0.467018 1.000000 0.827765
0.980132 1.000000 0.835703
0.122852 1.000000 0.956879
0.943327 1.000000 0.998375
0.243766 1.000000 0.818627
0.989626 1.000000 0.784853
0.705131 1.000000 0.861524
0.723048 1.000000 0.804518
0.162782 1.000000 0.972488
0.089485 1.000000 0.924417
0.729334 1.000000 0.875010
0.406334 1.000000 0.861133
0.256008 1.000000 0.804040
0.967905 1.000000 0.868357
0.352410 1.000000 0.957968
0.803234 1.000000 0.915061
0.004928 1.000000 0.998984
0.253670 1.000000 0.816271
0.398464 1.000000 0.991435
0.651707 1.000000 0.766557
0.516977 1.000000 0.715508
0.883940 1.000000 0.670705
0.894700 1.000000 0.720285
0.443748 1.000000 0.961356
0.640867 1.000000 0.916161
0.632157 1.000000 0.860904
0.562437 1.000000 0.988918
0.779276 1.000000 0.787570
0.867999 1.000000 0.852443
0.148159 1.000000 0.967700
0.833875 1.000000 0.718411
0.935149 1.000000 0.599715
0.270452 1.000000 0.862613
0.494309 1.000000 0.979142
0.720312 1.000000 0.989877
0.127257 1.000000 0.923546
0.536794 1.000000 0.855750
0.116875 1.000000 0.945281
0.917147 1.000000 0.637503
0.944517 1.000000 0.805159
0.547166 1.000000 0.756376
0.444636 1.000000 0.922231
0.980398 1.000000 0.747444
0.629550 1.000000 0.836261
0.357787 1.000000 0.823295
0.468399 1.000000 0.902094
0.736097 1.000000 0.862843
0.203714 1.000000 0.865361
0.708060 1.000000 0.663005
0.864663 1.000000 0.672763
0.130295 1.000000 0.976358
0.664088 1.000000 0.765788
0.362860 1.000000 0.859816
0.801891 1.000000 0.922149
0.938454 1.000000 0.897282
0.695042 1.000000 0.956318
0.652921 1.000000 0.898150
0.472492 1.000000 0.950787
0.385530 1.000000 0.880515
0.969054 1.000000 0.688863
0.456690 1.000000 0.970209
0.890109 1.000000 0.787074
0.506864 1.000000 0.791934
0.777300 1.000000 0.803946
0.482500 1.000000 0.976467
0.293573 1.000000 0.820626
0.565825 1.000000 0.942098
0.986457 1.000000 0.951436
0.923240 1.000000 0.930722
0.336381 1.000000 0.880072
0.239732 1.000000 0.952149
0.676918 1.000000 0.825167
0.207212 1.000000 0.886271
0.571870 1.000000 0.981145
0.677916 1.000000 0.954082
0.664027 1.000000 0.967191
0.565827 1.000000 0.934613
0.073903 1.000000 0.927251
0.525179 1.000000 0.951279
0.541818 1.000000 0.904280
0.828699 1.000000 0.824382
0.228853 1.000000 0.866387
0.585212 1.000000 0.906622
0.605090 1.000000 0.756445
0.164262 1.000000 0.898520
0.817534 1.000000 0.643870
0.334270 1.000000 0.864824
0.737139 1.000000 0.938902
0.610294 1.000000 0.687241
0.479516 1.000000 0.822641
0.752878 1.000000 0.758705
0.445470 1.000000 0.992727
0.932283 1.000000 0.648619
0.956095 1.000000 0.579651
0.543392 1.000000 0.774533
0.786141 1.000000 0.627285
0.943851 1.000000 0.612048
0.770005 1.000000 0.789993
0.761390 1.000000 0.764257
0.135984 1.000000 0.907116
0.302694 1.000000 0.839342
0.707569 1.000000 0.869017
0.254119 1.000000 0.838618
0.762037 1.000000 0.892396
0.406598 1.000000 0.893782
0.328827 1.000000 0.883546
0.872433 1.000000 0.646824
0.625028 1.000000 0.718206
0.445801 1.000000 0.841831
0.629458 1.000000 0.775685
0.174402 1.000000 0.853405
0.077009 1.000000 0.932209
0.073145 1.000000 0.995726
0.746596 1.000000 0.799774
0.354111 1.000000 0.973348
0.380283 1.000000 0.953177
0.761945 1.000000 0.958486
0.910248 1.000000 0.814810
0.488465 1.000000 0.962162
0.291150 1.000000 0.926401
0.198073 1.000000 0.953149
0.532844 1.000000 0.971859
0.248885 1.000000 0.918852
0.437433 1.000000 0.784481
0.608139 1.000000 0.780496
0.269692 1.000000 0.789708
0.700633 1.000000 0.873277
0.735242 1.000000 0.742793
0.624972 1.000000 0.934624
0.753354 1.000000 0.855780
0.929344 1.000000 0.940226
0.354611 1.000000 0.862547
0.434123 1.000000 0.752361
0.989293 1.000000 0.608890
0.909558 1.000000 0.981380
0.478392 1.000000 0.878466
0.461155 1.000000 0.799092
0.213383 1.000000 0.909816
0.444637 1.000000 0.991421
0.737147 1.000000 0.688652
0.407621 1.000000 0.914220
0.330864 1.000000 0.843272
0.591633 1.000000 0.872361
0.792466 1.000000 0.875926
0.541666 1.000000 0.957853
0.418862 1.000000 0.840703
0.660515 1.000000 0.875876
0.886680 1.000000 0.818195
0.707921 1.000000 0.869516
0.566276 1.000000 0.960591
0.657867 1.000000 0.960363
0.238233 1.000000 0.995967
0.706785 1.000000 0.754992
0.916732 1.000000 0.701911
0.827355 1.000000 0.835785
0.461292 1.000000 0.734959
0.372662 1.000000 0.805024
0.521506 1.000000 0.852777
0.270660 1.000000 0.899716
0.147662 1.000000 0.859136
0.257251 1.000000 0.844845
0.702502 1.000000 0.920900
0.327231 1.000000 0.967642
0.644337 1.000000 0.832563
0.606814 1.000000 0.825686
0.481775 1.000000 0.873882
0.669217 1.000000 0.815067
0.171555 1.000000 0.959861
0.459141 1.000000 0.783974
0.890418 1.000000 0.663977
0.500453 1.000000 0.967409
0.258994 1.000000 0.958707
0.855655 1.000000 0.756046
0.413432 1.000000 0.935146
0.576903 1.000000 0.831986
0.865195 1.000000 0.964715
0.283038 1.000000 0.877103
0.089743 1.000000 0.988242
0.550503 1.000000 0.933149
0.854549 1.000000 0.877658
0.791982 1.000000 0.873637
0.213195 1.000000 0.996102
0.943997 1.000000 0.620420
0.353409 1.000000 0.835890
0.379698 1.000000 0.756966
0.238729 1.000000 0.868653
0.410919 1.000000 0.966556
0.809117 1.000000 0.627246
0.694797 1.000000 0.825391
0.405731 1.000000 0.780641
0.216653 1.000000 0.944600
0.914296 1.000000 0.657485
0.529976 1.000000 0.881482
0.157314 1.000000 0.868411
0.964307 1.000000 0.678353
0.329430 1.000000 0.858129
0.762164 1.000000 0.801381
0.873848 1.000000 0.658732
0.808527 1.000000 0.826805
0.661603 1.000000 0.812461
0.642387 1.000000 0.811753
0.862821 1.000000 0.963930
0.522182 1.000000 0.822057
0.210653 1.000000 0.912739
0.785792 1.000000 0.806490
0.626240 1.000000 0.848750
0.480726 1.000000 0.807334
0.716666 1.000000 0.836424
0.969822 1.000000 0.862106
0.875445 1.000000 0.665405
0.405862 1.000000 0.995181
0.553211 1.000000 0.812315
0.968981 1.000000 0.989662
0.929424 1.000000 0.687298
0.371651 1.000000 0.948994
0.502924 1.000000 0.903608
0.455383 1.000000 0.983848
0.736249 1.000000 0.671865
0.878032 1.000000 0.793142
0.490508 1.000000 0.985824
0.530117 1.000000 0.823699
0.976808 1.000000 0.915710
0.526685 1.000000 0.927550
0.848014 1.000000 0.894480
0.899803 1.000000 0.789777
0.146998 1.000000 0.878033
0.762743 1.000000 0.866519
0.183692 1.000000 0.947838
0.492094 1.000000 0.832719
0.620876 1.000000 0.738831
0.221401 1.000000 0.883753
0.585029 1.000000 0.733466
0.668137 1.000000 0.765560
0.214186 1.000000 0.960322
0.192112 1.000000 0.866146
0.327518 1.000000 0.871408
0.695013 1.000000 0.756852
0.619061 1.000000 0.944965
0.185730 1.000000 0.974857
0.336891 1.000000 0.945661
0.227919 1.000000 0.834706
0.544168 1.000000 0.728042
0.420263 1.000000 0.810690
0.480978 1.000000 0.887265
0.367196 1.000000 0.832014
0.685621 1.000000 0.928561
0.313236 1.000000 0.800797
0.894696 1.000000 0.667873
0.833927 1.000000 0.622183
0.903175 1.000000 0.671603
0.922215 1.000000 0.789830
0.791056 1.000000 0.703566
0.143869 1.000000 0.914000
0.483115 1.000000 0.969999
0.441434 1.000000 0.907125
0.695444 1.000000 0.873365
0.578474 1.000000 0.831150
0.257323 1.000000 0.853973
0.988490 1.000000 0.746400
0.555501 1.000000 0.720543
0.873599 1.000000 0.730746
0.607094 1.000000 0.905693
0.851515 1.000000 0.841839
0.943978 1.000000 0.686073
0.202000 1.000000 0.979500
0.336202 1.000000 0.928516
0.686410 1.000000 0.869573
0.235113 1.000000 0.831149
0.404934 1.000000 0.768184
0.493879 1.000000 0.849634
0.456217 1.000000 0.829193
0.795399 1.000000 0.794158
0.562752 1.000000 0.786091
0.912573 1.000000 0.628099
0.732526 1.000000 0.873695
0.866709 1.000000 0.658846
0.868522 1.000000 0.839315
0.535829 1.000000 0.726000
0.538158 1.000000 0.910890
0.553285 1.000000 0.841226
0.647431 1.000000 0.878169
0.287124 1.000000 0.947410
0.598189 1.000000 0.918626
0.541734 1.000000 0.713595
0.989120 1.000000 0.660214
0.706932 1.000000 0.697160
0.239125 1.000000 0.802184
0.428384 1.000000 0.854548
0.399112 1.000000 0.972186
0.426519 1.000000 0.958487
0.539896 1.000000 0.759995
0.374502 1.000000 0.971286
0.466372 1.000000 0.807692
0.906043 1.000000 0.602822
0.854022 1.000000 0.926778
0.827688 1.000000 0.680229
0.413783 1.000000 0.863584
0.499432 1.000000 0.921018
0.178949 1.000000 0.965343
0.836085 1.000000 0.839723
0.920594 1.000000 0.732202
0.189320 1.000000 0.860130
0.549557 1.000000 0.862821
0.653190 1.000000 0.979158
0.179176 1.000000 0.860473
0.634697 1.000000 0.986766
0.444668 1.000000 0.789412
0.607926 1.000000 0.734052
0.587521 1.000000 0.824747
0.778181 1.000000 0.631068
0.446142 1.000000 0.985275
0.573712 1.000000 0.897928
0.344336 1.000000 0.819683
0.920717 1.000000 0.989577
0.339459 1.000000 0.909939
0.186566 1.000000 0.866927
0.977147 1.000000 0.633026
0.539891 1.000000 0.981153
0.520546 1.000000 0.856198
0.884547 1.000000 0.903278
0.509056 1.000000 0.956138
0.901920 1.000000 0.682304
0.927219 1.000000 0.843204
0.251623 1.000000 0.901689
0.589678 1.000000 0.794087
0.693232 1.000000 0.902679
0.852980 1.000000 0.968838
0.838414 1.000000 0.735723
0.590887 1.000000 0.760922
0.406629 1.000000 0.912633
0.541243 1.000000 0.857460
0.628600 1.000000 0.698933
0.689797 1.000000 0.872902
0.481389 1.000000 0.795377
0.586400 1.000000 0.881794
0.861526 1.000000 0.935010
0.859700 1.000000 0.630158
0.882295 1.000000 0.821817
0.556189 1.000000 0.999545
0.187365 1.000000 0.951666
0.615106 1.000000 0.724312
0.847666 1.000000 0.891046
0.559802 1.000000 0.881822
0.233072 1.000000 0.922406
0.928874 1.000000 0.845076
0.829493 1.000000 0.839085
0.874980 1.000000 0.744539
0.348331 1.000000 0.945764
0.752692 1.000000 0.659201
0.963613 1.000000 0.693642
0.448610 1.000000 0.741499
0.712297 1.000000 0.656870
0.907087 1.000000 0.729777
0.237503 1.000000 0.884949
0.400316 1.000000 0.821100
0.708918 1.000000 0.992903
0.394821 1.000000 0.986899
0.991961 1.000000 0.643079
0.981767 1.000000 0.903554
0.553121 1.000000 0.933982
0.704717 1.000000 0.714645
0.366754 1.000000 0.863137
0.237961 1.000000 0.912098
0.287678 1.000000 0.972649
0.751111 1.000000 0.874645
0.521093 1.000000 0.804234
0.391784 1.000000 0.754381
0.717294 1.000000 0.714351
0.483279 1.000000 0.854875
0.907172 1.000000 0.788095
0.435432 1.000000 0.917326
0.329011 1.000000 0.871827
0.274629 1.000000 0.866528
0.938941 1.000000 0.882288
0.779033 1.000000 0.633101
0.978929 1.000000 0.592560
0.572719 1.000000 0.887963
0.346839 1.000000 0.975707
0.837315 1.000000 0.633787
0.784869 1.000000 0.699373
0.245736 1.000000 0.996126
0.917807 1.000000 0.625316
0.787253 1.000000 0.834780
0.818699 1.000000 0.800185
0.985337 1.000000 0.571931
0.801837 1.000000 0.733479
0.669533 1.000000 0.914279
0.376602 1.000000 0.813271
0.564780 1.000000 0.959451
0.577867 1.000000 0.980227
0.904019 1.000000 0.856671
0.604980 1.000000 0.743025
0.592903 1.000000 0.756940
0.747640 1.000000 0.644113
0.641778 1.000000 0.763703
0.975154 1.000000 0.886227
0.978793 1.000000 0.699283
0.605841 1.000000 0.792235
0.531032 1.000000 0.762468
0.941515 1.000000 0.949413
0.930897 1.000000 0.620187
0.281919 1.000000 0.807934
0.528903 1.000000 0.862589
0.326501 1.000000 0.839438
0.635724 1.000000 0.822481
0.371109 1.000000 0.876889
0.993993 1.000000 0.768283
0.275433 1.000000 0.992624
0.844328 1.000000 0.891421
0.980826 1.000000 0.698210
0.457350 1.000000 0.996576
0.981219 1.000000 0.694051
0.388675 1.000000 0.856264
0.781078 1.000000 0.946904
0.911938 1.000000 0.914670
0.130608 1.000000 0.998240
0.864901 1.000000 0.728891
0.449037 1.000000 0.993312
0.605911 1.000000 0.741694
0.742841 1.000000 0.988361
0.781259 1.000000 0.888662
0.834989 1.000000 0.654331
0.271353 1.000000 0.860808
0.605820 1.000000 0.926637
0.501184 1.000000 0.831457
0.415065 1.000000 0.986035
0.653146 1.000000 0.791713
0.716538 1.000000 0.824624
0.366846 1.000000 0.929312
0.233366 1.000000 0.808813
0.317960 1.000000 0.992334
0.943966 1.000000 0.613346
0.866107 1.000000 0.906197
0.789319 1.000000 0.928607
0.991746 1.000000 0.672248
0.887944 1.000000 0.906620
0.660487 1.000000 0.800418
0.788196 1.000000 0.955195
0.524679 1.000000 0.827798
0.997569 1.000000 0.742014
0.523917 1.000000 0.993688
0.532056 1.000000 0.957309
0.534700 1.000000 0.979256
0.950427 1.000000 0.890587
0.885008 1.000000 0.753660
0.832311 1.000000 0.853962
0.893106 1.000000 0.596189
0.847518 1.000000 0.825533
0.820323 1.000000 0.828408
0.695352 1.000000 0.943021
0.832696 1.000000 0.978549
0.846567 1.000000 0.870566
0.420908 1.000000 0.996222
0.766597 1.000000 0.886057
0.889524 1.000000 0.964471
0.956669 1.000000 0.783064
0.415288 1.000000 0.908511
0.221007 1.000000 0.898188
0.268429 1.000000 0.989038
0.905149 1.000000 0.972856
0.641095 1.000000 0.733805
0.749421 1.000000 0.803940
0.433416 1.000000 0.793321
0.482997 1.000000 0.900213
0.999338 1.000000 0.696759
0.148308 1.000000 0.887188
0.921514 1.000000 0.984933
0.706445 1.000000 0.922871
0.464756 1.000000 0.976488
0.576858 1.000000 0.964789
0.206425 1.000000 0.875089
0.948407 1.000000 0.917087
0.656913 1.000000 0.706949
0.482536 1.000000 0.970837
0.849878 1.000000 0.724127
0.526857 1.000000 0.741592
0.570437 1.000000 0.703190
0.947300 1.000000 0.667899
0.814498 1.000000 0.618812
0.527933 1.000000 0.998724
0.925158 1.000000 0.788131
0.352429 1.000000 0.879446
0.438632 1.000000 0.906994
0.164625 1.000000 0.981953
0.396498 1.000000 0.963318
0.836402 1.000000 0.888673
0.126641 1.000000 0.886698
0.814210 1.000000 0.833969
0.490682 1.000000 0.783001
0.762946 1.000000 0.772163
0.571810 1.000000 0.841167
0.877926 1.000000 0.893529
0.911630 1.000000 0.811037
0.965151 1.000000 0.753467
0.688029 1.000000 0.959716
0.530667 1.000000 0.806746
0.710687 1.000000 0.852071
0.396419 1.000000 0.900928
0.960824 1.000000 0.699037
0.398193 1.000000 0.956512
0.974885 1.000000 0.952522
0.565265 1.000000 0.894791
0.695816 1.000000 0.840498
0.388816 1.000000 0.838003
0.646085 1.000000 0.823647
0.960151 1.000000 0.803692
0.112519 1.000000 0.905704
0.419118 1.000000 0.841906
0.543247 1.000000 0.731003
0.757342 1.000000 0.809432
0.954293 1.000000 0.666948
0.807311 1.000000 0.897484
0.615980 1.000000 0.795470
0.726780 1.000000 0.935567
0.324604 1.000000 0.873606
0.570711 1.000000 0.880883
0.969346 1.000000 0.986308
0.727581 1.000000 0.841623
0.961204 1.000000 0.780486
0.749397 1.000000 0.698890
0.397627 1.000000 0.943893
0.593954 1.000000 0.737839
0.439093 1.000000 0.783147
0.271074 1.000000 0.861373
0.281149 1.000000 0.922313
0.997246 1.000000 0.802546
0.930628 1.000000 0.762132
0.893186 1.000000 0.712370
0.842238 1.000000 0.710908
0.936544 1.000000 0.685308
0.431534 1.000000 0.762139
0.347490 1.000000 0.793542
0.491549 1.000000 0.867506
0.603121 1.000000 0.694410
0.652641 1.000000 0.783208
0.841933 1.000000 0.915644
0.581464 1.000000 0.730184
0.789266 1.000000 0.718522
0.611051 1.000000 0.771846
0.524441 1.000000 0.836880
0.527098 1.000000 0.754605
0.981227 1.000000 0.657218
0.910107 1.000000 0.646201
0.812411 1.000000 0.831465
0.636721 1.000000 0.937956
0.888288 1.000000 0.914467
0.763794 1.000000 0.637877
0.876592 1.000000 0.744844
0.893094 1.000000 0.932169
0.697615 1.000000 0.783557
0.803315 1.000000 0.953513
0.744560 1.000000 0.743257
0.559396 1.000000 0.838006
0.375969 1.000000 0.874630
0.484994 1.000000 0.763341
0.505248 1.000000 0.852963
0.515532 1.000000 0.873428
0.848831 1.000000 0.834759
0.945179 1.000000 0.810511
0.619133 1.000000 0.995040
0.470914 1.000000 0.955751
0.739331 1.000000 0.798206
0.746000 1.000000 0.811906
0.708834 1.000000 0.658136
0.812942 1.000000 0.905564
0.763205 1.000000 0.959466
0.657989 1.000000 0.782087
0.923982 1.000000 0.707053
0.646395 1.000000 0.919898
0.537439 1.000000 0.747978
0.980215 1.000000 0.897045
0.778597 1.000000 0.917118
0.362685 1.000000 0.836530
0.494907 1.000000 0.952619
0.897917 1.000000 0.643416
0.565934 1.000000 0.972421
0.936576 1.000000 0.760949
0.750686 1.000000 0.743246
0.966435 1.000000 0.654795
0.919864 1.000000 0.888316
0.851670 1.000000 0.856747
0.719963 1.000000 0.845875
0.764909 1.000000 0.678867
0.661224 1.000000 0.684362
0.821979 1.000000 0.850263
0.927290 1.000000 0.694071
0.413552 1.000000 0.933004
0.628477 1.000000 0.953623
0.932089 1.000000 0.749754
0.992196 1.000000 0.569894
0.726937 1.000000 0.675846
0.890273 1.000000 0.594662
0.991427 1.000000 0.915917
0.288531 1.000000 0.783229
0.994550 1.000000 0.601872
0.817245 1.000000 0.803947
0.486899 1.000000 0.989994
0.453249 1.000000 0.951730
0.823228 1.000000 0.876659
0.789676 1.000000 0.855562
0.623589 1.000000 0.967014
0.416449 1.000000 0.927664
0.983534 1.000000 0.729653
0.319345 1.000000 0.830878
0.510252 1.000000 0.857593
0.891228 1.000000 0.754240
0.707901 1.000000 0.884670
0.969842 1.000000 0.958636
0.379902 1.000000 0.843249
0.913475 1.000000 0.932561
0.356981 1.000000 0.895643
0.546365 1.000000 0.849107
0.759306 1.000000 0.989336
0.635578 1.000000 0.707248
0.686090 1.000000 0.702170
0.047643 1.000000 0.960104
0.885434 1.000000 0.604898
0.952554 1.000000 0.650978
0.743033 1.000000 0.723873
0.501850 1.000000 0.776983
0.468422 1.000000 0.912310
0.143663 1.000000 0.861199
0.387891 1.000000 0.844572
0.761088 1.000000 0.963352
0.671153 1.000000 0.911883
0.530472 1.000000 0.748136
0.649537 1.000000 0.743639
0.991956 1.000000 0.667717
0.708486 1.000000 0.877324
0.440042 1.000000 0.996239
0.711863 1.000000 0.967830
0.935500 1.000000 0.693653
0.818893 1.000000 0.620404
0.971082 1.000000 0.925507
0.871420 1.000000 0.705094
0.970381 1.000000 0.739365
0.900653 1.000000 0.696961
0.284264 1.000000 0.959233
0.993289 1.000000 0.937483
0.828680 1.000000 0.848197
0.709138 1.000000 0.711879
0.946231 1.000000 0.734456
0.483680 1.000000 0.796505
0.601496 1.000000 0.760341
0.274467 1.000000 0.909006
0.120887 1.000000 0.886443
0.880252 1.000000 0.804798
0.579237 1.000000 0.748665
0.563373 1.000000 0.784228
0.975250 1.000000 0.724705
0.975699 1.000000 0.867381
0.570937 1.000000 0.937619
0.343325 1.000000 0.927828
0.712836 1.000000 0.751162
0.956759 1.000000 0.890109
0.676592 1.000000 0.842432
0.611461 1.000000 0.708073
0.191165 1.000000 0.975346
0.921351 1.000000 0.781401
0.336995 1.000000 0.902271
0.646360 1.000000 0.972606
0.777655 1.000000 0.998049
0.812278 1.000000 0.697174
0.493567 1.000000 0.938422
0.855120 1.000000 0.639899
0.425141 1.000000 0.945915
0.155102 1.000000 0.952188
0.872332 1.000000 0.855191
0.722871 1.000000 0.702131
0.791467 1.000000 0.825842
0.656762 1.000000 0.889381
0.833269 1.000000 0.722354
0.769788 1.000000 0.707958
0.826720 1.000000 0.716439
0.418688 1.000000 0.931430
0.620164 1.000000 0.890692
0.597424 1.000000 0.780124
0.943653 1.000000 0.742923
0.591016 1.000000 0.935103
0.907566 1.000000 0.868362
0.710088 1.000000 0.959355
0.728561 1.000000 0.944544
0.845813 1.000000 0.985323
0.166301 1.000000 0.879301
0.758650 1.000000 0.754439
0.264096 1.000000 0.873615
0.230846 1.000000 0.897352
0.905575 1.000000 0.639502
0.749427 1.000000 0.875374
0.511333 1.000000 0.750216
0.691396 1.000000 0.707857
0.893170 1.000000 0.617640
0.495517 1.000000 0.810072
0.725958 1.000000 0.752347
0.711450 1.000000 0.800479
0.883539 1.000000 0.642827
0.565890 1.000000 0.999393
0.611474 1.000000 0.857203
0.462983 1.000000 0.838304
0.588107 1.000000 0.890838
0.603984 1.000000 0.824480
0.573207 1.000000 0.959984
0.694154 1.000000 0.990697
0.768202 1.000000 0.914864
0.472294 1.000000 0.842485
0.816984 1.000000 0.641379
0.931542 1.000000 0.838415
0.791764 1.000000 0.990560
0.304299 1.000000 0.927353
0.878352 1.000000 0.808264
0.787878 1.000000 0.899317
0.077936 1.000000 0.972383
0.846547 1.000000 0.946429
0.373439 1.000000 0.805682
0.591515 1.000000 0.747489
0.847785 1.000000 0.868481
0.768660 1.000000 0.763722
0.527886 1.000000 0.886739
0.593219 1.000000 0.876550
0.533032 1.000000 0.773517
0.165067 1.000000 0.900434
0.948262 1.000000 0.802669
0.671400 1.000000 0.796662
0.747368 1.000000 0.655079
0.856471 1.000000 0.658309
0.732778 1.000000 0.650824
0.461175 1.000000 0.770664
0.769069 1.000000 0.675632
0.189959 1.000000 0.910908
0.751856 1.000000 0.768162
0.871941 1.000000 0.692469
0.843112 1.000000 0.622980
0.740348 1.000000 0.890771
0.904974 1.000000 0.927900
0.882578 1.000000 0.722885
0.566431 1.000000 0.941029
0.778585 1.000000 0.689106
0.760727 1.000000 0.775729
0.559475 1.000000 0.900137
0.663479 1.000000 0.706987
0.611022 1.000000 0.909770
0.578105 1.000000 0.935374
0.387765 1.000000 0.962274
0.413997 1.000000 0.839113
0.656036 1.000000 0.960706
0.117243 1.000000 0.935581
0.880237 1.000000 0.619943
0.683446 1.000000 0.949785
0.988870 1.000000 0.773510
0.423400 1.000000 0.902935
0.582819 1.000000 0.958470
0.301494 1.000000 0.829796
0.287876 1.000000 0.907178
0.694954 1.000000 0.740727
0.736740 1.000000 0.690175
0.098370 1.000000 0.906366
0.580180 1.000000 0.744871
0.754282 1.000000 0.740275
0.666788 1.000000 0.956990
0.687230 1.000000 0.739113
0.826852 1.000000 0.805736
0.420316 1.000000 0.752576
0.389487 1.000000 0.975514
0.805257 1.000000 0.955762
0.620347 1.000000 0.802004
0.667891 1.000000 0.890340
0.768610 1.000000 0.655734
0.647586 1.000000 0.735657
0.569129 1.000000 0.820657
0.654923 1.000000 0.929058
0.432437 1.000000 0.954419
0.085242 1.000000 0.997386
0.412141 1.000000 0.930621
0.816229 1.000000 0.801846
0.947466 1.000000 0.765702
0.621193 1.000000 0.920427
0.855114 1.000000 0.631551
0.814834 1.000000 0.688167
0.839997 1.000000 0.906131
0.433963 1.000000 0.852199
0.897282 1.000000 0.982098
0.251828 1.000000 0.854690
0.874191 1.000000 0.600461
0.395323 1.000000 0.976290
0.195963 1.000000 0.897627
0.362700 1.000000 0.797667
0.437527 1.000000 0.856569
0.525791 1.000000 0.888741
0.494885 1.000000 0.734551
0.828640 1.000000 0.640865
0.278401 1.000000 0.839671
0.993616 1.000000 0.962363
0.820911 1.000000 0.792750
0.726232 1.000000 0.897752
0.273699 1.000000 0.833201
0.887370 1.000000 0.787225
0.541007 1.000000 0.831095
0.950222 1.000000 0.970217
0.806101 1.000000 0.718857
0.435661 1.000000 0.909713
0.504408 1.000000 0.873865
0.495416 1.000000 0.783859
0.555566 1.000000 0.762273
0.833933 1.000000 0.706777
0.562061 1.000000 0.896939
0.987635 1.000000 0.944497
0.583255 1.000000 0.803677
0.995378 1.000000 0.911139
0.447188 1.000000 0.827814
0.729507 1.000000 0.711987
0.610619 1.000000 0.926780
0.622997 1.000000 0.860689
0.660143 1.000000 0.844484
0.413267 1.000000 0.799096
0.421740 1.000000 0.767343
0.189644 1.000000 0.844912
0.926108 1.000000 0.890455
0.538122 1.000000 0.850260
0.777048 1.000000 0.714652
0.562708 1.000000 0.790479
0.600439 1.000000 0.695740
0.729236 1.000000 0.884632
0.165425 1.000000 0.851884
0.461225 1.000000 0.731140
0.216996 1.000000 0.857182
0.250607 1.000000 0.863953
0.997103 1.000000 0.810007
0.276037 1.000000 0.905253
0.971206 1.000000 0.574495
0.377874 1.000000 0.933372
0.623468 1.000000 0.705173
0.330727 1.000000 0.944993
0.525302 1.000000 0.870652
0.852162 1.000000 0.609843
0.550841 1.000000 0.971698
0.921076 1.000000 0.737153
0.353482 1.000000 0.985906
0.390297 1.000000 0.792056
0.336586 1.000000 0.876903
0.656762 1.000000 0.728245
0.779166 1.000000 0.712321
0.949686 1.000000 0.611291
0.609764 1.000000 0.903693
0.611332 1.000000 0.782515
0.956726 1.000000 0.876351
0.636564 1.000000 0.991988
0.481746 1.000000 0.951472
0.708475 1.000000 0.667358
0.690637 1.000000 0.956839
0.672297 1.000000 0.729413
0.994964 1.000000 0.932643
0.337199 1.000000 0.951025
0.321102 1.000000 0.842178
0.158688 1.000000 0.948606
0.911765 1.000000 0.630344
0.947293 1.000000 0.801278
0.638110 1.000000 0.708678
0.726658 1.000000 0.945774
0.539042 1.000000 0.782207
0.634587 1.000000 0.743877
0.950501 1.000000 0.820234
0.190962 1.000000 0.900976
0.651437 1.000000 0.940562
0.736822 1.000000 0.664264
0.896724 1.000000 0.838049
0.126824 1.000000 0.985871
0.947730 1.000000 0.984451
0.678435 1.000000 0.971718
0.588722 1.000000 0.743170
0.846236 1.000000 0.843585
0.866585 1.000000 0.774851
0.936054 1.000000 0.622676
0.173607 1.000000 0.897742
0.521990 1.000000 0.843098
0.738679 1.000000 0.862440
0.448615 1.000000 0.734835
0.786277 1.000000 0.727643
0.170048 1.000000 0.897306
0.700234 1.000000 0.941841
0.283022 1.000000 0.825674
0.978069 1.000000 0.780092
0.993580 1.000000 0.778025
0.380771 1.000000 0.852093
0.588847 1.000000 0.945588
0.546351 1.000000 0.721318
0.205190 1.000000 0.923041
0.236875 1.000000 0.882650
0.916697 1.000000 0.837266
0.917357 1.000000 0.723196
0.840906 1.000000 0.679535
0.221347 1.000000 0.840027
0.293438 1.000000 0.990761
0.415531 1.000000 0.894394
0.754766 1.000000 0.648026
0.285302 1.000000 0.986833
0.974061 1.000000 0.889036
0.836013 1.000000 0.918252
0.938161 1.000000 0.809106
0.665220 1.000000 0.666018
0.738120 1.000000 0.956013
0.763269 1.000000 0.771511
0.619582 1.000000 0.740736
0.968812 1.000000 0.699539
0.878452 1.000000 0.867083
0.782245 1.000000 0.651804
0.340389 1.000000 0.784292
0.547524 1.000000 0.818388
0.606358 1.000000 0.768915
0.528499 1.000000 0.892585
0.926590 1.000000 0.985336
0.479350 1.000000 0.900282
0.581105 1.000000 0.730794
0.207938 1.000000 0.989289
0.988851 1.000000 0.752808
0.345646 1.000000 0.858010
0.999847 1.000000 0.725337
0.981293 1.000000 0.603461
0.717505 1.000000 0.879809
0.130370 1.000000 0.990296
0.298144 1.000000 0.857314
0.421933 1.000000 0.823662
0.390729 1.000000 0.976919
0.996845 1.000000 0.766233
0.675669 1.000000 0.868695
0.684246 1.000000 0.906452
0.857420 1.000000 0.969767
0.563374 1.000000 0.840919
0.159740 1.000000 0.926438
0.844177 1.000000 0.647402
0.590412 1.000000 0.759418
0.531227 1.000000 0.753819
0.969543 1.000000 0.857485
0.391578 1.000000 0.792265
0.902394 1.000000 0.721985
0.631646 1.000000 0.683199
0.947548 1.000000 0.601978
0.382758 1.000000 0.955993
0.199598 1.000000 0.912567
0.970861 1.000000 0.656894
0.541375 1.000000 0.765480
0.167944 1.000000 0.893594
0.694964 1.000000 0.816233
0.648989 1.000000 0.710488
0.756039 1.000000 0.886744
0.990809 1.000000 0.776247
0.837682 1.000000 0.926468
0.960183 1.000000 0.645546
0.764408 1.000000 0.979084
0.404726 1.000000 0.918506
0.191189 1.000000 0.863832
0.777322 1.000000 0.768786
0.868067 1.000000 0.666477
0.155377 1.000000 0.976563
0.800232 1.000000 0.940184
0.919909 1.000000 0.929256
0.694362 1.000000 0.679912
0.369472 1.000000 0.943287
0.810258 1.000000 0.642398
0.801814 1.000000 0.940089
0.358233 1.000000 0.912386
0.541570 1.000000 0.733111
0.296340 1.000000 0.884207
0.806355 1.000000 0.786204
0.908857 1.000000 0.594700
0.658418 1.000000 0.886459
0.778908 1.000000 0.976941
0.460314 1.000000 0.795140
0.556553 1.000000 0.981526
0.839164 1.000000 0.953005
0.668891 1.000000 0.979427
0.324702 1.000000 0.819417
0.764510 1.000000 0.796525
0.669992 1.000000 0.901281
0.492659 1.000000 0.777450
0.900468 1.000000 0.931372
0.578845 1.000000 0.953405
0.642528 1.000000 0.901035
0.582451 1.000000 0.705798
0.799169 1.000000 0.817543
0.503701 1.000000 0.875012
0.944882 1.000000 0.924638
0.731075 1.000000 0.969859
0.348432 1.000000 0.890198
0.981873 1.000000 0.795884
0.906686 1.000000 0.968566
0.429096 1.000000 0.824145
0.519400 1.000000 0.960955
0.635708 1.000000 0.948832
0.727528 1.000000 0.722529
0.984504 1.000000 0.569975
0.631043 1.000000 0.860441
0.272294 1.000000 0.846097
0.293436 1.000000 0.906341
0.440370 1.000000 0.822902
0.741184 1.000000 0.731535
0.922289 1.000000 0.980834
0.404301 1.000000 0.836700
0.767808 1.000000 0.812308
0.393388 1.000000 0.868990
0.672067 1.000000 0.740451
0.303309 1.000000 0.859484
0.722591 1.000000 0.668692
0.918855 1.000000 0.665004
0.092775 1.000000 0.935210
0.285743 1.000000 0.920898
0.120577 1.000000 0.880515
0.260306 1.000000 0.915206
0.488576 1.000000 0.868526
0.788193 1.000000 0.859294
0.573292 1.000000 0.823173
0.697053 1.000000 0.824035
0.178020 1.000000 0.995533
0.619756 1.000000 0.737081
0.453389 1.000000 0.975257
0.592707 1.000000 0.921758
0.626746 1.000000 0.724893
0.543848 1.000000 0.932219
0.297327 1.000000 0.881936
0.855006 1.000000 0.851364
0.375048 1.000000 0.975864
0.398473 1.000000 0.910666
0.832479 1.000000 0.724440
0.891124 1.000000 0.810690
0.911677 1.000000 0.880551
0.719086 1.000000 0.995371
0.477442 1.000000 0.927201
0.904975 1.000000 0.971756
0.476920 1.000000 0.872262
0.616273 1.000000 0.808988
0.526028 1.000000 0.763881
0.504539 1.000000 0.905155
0.613461 1.000000 0.948099
0.762879 1.000000 0.780802
0.623198 1.000000 0.823303
0.869529 1.000000 0.906744
0.603667 1.000000 0.964797
0.865619 1.000000 0.805754
0.817109 1.000000 0.784721
0.607916 1.000000 0.689021
0.605508 1.000000 0.692088
0.544976 1.000000 0.798125
0.928931 1.000000 0.673854
0.941757 1.000000 0.990916
0.584631 1.000000 0.737773
0.443555 1.000000 0.828256
0.343051 1.000000 0.994777
0.648033 1.000000 0.865277
0.420718 1.000000 0.826875
0.901072 1.000000 0.824030
0.786618 1.000000 0.651098
0.985925 1.000000 0.597616
0.422729 1.000000 0.904976
0.600093 1.000000 0.822268
0.439929 1.000000 0.819127
0.142135 1.000000 0.861091
0.900191 1.000000 0.665430
0.439647 1.000000 0.930604
0.726467 1.000000 0.862635
0.408181 1.000000 0.814100
0.465121 1.000000 0.962169
0.841200 1.000000 0.926960
0.756483 1.000000 0.764130
0.133918 1.000000 0.928588
0.990465 1.000000 0.913076
0.007541 1.000000 0.995965
0.757096 1.000000 0.718348
0.833978 1.000000 0.836971
0.280288 1.000000 0.977962
0.489885 1.000000 0.989835
0.756559 1.000000 0.853027
0.674234 1.000000 0.873705
0.461007 1.000000 0.787275
0.819846 1.000000 0.933532
0.396851 1.000000 0.909030
0.153545 1.000000 0.983382
0.689490 1.000000 0.710285
0.979651 1.000000 0.626011
0.303557 1.000000 0.982713
0.647715 1.000000 0.851385
0.081121 1.000000 0.980218
0.740631 1.000000 0.926000
0.841065 1.000000 0.615335
0.422311 1.000000 0.855308
0.728264 1.000000 0.843172
0.742845 1.000000 0.998633
0.589876 1.000000 0.745044
0.809172 1.000000 0.965516
0.817903 1.000000 0.951596
0.239100 1.000000 0.836045
0.491452 1.000000 0.950950
0.478750 1.000000 0.746378
0.893332 1.000000 0.877426
0.719653 1.000000 0.681592
0.666086 1.000000 0.992741
0.265267 1.000000 0.957004
0.403234 1.000000 0.773342
0.883523 1.000000 0.908783
0.499482 1.000000 0.875944
0.553610 1.000000 0.806553
0.841512 1.000000 0.631509
0.365789 1.000000 0.816132
0.918892 1.000000 0.931320
0.562303 1.000000 0.748683
0.586731 1.000000 0.846143
0.734513 1.000000 0.774266
0.444501 1.000000 0.987980
0.518910 1.000000 0.867855
0.537020 1.000000 0.928492
0.527005 1.000000 0.908844
0.395311 1.000000 0.953912
0.741014 1.000000 0.950067
0.990307 1.000000 0.876991
0.635714 1.000000 0.892681
0.808889 1.000000 0.837625
0.797925 1.000000 0.651093
0.869177 1.000000 0.848018
0.971484 1.000000 0.702988
0.830029 1.000000 0.708066
0.188222 1.000000 0.820766
0.362336 1.000000 0.946293
0.996045 1.000000 0.845849
0.483273 1.000000 0.888113
0.884957 1.000000 0.628150
0.707847 1.000000 0.701853
0.706199 1.000000 0.981415
0.864765 1.000000 0.640091
0.069573 1.000000 0.975570
0.132326 1.000000 0.908431
0.839619 1.000000 0.889026
0.149073 1.000000 0.901982
0.750059 1.000000 0.728581
0.301352 1.000000 0.908349
0.983703 1.000000 0.894164
0.640605 1.000000 0.936303
0.421265 1.000000 0.762081
0.508790 1.000000 0.952908
0.836890 1.000000 0.890209
0.517911 1.000000 0.726305
0.923134 1.000000 0.765542
0.939280 1.000000 0.852926
0.962050 1.000000 0.581771
0.483555 1.000000 0.977986
0.995459 1.000000 0.927668
0.766376 1.000000 0.946167
0.265654 1.000000 0.869594
0.205353 1.000000 0.888256
0.349377 1.000000 0.933615
0.164409 1.000000 0.917584
0.290156 1.000000 0.932609
0.984169 1.000000 0.852848
0.982221 1.000000 0.822196
0.888890 1.000000 0.653732
0.881210 1.000000 0.850517
0.312100 1.000000 0.915731
0.596030 1.000000 0.935279
0.662047 1.000000 0.718132
0.861345 1.000000 0.943866
0.943718 1.000000 0.932145
0.226046 1.000000 0.866903
0.384032 1.000000 0.771028
0.280979 1.000000 0.926802
0.775790 1.000000 0.949832
0.437926 1.000000 0.864117
0.380614 1.000000 0.905794
0.741872 1.000000 0.684444
0.590223 1.000000 0.857657
0.915687 1.000000 0.847551
0.671827 1.000000 0.947376
0.809282 1.000000 0.652741
0.378943 1.000000 0.791545
0.640591 1.000000 0.680482
0.423899 1.000000 0.896986
0.822465 1.000000 0.781035
0.699270 1.000000 0.772775
0.976221 1.000000 0.688449
0.715855 1.000000 0.865891
0.127189 1.000000 0.928771
0.993291 1.000000 0.907713
0.450073 1.000000 0.893385
0.422373 1.000000 0.940326
0.295812 1.000000 0.929244
0.776233 1.000000 0.957455
0.457108 1.000000 0.955067
0.684622 1.000000 0.972213
0.296334 1.000000 0.877492
0.359536 1.000000 0.771018
0.940931 1.000000 0.612115
0.644853 1.000000 0.981976
0.516438 1.000000 0.846094
0.617848 1.000000 0.964912
0.942388 1.000000 0.629466
0.406447 1.000000 0.949711
0.152272 1.000000 0.879753
0.696800 1.000000 0.663352
0.838838 1.000000 0.910740
0.182193 1.000000 0.961776
0.729572 1.000000 0.959299
0.898527 1.000000 0.990321
0.792742 1.000000 0.828183
0.895030 1.000000 0.827329
0.632674 1.000000 0.943768
0.360155 1.000000 0.773063
0.554301 1.000000 0.833017
0.405063 1.000000 0.915101
0.386950 1.000000 0.988638
0.492753 1.000000 0.892000
0.655604 1.000000 0.963843
0.571383 1.000000 0.825682
0.954000 1.000000 0.904479
0.816726 1.000000 0.719771
0.673415 1.000000 0.846749
0.975565 1.000000 0.583289
0.490135 1.000000 0.745251
0.845727 1.000000 0.712699
0.241390 1.000000 0.861689
0.906925 1.000000 0.805460
0.680045 1.000000 0.812186
0.449450 1.000000 0.984094
0.645405 1.000000 0.812322
0.617704 1.000000 0.979584
0.872753 1.000000 0.676869
0.673555 1.000000 0.906729
0.297862 1.000000 0.896618
0.923903 1.000000 0.880837
0.742627 1.000000 0.893537
0.550670 1.000000 0.823940
0.862216 1.000000 0.871034
0.648593 1.000000 0.841866
0.275069 1.000000 0.943864
0.959252 1.000000 0.768635
0.798532 1.000000 0.787583
0.098539 1.000000 0.949299
0.413989 1.000000 0.944832
0.728109 1.000000 0.714844
0.896297 1.000000 0.664688
0.795367 1.000000 0.626483
0.748979 1.000000 0.968768
0.459349 1.000000 0.838397
0.798936 1.000000 0.911443
0.828502 1.000000 0.744077
0.887624 1.000000 0.790906
0.902971 1.000000 0.683164
0.354088 1.000000 0.925420
0.428953 1.000000 0.769492
0.234086 1.000000 0.843343
0.661221 1.000000 0.974602
0.904010 1.000000 0.645275
0.573437 1.000000 0.826926
0.558363 1.000000 0.794806
0.048992 1.000000 0.972611
0.724663 1.000000 0.805530
0.914050 1.000000 0.904430
0.201191 1.000000 0.901834
0.991893 1.000000 0.687797
0.672540 1.000000 0.791611
0.505095 1.000000 0.823392
0.239113 1.000000 0.811923
0.823991 1.000000 0.898977
0.973780 1.000000 0.955268
0.437222 1.000000 0.909421
0.319072 1.000000 0.960540
0.603666 1.000000 0.800379
0.613897 1.000000 0.865398
0.670946 1.000000 0.689535
0.952614 1.000000 0.668337
0.939752 1.000000 0.604053
0.822582 1.000000 0.637558
0.660939 1.000000 0.891721
0.679361 1.000000 0.829860
0.372810 1.000000 0.813741
0.574322 1.000000 0.889196
0.881870 1.000000 0.655853
0.639039 1.000000 0.924706
0.746582 1.000000 0.733401
0.092744 1.000000 0.976319
0.842419 1.000000 0.845260
0.303320 1.000000 0.826656
0.761720 1.000000 0.813661
0.241422 1.000000 0.925741
0.895267 1.000000 0.717660
0.560012 1.000000 0.711157
0.242391 1.000000 0.855838
0.947906 1.000000 0.734942
0.329442 1.000000 0.844329
0.324960 1.000000 0.963462
0.864279 1.000000 0.714588
0.451224 1.000000 0.831808
0.432227 1.000000 0.772376
0.564346 1.000000 0.889150
0.576528 1.000000 0.850563
0.164405 1.000000 0.939964
0.523887 1.000000 0.907822
0.621441 1.000000 0.713087
0.753632 1.000000 0.859915
0.459917 1.000000 0.982900
0.425713 1.000000 0.857543
0.676624 1.000000 0.806093
0.155134 1.000000 0.880851
0.922173 1.000000 0.704656
0.471450 1.000000 0.995899
0.389140 1.000000 0.956324
0.912208 1.000000 0.594626
0.916875 1.000000 0.608559
0.742100 1.000000 0.741318
0.749968 1.000000 0.870671
0.790092 1.000000 0.661609
0.645428 1.000000 0.703316
0.927082 1.000000 0.590670
0.257338 1.000000 0.822381
0.992661 1.000000 0.849730
0.753110 1.000000 0.996884
0.426820 1.000000 0.913861
0.792335 1.000000 0.759690
0.201287 1.000000 0.978030
0.687591 1.000000 0.940085
0.728865 1.000000 0.716332
0.826589 1.000000 0.799812
0.939585 1.000000 0.621910
0.173895 1.000000 0.884115
0.312627 1.000000 0.987751
0.804393 1.000000 0.788857
0.518382 1.000000 0.815202
0.550165 1.000000 0.918252
0.633814 1.000000 0.866639
0.171198 1.000000 0.962080
0.472384 1.000000 0.796686
0.946354 1.000000 0.928615
0.772373 1.000000 0.887421
0.871998 1.000000 0.718806
0.239891 1.000000 0.913003
0.952761 1.000000 0.845962
0.604608 1.000000 0.879153
0.957282 1.000000 0.964955
0.936986 1.000000 0.585017
0.852962 1.000000 0.743947
0.997109 1.000000 0.590084
0.782104 1.000000 0.696979
0.167926 1.000000 0.957238
0.485437 1.000000 0.989246
0.963618 1.000000 0.727766
0.806317 1.000000 0.686613
0.970625 1.000000 0.884720
0.910702 1.000000 0.851757
0.124388 1.000000 0.908029
0.505631 1.000000 0.980435
0.995213 1.000000 0.786333
0.477698 1.000000 0.738593
0.798070 1.000000 0.895836
0.945733 1.000000 0.876426
0.727239 1.000000 0.861200
0.984488 1.000000 0.583180
0.266128 1.000000 0.847976
0.902450 1.000000 0.612568
0.757733 1.000000 0.857848
0.810570 1.000000 0.819458
0.205918 1.000000 0.920439
0.939339 1.000000 0.861647
0.491409 1.000000 0.895414
0.502764 1.000000 0.882807
0.532230 1.000000 0.992548
0.852134 1.000000 0.923195
0.319110 1.000000 0.968613
0.278472 1.000000 0.788542
0.187651 1.000000 0.837283
0.709148 1.000000 0.993094
0.508960 1.000000 0.957695
0.852786 1.000000 0.698729
0.543840 1.000000 0.917161
0.872116 1.000000 0.719409
0.421006 1.000000 0.888401
0.403207 1.000000 0.919309
0.554210 1.000000 0.970374
0.713569 1.000000 0.853552
0.942983 1.000000 0.686967
0.819121 1.000000 0.728869
0.517765 1.000000 0.933800
0.377343 1.000000 0.756366
0.083485 1.000000 0.964413
0.920497 1.000000 0.984026
0.405224 1.000000 0.902560
0.820868 1.000000 0.797969
0.263557 1.000000 0.949851
0.724844 1.000000 0.702403
0.752500 1.000000 0.664919
0.764907 1.000000 0.875243
0.694705 1.000000 0.971452
0.651329 1.000000 0.947642
0.832717 1.000000 0.638869
0.144760 1.000000 0.861003
0.829058 1.000000 0.650917
0.869574 1.000000 0.793240
0.315933 1.000000 0.891901
0.750201 1.000000 0.981897
0.471960 1.000000 0.852233
0.708264 1.000000 0.772980
0.746834 1.000000 0.953690
0.038581 1.000000 0.988996
0.885001 1.000000 0.595564
0.977332 1.000000 0.881595
0.595487 1.000000 0.954013
0.975517 1.000000 0.912470
0.663156 1.000000 0.979056
0.490360 1.000000 0.980594
0.675489 1.000000 0.671354
0.483082 1.000000 0.795060
0.571710 1.000000 0.763016
0.076535 1.000000 0.978893
0.799156 1.000000 0.849800
0.321327 1.000000 0.937838
0.412344 1.000000 0.975822
0.655730 1.000000 0.686064
0.302811 1.000000 0.860641
0.498065 1.000000 0.965438
0.231270 1.000000 0.966245
0.117188 1.000000 0.996570
0.576931 1.000000 0.909364
0.784863 1.000000 0.715301
0.914439 1.000000 0.770785
0.212110 1.000000 0.810262
0.382404 1.000000 0.897036
0.806780 1.000000 0.741984
0.690184 1.000000 0.728530
0.653986 1.000000 0.990073
0.765515 1.000000 0.804171
0.578219 1.000000 0.752674
0.193313 1.000000 0.840521
0.870560 1.000000 0.939990
0.657970 1.000000 0.957684
0.016538 1.000000 0.993447
0.809548 1.000000 0.640811
0.931557 1.000000 0.664064
0.710250 1.000000 0.946755
0.523243 1.000000 0.848358
0.859951 1.000000 0.662098
0.192737 1.000000 0.835016
0.952229 1.000000 0.887454
0.946694 1.000000 0.815289
0.719311 1.000000 0.968668
0.845023 1.000000 0.714161
0.992464 1.000000 0.977774
0.595201 1.000000 0.820609
0.940350 1.000000 0.902584
0.845518 1.000000 0.712508
0.628017 1.000000 0.793769
0.298426 1.000000 0.915030
0.616338 1.000000 0.866810
0.225587 1.000000 0.846962
0.768442 1.000000 0.914760
0.558641 1.000000 0.980510
0.835483 1.000000 0.764518
0.994595 1.000000 0.897991
0.531891 1.000000 0.852164
0.756493 1.000000 0.671536
0.594433 1.000000 0.733681
0.843787 1.000000 0.704186
0.828140 1.000000 0.690446
0.845692 1.000000 0.885341
0.726399 1.000000 0.893084
0.806238 1.000000 0.847058
0.823181 1.000000 0.783288
0.974555 1.000000 0.684959
0.847739 1.000000 0.882465
0.387157 1.000000 0.831554
0.892706 1.000000 0.655681
0.641092 1.000000 0.834617
0.732222 1.000000 0.934410
0.968042 1.000000 0.945470
0.602642 1.000000 0.903654
0.922030 1.000000 0.739325
0.860022 1.000000 0.713186
0.832525 1.000000 0.628077
0.726679 1.000000 0.794030
0.850581 1.000000 0.672895
0.630599 1.000000 0.865468
0.886488 1.000000 0.629725
0.625626 1.000000 0.922346
0.897548 1.000000 0.605864
0.527197 1.000000 0.994535
0.265761 1.000000 0.874842
0.357837 1.000000 0.911807
0.244095 1.000000 0.876557
0.258382 1.000000 0.856375
0.187097 1.000000 0.842083
0.625165 1.000000 0.990115
0.796325 1.000000 0.726143
0.575213 1.000000 0.887375
0.418308 1.000000 0.861641
0.876412 1.000000 0.811189
0.522230 1.000000 0.923004
0.733207 1.000000 0.778437
0.717919 1.000000 0.857224
0.107466 1.000000 0.955981
0.664718 1.000000 0.737473
0.304481 1.000000 0.796264
0.463101 1.000000 0.812281
0.394910 1.000000 0.968432
0.672579 1.000000 0.760410
0.759939 1.000000 0.746607
0.436147 1.000000 0.962845
0.145578 1.000000 0.884466
0.583071 1.000000 0.751377
0.364439 1.000000 0.891558
0.746973 1.000000 0.753600
0.415942 1.000000 0.774260
0.947964 1.000000 0.930949
0.328078 1.000000 0.984655
0.688422 1.000000 0.870900
0.862627 1.000000 0.731140
0.945980 1.000000 0.746658
0.203806 1.000000 0.862772
0.798602 1.000000 0.672544
0.217571 1.000000 0.861553
0.392621 1.000000 0.930564
0.769217 1.000000 0.738777
0.384463 1.000000 0.949648
0.359600 1.000000 0.821432
0.875561 1.000000 0.922611
0.863700 1.000000 0.621648
0.854736 1.000000 0.707195
0.962375 1.000000 0.862124
0.624159 1.000000 0.990458
0.260809 1.000000 0.929118
0.353666 1.000000 0.887437
0.891049 1.000000 0.967174
0.668563 1.000000 0.714135
0.491704 1.000000 0.813002
0.353503 1.000000 0.963799
0.790700 1.000000 0.679923
0.715367 1.000000 0.858002
0.425578 1.000000 0.740122
0.629135 1.000000 0.747467
0.769289 1.000000 0.702951
0.689005 1.000000 0.681265
0.806568 1.000000 0.936335
0.993493 1.000000 0.781424
0.882853 1.000000 0.667045
0.943617 1.000000 0.623563
0.815082 1.000000 0.860223
0.520511 1.000000 0.933779
0.933702 1.000000 0.776731
0.886298 1.000000 0.675231
0.578405 1.000000 0.953930
0.419727 1.000000 0.984296
0.961369 1.000000 0.684112
0.448240 1.000000 0.963639
0.903832 1.000000 0.653088
0.291071 1.000000 0.791535
0.307697 1.000000 0.966081
0.775329 1.000000 0.653471
0.614445 1.000000 0.804469
0.831978 1.000000 0.909882
0.693766 1.000000 0.655581
0.835733 1.000000 0.779752
0.786376 1.000000 0.855936
0.826733 1.000000 0.721619
0.432185 1.000000 0.905843
0.253170 1.000000 0.832859
0.111857 1.000000 0.987912
0.734388 1.000000 0.977218
0.271630 1.000000 0.887963
0.263070 1.000000 0.915656
0.682891 1.000000 0.789756
0.957917 1.000000 0.914459
0.139483 1.000000 0.956312
0.396956 1.000000 0.791311
0.845529 1.000000 0.647162
0.412690 1.000000 0.810914
0.369757 1.000000 0.991554
0.787447 1.000000 0.938638
0.589769 1.000000 0.826650
0.236855 1.000000 0.861631
0.696151 1.000000 0.988784
0.127181 1.000000 0.978684
0.746783 1.000000 0.969151
0.545791 1.000000 0.845255
0.756799 1.000000 0.658427
0.219819 1.000000 0.937237
0.871253 1.000000 0.673006
0.998921 1.000000 0.801446
0.350326 1.000000 0.780158
0.521415 1.000000 0.889676
0.424182 1.000000 0.875710
0.643807 1.000000 0.714996
0.325825 1.000000 0.822056
0.496665 1.000000 0.824075
0.902371 1.000000 0.721475
0.099934 1.000000 0.901293
0.941476 1.000000 0.835597
0.494480 1.000000 0.767599
0.730746 1.000000 0.778237
0.611292 1.000000 0.695676
0.741932 1.000000 0.913865
0.786636 1.000000 0.645783
0.857218 1.000000 0.631834
0.358292 1.000000 0.825907
0.508619 1.000000 0.982009
0.401380 1.000000 0.984746
0.845054 1.000000 0.862460
0.357545 1.000000 0.943841
0.879092 1.000000 0.676486
0.096129 1.000000 0.989954
0.754902 1.000000 0.743023
0.736621 1.000000 0.983044
0.915584 1.000000 0.613825
0.868840 1.000000 0.930626
0.144155 1.000000 0.932466
0.863861 1.000000 0.700249
0.692828 1.000000 0.728623
0.864605 1.000000 0.839331
0.563610 1.000000 0.877012
0.666976 1.000000 0.807932
0.903543 1.000000 0.846205
0.747504 1.000000 0.713422
0.868337 1.000000 0.984599
0.684088 1.000000 0.901406
0.887125 1.000000 0.714681
0.927402 1.000000 0.822471
0.165316 1.000000 0.971365
0.866481 1.000000 0.995472
0.471205 1.000000 0.985218
0.143116 1.000000 0.878579
0.481725 1.000000 0.833734
0.392705 1.000000 0.817854
0.686025 1.000000 0.981010
0.635969 1.000000 0.774845
0.697604 1.000000 0.752739
0.170547 1.000000 0.885694
0.727901 1.000000 0.725714
0.320088 1.000000 0.876229
0.441402 1.000000 0.932190
0.644893 1.000000 0.759904
0.502587 1.000000 0.958006
