-0.169872 -0.096054 0.489146 0
-0.584317 -0.114256 0.068229 0
0.355602 -0.027667 -0.469871 0
0.058728 0.034337 0.795498 1
-0.602687 -0.001882 -0.479389 0
0.095789 0.082669 -0.848978 0
-0.616576 -0.066452 0.073979 0
-0.501820 0.086116 0.687538 0
-0.621614 -0.058723 0.179411 0
-0.259413 -0.047347 0.652754 0
-0.218744 0.083107 0.825794 1
-0.390006 -0.039542 -0.208820 0
-0.518362 0.163919 -0.772534 0
0.318506 -0.019673 -0.694817 0
-0.736165 0.044217 -0.247199 0
0.169198 -0.092232 0.478803 1
0.613516 -0.031663 0.030133 0
-0.052323 -0.034444 0.612527 1
-0.247905 -0.093066 0.351148 0
-0.766136 0.040775 -0.104969 0
-0.717595 0.164295 -0.591055 0
-0.297153 -0.106102 -0.458661 1
0.236661 -0.052179 0.002957 0
0.643213 0.042779 0.516702 1
0.267069 -0.072938 -0.598429 0
-0.629849 -0.062168 -0.012907 0
0.797298 0.034511 -0.151745 0
0.008893 -0.044805 0.548882 1
0.153624 -0.046901 0.505409 1
-0.510113 -0.082146 0.327949 0
0.864690 0.075928 -0.102607 0
0.320558 0.058678 0.775088 1
0.045920 -0.077324 -0.511936 0
0.280676 -0.090767 -0.011357 0
0.253819 0.088354 -0.878350 0
-0.097460 0.032919 -0.831836 0
-0.098649 0.089458 -0.899090 0
-0.785182 0.112346 -0.356621 0
-0.307509 0.103019 0.820346 1
-0.064780 -0.101311 0.148629 0
0.085738 -0.037328 0.598159 1
-0.347125 0.167891 -0.878128 0
-0.413719 -0.080366 -0.270050 0
0.169399 -0.017326 -0.744750 0
-0.591799 -0.109322 0.023554 0
-0.000421 -0.061213 0.674216 1
-0.086451 -0.100670 0.263638 0
0.341242 -0.003846 0.645693 1
-0.408129 -0.056441 0.531910 0
0.292592 -0.093416 0.171070 0
-0.033875 -0.034643 -0.717897 0
-0.684110 -0.041598 -0.083830 0
0.153464 -0.035336 -0.441876 0
-0.004380 -0.044339 -0.323343 0
0.922978 0.128563 -0.314650 0
-0.337291 0.050599 0.790524 0
0.751975 0.009013 0.148407 0
0.676421 -0.062950 0.063092 0
0.073277 -0.101612 0.279722 0
-0.033732 0.102712 0.882300 1
0.327529 -0.003350 -0.725581 0
0.248780 -0.108168 0.486847 1
-0.821745 0.078933 0.104061 0
-0.579655 -0.002622 0.521990 0
0.830817 0.047628 0.077224 0
0.073455 -0.051071 0.398476 1
0.407288 0.136175 0.846019 1
0.375146 -0.047579 0.154764 0
0.375895 -0.011716 -0.558995 0
-0.625127 0.141823 0.674569 0
0.755951 0.011038 -0.124986 0
0.557422 -0.016978 0.418949 1
0.605238 0.161258 -0.773167 0
-0.269450 0.017134 0.708564 0
0.584596 -0.123547 -0.153967 0
0.280636 0.071057 -0.851093 0
0.289741 0.102523 -0.884103 0
-0.184167 -0.120173 -0.549961 0
-0.484006 -0.069923 0.392783 0
-0.267123 -0.090225 -0.081735 0
-0.413455 0.032743 0.662219 0
-0.812336 0.090709 0.232570 0
0.085715 0.082356 0.857811 1
0.882718 0.088247 0.074045 0
-0.274395 -0.139668 0.490852 0
-0.273756 -0.044430 -0.173776 0
-0.030383 -0.050997 0.428233 1
-0.555608 0.127069 -0.685620 0
0.450608 0.012150 -0.598033 0
0.253315 -0.031894 0.709720 1
-0.062188 -0.037656 -0.375884 0
-0.182119 -0.140102 0.533267 0
0.097921 -0.004942 -0.779459 0
0.357044 -0.008062 0.717152 1
-0.199604 -0.013656 -0.608669 0
0.521336 0.161621 -0.828322 0
-0.074737 0.013732 -0.807623 0
0.056157 -0.087476 -0.237494 0
0.069090 -0.090263 -0.160070 0
0.001818 -0.055358 -0.025714 0
0.443186 0.007573 -0.687730 0
0.226237 -0.019866 -0.586688 0
0.283022 -0.091871 0.030368 0
-0.188016 -0.092107 -0.105516 0
-0.543111 -0.109428 0.234580 0
-0.860146 0.139370 -0.376104 0
-0.557689 0.048611 -0.550843 0
0.388359 0.136407 0.854331 1
-0.667928 0.076331 0.498315 0
-0.651871 -0.055310 0.015620 0
0.628949 0.028610 0.586333 1
-0.464399 0.136246 -0.765984 0
-0.121524 0.114979 -0.876322 0
-0.380717 0.007677 -0.591186 0
0.198349 -0.116804 0.510728 1
0.292398 -0.038541 -0.252077 0
-0.349302 -0.121752 0.473869 0
-0.694245 0.117659 0.546811 0
0.029591 -0.098946 0.040908 0
0.615075 0.071771 0.603923 1
-0.157553 -0.094336 -0.038236 0
-0.366218 -0.127248 0.397221 0
0.416213 -0.033975 -0.345490 0
-0.685164 0.143248 0.615727 0
-0.037359 -0.100323 0.072265 0
-0.298606 -0.094470 0.412911 0
0.250383 -0.094418 0.218170 0
-0.187881 0.064980 0.859419 1
0.346184 -0.041546 -0.146816 0
0.499304 -0.026665 0.431655 1
0.479946 0.038463 -0.644565 0
-0.726697 0.020174 0.145815 0
-0.534430 -0.120872 0.053955 0
-0.765602 0.013642 -0.207587 0
-0.412964 -0.089088 0.137296 0
-0.102346 -0.026385 0.747326 1
0.134660 -0.094946 -0.626423 0
0.225203 -0.040365 0.544253 1
0.543288 -0.032875 -0.207471 0
0.732512 -0.001398 -0.073867 0
-0.614595 0.136260 -0.644955 0
0.697933 0.031285 -0.390763 0
0.558517 -0.019034 0.554878 1
0.611952 -0.031273 0.137105 0
-0.467027 0.013495 -0.544731 0
0.775898 0.051846 -0.312187 0
-0.422647 -0.096101 -0.318828 0
-0.259946 0.082622 -0.799440 0
0.760395 -0.017075 -0.206238 0
0.405138 -0.033172 0.483442 1
-0.671051 0.015657 0.443541 0
0.000463 -0.059109 0.680222 1
-0.493624 -0.100047 0.334676 0
-0.377260 -0.091688 0.168150 0
-0.044102 -0.056373 0.304041 0
0.070133 0.132723 0.951912 1
0.321116 -0.077691 -0.570388 0
0.693939 0.001191 -0.249596 0
0.138009 -0.092875 -0.039275 0
-0.248179 0.014097 -0.677822 0
0.338345 -0.051117 0.626931 1
0.067820 -0.035564 -0.453003 0
-0.375519 0.066706 0.792626 0
0.772481 -0.017032 -0.159787 0
-0.280881 -0.085974 -0.226451 0
-0.410569 0.088726 0.801176 0
-0.799905 0.083900 0.247905 0
0.136696 -0.055003 0.035476 0
0.722899 0.124037 0.645575 1
0.338254 -0.092091 0.412967 1
0.867821 0.082089 0.139159 0
-0.600557 -0.012878 -0.236506 0
-0.461313 -0.001085 -0.499263 0
0.616141 0.030730 0.519428 1
-0.790403 0.138744 0.499964 0
-0.111609 0.000749 0.719868 1
-0.730971 -0.022982 -0.014965 0
-0.514968 0.108459 -0.750648 0
-0.309308 0.024631 0.705274 0
0.011831 -0.047349 -0.684889 0
0.832835 0.028683 -0.221044 0
0.631723 -0.053713 0.322708 0
0.370403 -0.081779 -0.224594 0
-0.172681 -0.039990 0.702145 1
-0.668314 -0.037734 0.218025 0
0.686573 0.081661 0.544168 1
-0.874560 0.125120 -0.086980 0
0.215753 -0.042776 -0.273446 0
0.226523 0.009528 -0.696010 0
-0.675688 -0.044486 0.108201 0
-0.598075 -0.012602 -0.245154 0
0.272445 -0.091628 0.013247 0
-0.238704 0.128513 0.878227 1
0.567783 -0.045668 -0.432908 0
0.288666 0.012267 -0.683213 0
-0.255786 -0.086161 -0.473079 0
-0.016244 -0.098062 -0.013911 0
-0.932812 0.140099 -0.082314 0
0.759447 0.014348 -0.143477 0
0.047707 0.089380 -0.859614 0
-0.513578 -0.131417 0.187038 0
-0.666945 0.056906 0.540276 0
-0.724031 0.161533 -0.574139 0
0.140881 -0.080752 -0.356484 0
-0.116827 -0.037869 -0.373290 0
0.191930 -0.031651 -0.501008 0
-0.923397 0.156330 -0.080031 0
0.675504 0.012509 0.377458 1
0.432459 -0.044758 -0.561566 0
0.188558 -0.098894 0.176336 0
0.724059 -0.046613 0.039777 0
0.500513 -0.082984 -0.097895 0
-0.263075 -0.114912 0.456287 0
0.219124 -0.095055 0.103005 0
0.143754 -0.047835 0.700711 1
0.228008 0.162224 -0.948655 0
-0.734376 0.145157 0.568581 0
0.101160 -0.129531 0.550239 1
0.403196 -0.008160 0.693495 1
0.448576 -0.079615 -0.259580 0
0.505234 -0.048563 0.517386 1
-0.699839 0.086655 0.473809 0
0.921069 0.109655 -0.249115 0
0.636101 -0.091084 0.142431 0
-0.670150 0.023240 0.342454 0
-0.077017 -0.046021 -0.297086 0
0.676072 0.061079 -0.506849 0
0.003723 -0.055906 0.000970 0
-0.768671 0.058446 -0.213479 0
0.238526 -0.050090 0.279228 1
0.287392 -0.093120 0.291096 1
0.805132 0.086190 -0.357115 0
0.325345 -0.099431 -0.557232 0
0.170183 -0.094520 0.344572 1
-0.392106 -0.115314 0.347176 0
0.018530 0.097870 -0.917350 0
-0.472227 -0.120953 -0.289989 0
-0.496137 -0.037859 -0.488229 0
0.349093 -0.049689 0.033621 0
0.695167 0.116074 0.597269 1
0.504553 -0.036782 -0.191984 0
0.329708 -0.076370 0.555750 1
-0.177953 0.151697 -0.952043 0
-0.463508 0.030156 -0.592286 0
0.410591 -0.115812 0.474400 1
0.709452 -0.046214 -0.135919 0
-0.045581 -0.101680 0.324478 0
0.031442 0.030094 0.789451 1
-0.844130 0.156218 -0.355752 0
-0.118424 -0.085451 -0.293126 0
-0.318186 -0.044961 -0.073892 0
-0.064537 0.059847 -0.815103 0
-0.324259 -0.036722 -0.335884 0
0.519575 -0.081283 -0.153818 0
0.549938 -0.055617 0.441460 1
-0.696610 -0.033081 -0.131051 0
0.129606 -0.127109 0.588688 1
-0.530164 0.137055 0.747214 0
-0.674007 0.055807 -0.417335 0
-0.886529 0.119913 -0.232533 0
0.255456 0.043287 0.829302 1
-0.149588 -0.054074 -0.065176 0
-0.199021 -0.055771 0.132987 0
0.322207 0.068455 -0.778771 0
0.826194 0.128343 -0.510980 0
-0.115847 -0.092501 0.488185 1
0.355882 -0.045810 -0.058862 0
-0.165292 -0.050347 0.333368 0
0.324152 -0.092356 0.280936 1
0.685946 -0.048360 -0.201728 0
0.702522 0.075889 0.512341 1
-0.110617 0.130395 -0.941424 0
0.418199 -0.052078 -0.544698 0
0.164245 -0.076469 -0.473656 0
0.397488 -0.089605 0.043699 0
0.824588 0.057568 -0.191132 0
-0.836607 0.156801 -0.374967 0
-0.734140 -0.007515 -0.194348 0
0.608273 -0.024358 0.278004 0
-0.783935 0.121481 0.409743 0
-0.900748 0.142256 -0.020669 0
0.522523 0.086020 0.760051 1
-0.100824 0.128619 0.908440 1
0.747347 0.019307 0.248679 0
0.438256 0.045229 0.698122 1
0.025628 -0.009923 0.787329 1
-0.394523 -0.039307 0.405363 0
-0.803291 0.065953 -0.302900 0
-0.556799 0.133911 -0.753035 0
0.537702 0.013248 0.557903 1
-0.494093 0.068407 0.723773 0
0.011152 -0.115685 0.538091 1
-0.489830 -0.118839 0.200215 0
-0.106930 -0.006181 0.703774 1
0.387164 0.037053 0.711783 1
0.747635 -0.020895 -0.220683 0
-0.779423 0.063349 -0.200352 0
0.597816 -0.106899 0.235848 0
-0.674736 -0.041428 0.157038 0
0.030181 0.140752 0.946870 1
0.680531 -0.012725 -0.152706 0
0.353936 -0.092626 0.287986 1
-0.356763 -0.007948 -0.549812 0
0.627650 -0.093715 0.168771 0
-0.147505 0.045844 -0.778572 0
0.617718 -0.030331 -0.039081 0
-0.182022 -0.081231 -0.372299 0
-0.569679 -0.026200 -0.157538 0
-0.564341 -0.127553 -0.102028 0
0.925696 0.149109 0.259439 0
-0.714441 -0.030361 0.050129 0
0.043710 -0.049990 0.475355 1
-0.754701 0.111628 0.438066 0
-0.813958 0.028266 0.008400 0
-0.195811 -0.119387 -0.571158 0
0.109265 0.074667 0.846480 1
-0.828951 0.154853 -0.451910 0
0.664628 -0.073706 -0.007074 0
0.801873 0.007914 -0.220607 0
-0.083663 -0.048567 0.490553 1
-0.244735 0.145335 -0.882910 0
-0.533633 -0.026649 -0.236529 0
-0.358630 0.032056 -0.670550 0
-0.153159 -0.051648 -0.148608 0
0.564308 -0.008311 0.453822 1
-0.885305 0.131816 0.065202 0
0.036851 -0.079720 -0.420273 0
0.038100 -0.127290 0.553200 1
-0.686415 0.027347 0.448598 0
0.397934 0.118663 0.822431 1
0.387137 -0.038147 0.460980 1
0.263878 -0.006239 -0.743138 0
0.136826 0.029710 0.836701 1
-0.831063 0.062720 0.211904 0
0.177929 -0.042577 0.542952 1
-0.311354 -0.039967 0.646895 0
0.645558 -0.024485 -0.058042 0
-0.740458 0.127529 -0.474241 0
0.036424 0.062919 0.835782 1
0.690943 -0.011770 -0.125661 0
0.522675 -0.083910 0.384565 1
-0.089144 -0.050526 0.428202 1
0.865339 0.097919 -0.368020 0
-0.547709 -0.128610 -0.075288 0
0.823928 0.001818 0.043417 0
-0.328126 0.049091 0.738589 0
0.290990 0.124280 0.870639 1
-0.148167 -0.092151 -0.132043 0
-0.747998 0.004320 0.231173 0
0.686818 -0.054368 0.168426 0
0.257442 -0.008230 0.672133 1
-0.428442 -0.081009 -0.243071 0
0.634474 -0.116337 0.064878 0
-0.011299 -0.049086 -0.206454 0
0.897408 0.149406 -0.331809 0
-0.499017 0.102837 -0.695390 0
-0.102911 -0.137552 0.549648 1
-0.758077 0.040134 0.346537 0
0.492467 -0.086283 0.074796 0
0.412441 0.160859 -0.869208 0
-0.789521 0.123888 0.494800 0
-0.029097 -0.087331 -0.272014 0
-0.723050 0.039239 -0.404033 0
0.746166 -0.033962 -0.104205 0
-0.367191 -0.018376 -0.496607 0
0.610701 0.003023 -0.409614 0
0.376236 0.000689 -0.608278 0
0.121008 -0.076525 -0.532548 0
0.375130 -0.122223 -0.488045 0
-0.725957 0.014530 0.041460 0
-0.542130 0.082228 -0.628666 0
-0.594544 0.173538 -0.722182 0
-0.342548 -0.046488 0.103505 0
-0.046088 0.069496 -0.831004 0
-0.609345 0.041453 -0.471419 0
-0.479308 -0.137000 0.290191 0
-0.497147 -0.085683 0.001385 0
-0.656185 0.082176 -0.504706 0
0.852258 0.021823 -0.060026 0
-0.210428 -0.054877 0.046771 0
0.302970 -0.010787 -0.601257 0
-0.579763 -0.020086 0.268267 0
0.723712 0.050211 0.420372 1
0.579502 -0.029721 -0.189279 0
0.017665 -0.100170 0.024096 0
0.144578 -0.113922 0.524621 1
0.200978 -0.092954 0.422795 1
-0.001369 -0.094396 -0.039157 0
-0.216115 0.021041 0.735896 1
-0.210515 -0.060476 0.634691 1
0.778438 0.105407 -0.455400 0
0.271937 -0.078573 -0.360703 0
0.388593 0.022637 -0.664353 0
-0.471117 -0.084094 -0.092532 0
0.575527 -0.116316 0.093915 0
0.057631 -0.100106 0.081357 0
0.628144 -0.077440 -0.209950 0
-0.069041 -0.006235 0.787870 1
0.652008 -0.022072 -0.102068 0
-0.520967 0.079296 -0.707959 0
-0.312607 -0.087167 -0.153999 0
-0.567594 0.010845 -0.551694 0
-0.274459 0.053691 0.768066 1
-0.687423 0.014505 0.253135 0
0.973149 0.149551 0.136053 0
-0.533274 0.052599 0.670938 0
0.619612 0.054381 0.567842 1
-0.756305 0.140493 -0.559116 0
0.222614 -0.097302 -0.525576 0
-0.206749 -0.048793 -0.206203 0
0.282441 0.118960 -0.857927 0
-0.052684 0.046315 0.860516 1
-0.589116 0.044007 -0.504689 0
-0.549504 -0.014181 0.376618 0
-0.234718 -0.019389 0.626248 0
0.047898 -0.099610 0.317324 1
0.804111 0.040378 0.353320 0
-0.048051 0.015182 0.821375 1
0.840027 0.052813 0.051799 0
0.020890 -0.088926 -0.215285 0
-0.316509 -0.048214 0.200144 0
0.339908 -0.088663 -0.040448 0
0.170119 -0.056511 0.274815 1
-0.103701 -0.086240 -0.281197 0
0.032500 0.158124 -0.975885 0
0.892047 0.148356 0.356467 1
-0.579607 0.134162 0.700844 0
-0.531448 -0.026420 -0.489124 0
-0.499473 0.121855 -0.722568 0
0.637186 -0.033487 0.413108 1
0.773309 0.126098 0.589256 1
0.299301 0.047147 -0.754043 0
0.160815 -0.039539 -0.322329 0
0.106221 0.000648 0.799942 1
-0.082891 0.004092 -0.700807 0
-0.579456 -0.052051 0.339394 0
-0.265699 -0.093043 0.037852 0
-0.508601 -0.118574 -0.190213 0
-0.149711 -0.024383 -0.577511 0
-0.027510 -0.102485 0.134790 0
0.471570 -0.058211 -0.482644 0
0.356172 -0.044756 0.412403 1
0.139526 -0.047963 0.701012 1
0.184699 -0.044936 0.518144 1
-0.481101 -0.086412 -0.171888 0
-0.325892 0.077370 0.827995 0
-0.323170 0.034511 -0.766332 0
-0.782213 0.122438 0.415855 0
-0.587960 -0.114196 0.022129 0
-0.667634 0.161071 -0.638612 0
0.138414 -0.102741 0.604359 1
0.215844 -0.077058 -0.433215 0
0.245298 0.098727 0.895827 1
-0.842879 0.133905 0.308765 0
0.102229 -0.058010 0.215423 1
0.254962 0.035333 -0.746646 0
-0.238077 0.016016 -0.772696 0
-0.143096 -0.037293 -0.394578 0
0.147138 -0.092800 0.469497 1
-0.711159 0.010960 0.120031 0
-0.682309 -0.002824 0.068777 0
0.067808 0.119815 0.947762 1
-0.151889 0.017230 0.808571 1
-0.718884 0.009374 -0.320991 0
0.451660 -0.045791 0.125484 0
-0.880083 0.096011 -0.137713 0
0.281846 -0.088505 -0.079174 0
-0.029848 -0.103241 0.199306 0
0.576334 0.140362 0.753433 1
-0.539115 0.031695 0.556129 0
0.012524 0.066863 -0.831181 0
-0.747634 0.087828 0.392366 0
-0.795407 0.023938 0.151058 0
0.242721 0.049302 0.840129 1
0.582048 -0.114689 -0.102529 0
0.152446 -0.051573 0.689752 1
0.372277 0.058319 0.806270 1
0.129533 -0.099962 0.278143 0
0.010192 0.000025 -0.699112 0
-0.827326 0.080464 0.042757 0
-0.490425 -0.125240 0.305663 0
0.351377 -0.004029 0.639077 1
-0.902848 0.117649 -0.139956 0
0.309584 -0.038865 -0.235095 0
-0.182862 -0.003921 -0.650991 0
0.573174 -0.025638 0.334354 1
0.300667 -0.053040 0.066322 0
0.162179 0.019755 -0.737810 0
0.496050 0.033836 -0.621493 0
-0.534231 0.063892 -0.604948 0
0.447599 -0.136282 0.403172 1
-0.385205 -0.090887 0.136850 0
-0.820400 0.160351 -0.423904 0
0.128328 -0.031802 -0.522007 0
0.420876 -0.122368 -0.454379 0
-0.345522 -0.042998 0.410062 0
0.452730 0.068299 -0.716211 0
-0.711790 -0.012222 -0.239519 0
-0.555126 -0.132139 0.117498 0
0.036283 0.129855 -0.907264 0
0.285189 -0.049694 -0.061430 0
-0.068656 -0.057655 0.209164 0
-0.173685 -0.022688 -0.720589 0
0.606580 0.013870 0.482859 1
0.148806 0.067976 0.833124 1
0.755152 0.010592 -0.122994 0
-0.089879 -0.100294 0.267734 0
-0.022070 -0.036560 -0.429051 0
-0.613221 -0.034599 -0.345368 0
-0.663994 0.027569 0.371261 0
-0.662320 0.079478 -0.573073 0
0.663586 0.136077 0.709050 1
0.040874 -0.034875 -0.482588 0
-0.372882 0.050751 0.718202 0
-0.095537 -0.077857 -0.526250 0
-0.311090 0.020645 0.697277 0
0.533165 -0.105054 -0.230589 0
-0.921382 0.154575 -0.131564 0
-0.042810 0.139269 0.932193 1
0.307306 0.138325 0.888829 1
0.412035 0.032264 -0.746636 0
0.053080 -0.050501 -0.144772 0
-0.785016 0.011607 -0.090127 0
0.091137 -0.090387 -0.142517 0
0.487616 0.143447 -0.800226 0
-0.199417 -0.084395 -0.297142 0
-0.695772 -0.038477 0.048666 0
0.487193 -0.085447 0.000399 0
-0.668716 0.027971 -0.335269 0
-0.439212 -0.027298 -0.572928 0
-0.477833 -0.084640 -0.046745 0
0.730424 0.001864 0.383326 1
0.602167 0.063326 -0.592721 0
-0.790334 0.140134 0.498450 0
-0.519466 -0.099801 0.292737 0
0.634509 -0.079455 0.170489 0
-0.226068 -0.093630 0.290818 0
-0.491429 -0.038983 0.237174 0
-0.278042 -0.000514 0.743158 0
0.651060 -0.070145 -0.147251 0
0.490811 -0.026582 0.442585 1
-0.351701 0.013240 -0.627068 0
0.239105 -0.051652 -0.019475 0
0.933300 0.088969 -0.015961 0
-0.710902 0.108107 0.503635 0
-0.879952 0.108688 -0.207380 0
0.423923 0.057712 -0.715570 0
0.715305 0.129737 0.599261 1
0.457239 -0.082302 -0.159408 0
-0.502449 0.112856 0.726790 0
-0.488601 0.150836 -0.822711 0
-0.047362 -0.037104 -0.402064 0
0.908334 0.138627 -0.382843 0
-0.895801 0.140084 0.083183 0
-0.367654 -0.123949 -0.456906 1
-0.368596 -0.028753 -0.421833 0
-0.830990 0.092788 0.152591 0
-0.261778 -0.093039 0.035242 0
-0.112934 -0.094528 0.390109 0
0.471302 -0.084032 -0.093937 0
-0.564849 0.041933 -0.614789 0
-0.408488 -0.022951 0.629227 0
-0.090833 -0.036189 -0.442577 0
-0.237401 -0.049243 0.294988 0
0.864267 0.133546 -0.359437 0
-0.813425 0.031838 0.099565 0
0.192554 -0.095296 0.326175 1
0.296141 0.096156 -0.874953 0
-0.501822 -0.087458 -0.055837 0
-0.151453 0.018323 0.810166 1
0.296654 -0.138145 0.514975 1
0.043018 -0.026674 -0.738998 0
0.612245 -0.055765 -0.314507 0
0.458845 -0.038371 -0.210436 0
0.324428 -0.082939 -0.235234 0
0.597188 0.014146 0.590130 1
-0.180493 -0.094628 0.258440 0
-0.414221 0.129700 0.807807 0
0.527660 -0.032875 -0.523748 0
-0.503918 -0.112351 0.133926 0
-0.505687 -0.110065 -0.151206 0
0.866537 0.073798 -0.294783 0
-0.200429 -0.082578 -0.332130 0
0.791557 0.071600 0.454650 1
-0.285671 -0.048905 0.276423 0
0.163380 -0.078917 -0.429614 0
-0.010195 -0.057777 0.147247 0
-0.379920 -0.012139 0.568246 0
-0.610325 0.012671 0.409018 0
0.613290 0.044269 -0.622819 0
0.293077 -0.042058 0.493821 1
0.427944 -0.044822 0.591833 1
0.489992 0.121120 -0.768239 0
-0.073988 -0.036402 -0.439983 0
0.667312 -0.001971 0.473178 1
0.026375 0.068032 -0.884705 0
-0.719199 0.120722 0.590152 0
0.009042 -0.092808 0.493667 1
-0.645396 -0.013202 -0.081214 0
0.137872 0.113628 -0.881781 0
0.177609 -0.034313 0.596439 1
0.669501 -0.021155 -0.013807 0
0.833157 0.155577 -0.480451 0
-0.651537 0.106700 -0.628081 0
-0.830150 0.092527 -0.133381 0
0.014211 -0.083223 0.623870 1
-0.232552 -0.089402 -0.148604 0
0.263698 0.085363 -0.821248 0
0.082763 -0.096159 -0.019160 0
0.799846 0.129863 -0.552877 0
-0.251221 0.151344 -0.888288 0
-0.469239 -0.047065 -0.478447 0
0.683318 0.161511 -0.703492 0
0.391243 0.099720 -0.792581 0
-0.334370 -0.134448 0.467062 0
0.533663 0.130648 0.764047 1
0.172623 -0.075980 -0.490314 0
0.639043 -0.024341 -0.110035 0
0.839854 0.154276 -0.466406 0
-0.419109 0.140530 0.841374 0
-0.248816 -0.035006 0.548195 0
-0.899032 0.132235 -0.239589 0
-0.277671 -0.093267 0.144329 0
-0.873296 0.080898 -0.055540 0
0.025330 -0.129728 0.595030 1
0.109117 -0.032425 -0.720715 0
0.005183 -0.035211 -0.478961 0
-0.104921 -0.093865 -0.086129 0
-0.591765 0.162751 -0.713833 0
0.606296 -0.017285 0.343985 1
0.914710 0.148257 0.294318 0
0.359538 0.063849 -0.756338 0
0.206737 -0.063294 -0.627157 0
-0.651672 -0.055401 0.017774 0
0.538180 0.010281 -0.626170 0
-0.078893 0.057566 0.870733 1
0.166025 0.022759 0.822939 1
-0.310659 -0.092118 0.093111 0
-0.297965 -0.128717 0.500250 0
-0.365054 0.031305 -0.664251 0
-0.111660 -0.124429 0.532973 1
-0.510765 -0.126499 0.266068 0
0.020531 0.083253 -0.852118 0
0.046304 0.000658 -0.701566 0
0.811050 0.040412 0.336802 0
0.166364 -0.086435 -0.199145 0
-0.652778 0.063772 -0.469064 0
0.387969 -0.018806 -0.514152 0
0.975062 0.138241 -0.147175 0
-0.246009 0.073074 -0.791390 0
-0.210248 0.036775 0.819756 1
0.118626 -0.050831 0.358026 1
-0.036597 0.077939 0.897319 1
-0.123149 0.076248 -0.828819 0
0.440323 -0.037575 -0.252874 0
-0.677837 -0.015924 0.323835 0
-0.641412 0.066606 0.514415 0
0.836709 0.144524 0.502954 1
0.704669 0.060168 0.557576 1
0.177242 -0.051422 -0.051461 0
-0.601082 0.015993 -0.526418 0
-0.111884 -0.094821 -0.048703 0
-0.068114 -0.050993 0.399136 1
-0.288541 -0.092837 0.235788 0
0.657019 0.154002 -0.737907 0
-0.243434 -0.079774 -0.383322 0
-0.626689 -0.044691 -0.263088 0
-0.711130 -0.026831 -0.128567 0
0.658953 0.056938 -0.519103 0
0.035938 -0.133635 0.560285 1
0.041565 -0.099852 0.066136 0
-0.483292 0.136878 0.809575 0
0.550747 -0.089122 0.091745 0
-0.491135 -0.091995 -0.161285 0
-0.024794 -0.048914 0.493568 1
-0.198929 -0.039262 0.545347 0
0.219330 -0.035494 -0.416196 0
-0.801822 0.107609 -0.301425 0
-0.077115 -0.100633 0.094274 0
-0.404075 -0.039216 -0.210988 0
-0.879634 0.118224 0.269145 0
-0.727224 0.000753 0.277352 0
0.038795 -0.065473 0.660858 1
0.010161 0.159925 -0.974775 0
-0.573513 0.014588 0.469564 0
0.352338 -0.091729 0.251019 0
-0.617147 0.024865 0.442077 0
-0.112146 -0.017304 0.671575 1
0.069389 -0.081189 -0.549316 0
0.407117 -0.083297 -0.161227 0
0.145097 -0.042934 0.548957 1
-0.675356 0.033600 -0.344119 0
0.400208 -0.110934 0.485137 1
-0.669132 0.096202 -0.514206 0
0.508215 0.062457 0.678903 1
0.912067 0.145725 -0.271579 0
-0.281572 -0.078926 -0.439396 1
0.072409 -0.050785 0.442973 1
0.174675 0.028156 0.828576 1
0.065666 -0.081443 -0.371815 0
0.000946 -0.139855 0.576718 1
0.366638 0.065067 -0.755323 0
0.071393 -0.101377 0.254747 0
0.422984 -0.090093 0.230148 0
-0.336681 -0.027115 -0.460669 0
0.522309 0.042968 0.634435 1
0.756604 0.101691 -0.559369 0
-0.403160 -0.091186 0.449764 0
0.050238 0.053722 -0.811567 0
-0.731127 -0.021845 -0.056930 0
-0.455357 -0.116260 0.374996 0
0.109596 0.148711 -0.927139 0
0.605018 0.017342 0.589015 1
-0.150316 -0.048003 -0.249561 0
-0.200434 -0.055146 0.048846 0
0.495617 -0.121897 0.380052 1
-0.589402 0.159064 -0.709177 0
-0.188489 -0.032624 -0.483453 0
0.747880 0.011642 -0.370682 0
0.661517 0.012148 0.400186 1
0.742066 0.122660 -0.614038 0
-0.167174 -0.095398 0.223862 0
-0.155508 0.018676 -0.722352 0
0.266596 -0.049930 0.315815 1
0.193430 0.076186 -0.827041 0
0.821916 0.140756 -0.543710 0
0.817092 0.043760 0.332846 0
-0.010191 -0.051968 -0.137020 0
-0.825034 0.159894 -0.413181 0
-0.553819 -0.005324 -0.372328 0
0.498439 -0.118275 0.281616 0
-0.546947 -0.035377 0.021162 0
-0.381771 -0.045280 0.324494 0
0.499300 -0.043411 0.180732 0
-0.802426 0.019751 -0.010994 0
0.244449 -0.060761 -0.617634 0
-0.848659 0.146093 -0.307075 0
0.754830 0.140499 -0.631184 0
0.138397 -0.073193 0.628694 1
-0.065977 -0.102261 0.523119 1
-0.390164 -0.079880 -0.321835 0
0.498015 0.049116 0.664798 1
-0.813558 0.150653 -0.401755 0
0.506896 -0.039023 0.288745 0
-0.072882 -0.100597 0.111367 0
-0.212532 -0.010206 -0.615876 0
-0.337967 -0.091557 0.199814 0
-0.637698 0.111636 -0.580073 0
0.288284 -0.135147 0.527128 1
-0.821407 0.089072 -0.158246 0
-0.524303 -0.002824 -0.425275 0
-0.871980 0.137795 -0.342467 0
0.505064 -0.039824 0.280496 0
-0.658496 0.068745 -0.472079 0
-0.138805 -0.053092 -0.111098 0
-0.533996 -0.118621 -0.064821 0
0.245265 0.122846 -0.918804 0
0.914071 0.112528 -0.022297 0
-0.834269 0.155616 -0.375232 0
0.160089 0.054504 -0.802424 0
-0.532697 0.117715 -0.691049 0
-0.587701 -0.113633 -0.048977 0
-0.610648 0.003579 -0.483970 0
0.558851 -0.091850 -0.116907 0
-0.046106 -0.102044 0.145110 0
0.304488 -0.023265 -0.692500 0
0.639898 -0.027225 0.094364 0
0.278242 -0.079660 -0.317895 0
0.215524 -0.074996 -0.616026 0
0.104171 -0.096885 0.018365 0
0.578452 -0.132823 0.195966 0
0.796860 0.039156 -0.189333 0
0.134955 -0.054453 0.007001 0
-0.250343 -0.054192 0.044346 0
0.654561 -0.070546 0.122272 0
-0.436223 0.000141 0.658047 0
0.590334 -0.018026 -0.305593 0
0.546234 -0.063703 -0.387576 0
0.898319 0.154174 -0.347523 0
-0.326898 0.136968 0.887080 1
-0.696106 0.074571 0.452442 0
0.593905 -0.127719 0.088612 0
-0.349134 -0.032282 -0.390875 0
0.573609 0.064531 0.630835 1
0.452778 0.115941 0.840326 1
0.347431 -0.048480 0.313181 1
0.482755 -0.020298 -0.427669 0
-0.532639 0.082391 0.656468 0
-0.081754 -0.044268 0.542158 1
-0.881076 0.138713 -0.152281 0
0.232870 0.026141 0.754020 1
-0.159769 0.009279 0.728778 1
-0.039801 -0.119700 -0.585016 0
0.917318 0.118379 0.086681 0
0.252566 -0.091028 -0.027574 0
0.789590 0.065741 -0.440133 0
-0.068193 -0.057634 0.174112 0
-0.645476 0.068428 0.512841 0
0.508298 -0.088736 0.203217 0
-0.668254 -0.004226 0.144616 0
0.559945 0.065144 -0.634479 0
0.624063 0.093363 -0.624697 0
0.748218 -0.036680 0.055367 0
0.601796 -0.127599 0.163791 0
-0.502584 0.019261 0.561852 0
0.196643 -0.033232 -0.477895 0
0.127598 -0.001483 -0.687481 0
-0.497353 -0.012471 -0.404658 0
-0.757627 0.161637 -0.531722 0
0.714409 0.014879 -0.286057 0
0.146657 0.084730 -0.845827 0
-0.311129 -0.123902 0.498171 0
-0.648636 0.004974 -0.257099 0
-0.783572 0.006910 0.035468 0
-0.117684 -0.057097 0.117193 0
-0.349516 -0.042160 0.416739 0
-0.419682 -0.062058 -0.477683 0
-0.656739 0.052271 0.544370 0
0.660528 -0.023458 0.037617 0
-0.505667 0.054574 -0.611874 0
-0.399079 -0.039523 0.396872 0
0.764472 -0.003317 -0.274068 0
-0.102160 0.070337 -0.824987 0
0.690689 -0.058358 0.012749 0
-0.850284 0.148072 0.367126 0
-0.891392 0.144721 0.170203 0
0.097367 -0.089065 -0.174203 0
0.150275 -0.124171 0.533958 1
-0.289744 -0.038591 0.661302 0
-0.083457 -0.096190 0.344616 0
0.773442 -0.016752 -0.157742 0
-0.064666 -0.037071 -0.402516 0
0.139233 0.046275 0.805600 1
-0.161776 0.141335 0.921657 1
0.179431 -0.094128 0.020905 0
-0.244036 -0.049640 0.261818 0
-0.738667 -0.015970 0.107599 0
0.647799 0.012022 -0.391491 0
0.161245 -0.046457 -0.209110 0
-0.142312 -0.118908 -0.561614 0
-0.542360 0.076424 -0.686956 0
0.512713 -0.029298 0.569666 1
-0.260709 0.043576 -0.739127 0
0.507557 0.046437 -0.711053 0
-0.865144 0.091726 -0.189833 0
0.629347 0.080551 0.605207 1
0.504146 -0.134319 0.341427 0
-0.446734 -0.044193 0.541234 0
0.608574 -0.032533 0.104906 0
-0.681473 0.062396 -0.423451 0
0.141239 -0.096906 0.069263 0
0.250749 -0.047519 -0.143610 0
0.061500 -0.052123 0.335752 1
-0.435247 0.141509 0.824904 0
0.832460 0.050252 -0.090337 0
0.964532 0.122185 -0.092816 0
-0.321300 -0.123800 -0.492850 1
0.523596 -0.123339 0.259131 0
0.655724 -0.088055 0.008533 0
0.518720 0.116209 -0.743125 0
-0.547794 -0.030167 0.232148 0
0.375989 0.110082 -0.812518 0
0.074183 -0.043129 0.561302 1
0.703153 0.061421 0.480027 1
0.311464 0.068108 -0.782478 0
0.110914 0.023599 -0.824410 0
-0.450198 0.091763 0.782698 0
0.603759 0.107959 -0.666701 0
-0.006286 -0.109671 -0.574664 0
-0.671930 -0.010992 0.357152 0
-0.179505 -0.092134 0.430711 0
0.557843 -0.091346 0.075842 0
0.815658 0.037752 -0.064078 0
-0.010544 -0.093039 0.512255 1
-0.472360 -0.020789 -0.380917 0
0.043453 -0.027813 -0.577625 0
-0.148982 -0.093479 -0.083977 0
-0.522238 0.048468 -0.583739 0
0.166351 -0.052327 0.302628 1
0.051105 -0.033336 -0.512129 0
0.012030 0.110200 0.892981 1
-0.234160 -0.061649 -0.600884 0
-0.295749 -0.065915 -0.563854 0
0.507435 0.080881 0.708276 1
0.048136 -0.093493 0.468626 1
0.955196 0.147510 0.226994 0
-0.701383 0.049759 -0.351826 0
0.602727 0.027278 -0.508004 0
-0.606721 -0.041187 0.346983 0
0.825071 0.108765 0.476575 1
-0.297944 -0.092850 0.129401 0
-0.477161 0.094760 -0.759639 0
-0.230131 -0.061972 0.622294 0
-0.618417 0.044433 0.575373 0
-0.283601 -0.052528 0.040512 0
0.158004 -0.095788 -0.621408 0
-0.908726 0.148342 0.204752 0
0.274453 -0.051084 -0.017975 0
-0.420348 0.039094 0.669454 0
0.913075 0.072026 -0.066362 0
0.418525 0.038835 0.759427 1
0.545280 0.117429 0.734541 1
0.258606 0.034156 0.760242 1
0.301770 0.010329 -0.672019 0
0.614255 -0.031109 0.119367 0
-0.522508 0.079918 -0.642254 0
0.637165 -0.064888 0.223656 0
-0.202345 -0.079799 -0.401437 0
-0.745906 0.100054 -0.496645 0
-0.767428 0.070781 -0.397968 0
-0.158541 -0.094145 0.374680 0
-0.299587 0.099884 0.865095 1
0.294720 -0.046853 -0.147040 0
-0.602138 0.145219 -0.732672 0
-0.133768 -0.020412 0.752657 1
0.451643 0.024498 0.650455 1
0.638748 -0.016775 -0.451117 0
-0.578592 -0.033494 0.427520 0
0.265777 0.091552 -0.878777 0
-0.396624 0.052767 -0.754512 0
0.524081 -0.027539 -0.319677 0
0.287290 -0.012561 0.645920 1
0.807164 0.064527 -0.281615 0
-0.325803 -0.041753 -0.174583 0
0.919988 0.131397 -0.332755 0
-0.746798 0.113871 0.458715 0
0.437775 0.045173 -0.684796 0
0.980531 0.148757 -0.089513 0
-0.259674 -0.034902 0.541909 0
-0.646311 0.010298 -0.286644 0
-0.677586 0.058523 -0.419324 0
0.452956 -0.046218 -0.540762 0
0.365065 -0.000157 -0.714816 0
-0.182279 -0.094838 0.232485 0
-0.166654 -0.048945 -0.228925 0
0.280657 -0.001400 0.679737 1
-0.125742 -0.035506 -0.455373 0
-0.607001 -0.017625 -0.168898 0
0.609091 -0.048905 0.388801 1
0.356058 -0.012691 0.612849 1
0.775251 0.149829 -0.553302 0
0.474858 0.003413 0.582918 1
-0.138824 -0.054287 -0.064619 0
-0.024605 -0.099527 0.032594 0
0.934485 0.142657 -0.162317 0
0.115568 -0.082395 -0.325661 0
-0.186953 0.020495 0.744025 1
-0.536999 -0.034548 -0.073803 0
0.701169 0.075362 -0.504892 0
0.259884 -0.084681 -0.189880 0
0.441302 -0.045845 0.215554 0
0.541609 0.064548 -0.648457 0
-0.262759 -0.040481 -0.247519 0
-0.631945 0.004241 0.471807 0
0.726528 0.019645 0.304161 0
-0.337666 -0.086300 -0.147222 0
0.419305 -0.091209 0.192833 0
-0.565772 0.061176 0.655928 0
0.573105 -0.107807 0.055704 0
0.883341 0.073617 -0.241890 0
-0.757419 0.060176 -0.391509 0
0.053066 -0.110457 -0.576893 0
0.272478 0.112939 -0.900830 0
-0.060126 -0.080324 -0.418766 0
0.622210 -0.000649 -0.519949 0
0.930161 0.101158 -0.171209 0
0.271974 0.140760 -0.887597 0
0.938108 0.146900 0.285921 0
-0.179507 0.120230 0.926222 1
0.277676 -0.055020 0.176402 0
-0.283758 -0.079447 -0.377448 1
0.164814 -0.099386 0.257279 0
0.438292 0.087678 0.760593 1
0.460866 -0.088563 0.205379 0
0.383577 -0.114453 -0.503193 0
0.283412 -0.093549 0.270680 1
0.093282 -0.020520 0.765489 1
0.507205 0.006034 0.652289 1
0.438601 -0.046198 0.201099 0
-0.101174 -0.102205 0.215292 0
0.611336 0.043609 0.554949 1
-0.261301 -0.106320 -0.557850 0
-0.445775 0.039497 -0.705473 0
0.757013 0.072501 0.510564 1
0.433731 0.146964 -0.833892 0
0.222975 -0.094917 0.293198 1
0.746709 0.083682 -0.540154 0
-0.499928 -0.033672 0.299323 0
-0.233388 -0.087580 -0.192206 0
-0.401529 -0.088935 0.044166 0
0.684710 0.045341 -0.548596 0
-0.081522 -0.100473 0.094914 0
-0.274115 -0.064026 0.594657 0
-0.451981 -0.114218 -0.388401 0
0.513278 0.059266 0.730939 1
-0.261049 0.109843 -0.833426 0
-0.778491 0.036970 -0.271946 0
0.790465 0.042802 0.388536 1
0.055690 -0.045917 -0.688504 0
-0.662592 0.074628 0.503056 0
-0.276080 0.167957 -0.915271 0
0.662766 0.094581 -0.653590 0
-0.841203 0.082697 -0.245556 0
-0.146372 -0.093024 -0.111668 0
-0.752601 -0.010793 0.066497 0
-0.134027 -0.056109 0.039617 0
-0.287925 0.127670 -0.892730 0
0.336632 0.054790 -0.812028 0
-0.162267 0.053508 -0.846009 0
-0.054717 -0.100525 0.086768 0
0.228787 -0.013127 0.666199 1
0.049626 -0.048142 -0.208017 0
-0.528583 -0.092151 0.283757 0
-0.536225 0.126950 -0.758757 0
0.404841 -0.026694 0.522796 1
0.821469 0.076736 -0.286980 0
-0.738040 0.133577 0.578755 0
0.478165 -0.117275 0.410319 1
-0.731940 0.052495 -0.293742 0
-0.551170 0.016937 -0.472355 0
-0.192315 -0.059476 0.644743 1
0.462359 -0.086808 -0.007811 0
-0.156292 0.134341 -0.892037 0
-0.801335 0.124363 0.380886 0
0.877610 0.112729 0.385121 1
0.035857 -0.100477 0.308386 0
-0.617661 0.061623 -0.594178 0
-0.591228 0.003731 -0.363786 0
-0.672621 -0.008021 0.366885 0
-0.229247 -0.049588 0.256984 0
-0.405036 0.103627 -0.813451 0
-0.360066 -0.118615 0.385627 0
0.535213 0.040430 -0.606007 0
-0.476316 -0.016021 -0.406083 0
0.764841 0.097376 -0.540166 0
-0.172336 -0.052920 -0.103352 0
0.184381 -0.054607 0.062007 0
-0.597961 0.131274 -0.653941 0
-0.529560 0.078028 0.651953 0
0.869643 0.083253 -0.132553 0
0.446056 -0.078625 -0.318233 0
-0.731747 0.030811 0.211931 0
-0.730320 0.134422 -0.503871 0
0.858760 0.145202 0.467991 1
-0.776300 0.065650 0.245906 0
0.634767 -0.116603 -0.060055 0
0.449782 0.118022 0.795545 1
0.654179 0.106157 -0.616505 0
0.873662 0.053788 -0.189127 0
0.590419 -0.029657 0.489312 1
-0.510397 -0.119860 -0.289318 0
-0.237965 0.160000 -0.936884 0
0.407012 0.093139 0.832722 1
-0.858181 0.140949 -0.383822 0
0.144854 -0.037029 -0.353961 0
-0.725728 0.015904 -0.064966 0
0.583319 -0.024509 0.327870 1
-0.120912 -0.100211 0.081658 0
-0.452130 -0.040855 0.290496 0
0.090020 0.059041 0.876322 1
0.527216 -0.033661 -0.222903 0
-0.284920 0.084221 0.804843 1
0.029844 0.007059 -0.804013 0
-0.104708 0.162909 -0.963813 0
0.413267 -0.045270 0.322146 1
-0.544263 -0.002709 -0.397560 0
-0.320194 0.061836 0.760248 0
-0.312594 -0.130913 0.445500 0
-0.455107 -0.137749 0.323725 0
-0.283729 -0.093020 0.095887 0
-0.323076 0.138968 0.886352 1
-0.330583 -0.027643 -0.644839 0
-0.469303 -0.119430 -0.290165 0
-0.619610 0.077555 0.563236 0
0.074358 -0.102367 0.156260 0
-0.518136 0.006329 -0.469398 0
0.493864 0.068065 0.755001 1
0.513105 -0.087175 0.167742 0
0.635373 -0.057974 0.285419 0
-0.613979 -0.071156 -0.003531 0
-0.052412 0.136870 -0.911144 0
-0.026420 -0.087300 -0.552677 0
0.306814 -0.117731 -0.514484 0
0.442151 -0.018289 -0.476722 0
0.137557 0.088948 0.860908 1
-0.447200 -0.025068 -0.377818 0
-0.276140 -0.136666 0.478046 0
-0.855158 0.144130 0.319436 0
0.397040 -0.035869 -0.316478 0
-0.226002 0.041327 0.767251 1
-0.232232 0.084838 0.869865 1
0.842089 0.068965 -0.183530 0
-0.647510 -0.011220 0.145162 0
-0.177704 -0.048067 -0.235317 0
0.208236 0.033924 -0.757624 0
0.017555 -0.127761 0.596947 1
-0.313874 0.097200 -0.849472 0
0.238781 -0.087196 -0.136838 0
0.503669 -0.035110 0.355276 1
-0.845736 0.157332 -0.356597 0
-0.170011 -0.031311 0.601280 1
0.862414 0.126201 0.452254 1
0.646877 0.117273 -0.641332 0
0.101189 -0.015600 0.773849 1
0.102252 0.028226 0.838398 1
-0.366328 -0.066749 0.525103 0
0.628943 0.000812 0.399483 1
0.593073 0.016790 -0.484924 0
-0.374494 -0.090634 0.251421 0
-0.229425 -0.042739 -0.240174 0
0.808321 0.055730 -0.241751 0
0.308182 -0.045808 0.439819 1
0.614104 0.089759 0.635682 1
0.915550 0.143487 0.353289 0
0.070484 0.035249 0.795693 1
0.387963 -0.098350 -0.425931 0
-0.169067 -0.041502 0.539963 0
-0.504932 -0.103261 -0.139047 0
-0.291002 -0.046999 0.400539 0
-0.025352 -0.057009 0.301661 1
-0.837335 0.096110 0.142414 0
0.339161 -0.036371 -0.333622 0
-0.525820 -0.058551 -0.363190 0
-0.459247 0.128415 0.825001 0
0.900616 0.101459 -0.042197 0
0.682761 0.052717 0.570610 1
0.479572 -0.002510 -0.525400 0
-0.316700 -0.085654 -0.191563 0
-0.298963 -0.119989 -0.486789 1
-0.855380 0.133828 -0.371990 0
0.175810 -0.038512 0.573571 1
-0.161379 0.145923 -0.905828 0
-0.632154 -0.008519 -0.196856 0
0.148636 0.009364 0.740506 1
-0.162124 0.022641 0.813735 1
-0.367174 -0.045459 0.057612 0
-0.653164 0.128121 0.617745 0
-0.508549 -0.084113 -0.344119 0
0.972834 0.153294 -0.136277 0
-0.245022 0.058587 -0.770065 0
-0.247692 0.048232 -0.752651 0
0.242433 -0.078644 -0.368193 0
0.806176 0.051514 0.235188 0
0.347709 -0.048173 0.186951 0
-0.596755 -0.023209 -0.116258 0
0.540582 -0.036828 0.259970 0
-0.365351 -0.007417 -0.546113 0
0.222079 -0.135512 0.528607 1
-0.914093 0.156593 -0.188111 0
-0.484792 -0.098550 0.167611 0
0.434036 -0.078316 -0.332925 0
0.564372 -0.096315 0.064858 0
-0.694368 0.058672 0.416069 0
0.152881 -0.056204 0.100966 0
0.441678 -0.071745 0.487748 1
0.482641 -0.043948 0.192745 0
0.338194 0.098307 -0.863241 0
0.474773 -0.024900 -0.400271 0
0.304163 -0.053854 0.109029 0
0.510074 0.142532 -0.785130 0
0.550185 0.047360 -0.608523 0
0.901275 0.139538 -0.281559 0
-0.522373 0.165664 -0.772899 0
0.408786 -0.085818 -0.073425 0
-0.208803 0.002567 -0.759844 0
0.789096 -0.015405 -0.080357 0
0.074596 -0.048932 0.496286 1
0.583693 0.126141 0.771967 1
-0.029452 -0.046469 -0.286476 0
0.885548 0.049420 0.085986 0
0.386488 -0.084389 -0.140662 0
0.789256 0.159098 -0.587337 0
-0.935497 0.137980 -0.015197 0
-0.071039 -0.056480 0.015251 0
-0.530845 -0.012702 -0.360976 0
0.277545 0.019823 0.791987 1
-0.883191 0.110065 0.217394 0
-0.027190 0.037501 0.799701 1
0.793078 0.023093 -0.001941 0
0.340424 -0.091132 0.402516 1
-0.645908 0.095870 -0.543378 0
0.491552 0.002440 -0.534614 0
0.436179 0.027180 -0.647607 0
0.946540 0.157369 -0.201290 0
-0.749869 0.096994 0.412488 0
-0.232338 0.084167 0.823088 1
-0.481275 -0.040959 0.009763 0
-0.048248 -0.056503 0.017595 0
0.137571 -0.094929 0.416565 1
0.140739 0.126753 0.907146 1
0.090603 0.116767 -0.935808 0
-0.785709 0.161907 -0.489937 0
0.132839 -0.078316 -0.428176 0
-0.391238 -0.020742 -0.625248 0
0.512344 -0.013320 -0.442589 0
0.296281 -0.032562 -0.434597 0
0.345439 -0.036656 -0.318677 0
0.599304 0.111862 0.685150 1
0.718475 0.147649 0.640203 1
0.422620 -0.122055 -0.440162 0
-0.841007 0.127120 -0.255642 0
-0.450028 0.015294 0.675407 0
0.135820 -0.052462 -0.047515 0
0.025850 -0.082328 -0.382830 0
-0.299739 -0.115490 0.432132 0
-0.044038 -0.135099 0.584714 1
0.716548 0.095838 0.534298 1
-0.267465 -0.049223 0.327849 0
0.129324 -0.118196 0.598439 1
0.580863 0.089255 -0.656512 0
-0.258220 -0.087225 -0.182312 0
0.251469 0.017784 -0.708862 0
0.513008 -0.018242 0.466412 1
-0.787257 0.095583 -0.302124 0
-0.743273 0.114053 -0.439903 0
-0.860386 0.151151 -0.293615 0
0.577408 0.045844 0.592692 1
0.673078 0.131903 0.650604 1
-0.809678 0.107163 -0.399732 0
0.197388 -0.027064 0.736072 1
-0.284103 -0.080808 -0.345040 1
-0.027325 0.109980 0.891613 1
-0.644676 0.089768 0.620939 0
-0.141492 -0.078131 -0.472058 0
-0.200369 -0.002660 -0.649171 0
0.238132 0.163307 -0.932783 0
0.881905 0.085359 -0.032675 0
0.625747 0.046358 0.620812 1
-0.096137 -0.025290 -0.585208 0
0.274265 -0.121617 0.485521 1
0.022095 0.128494 0.916982 1
-0.707956 0.013001 -0.135111 0
-0.701328 0.025757 -0.248980 0
0.427527 -0.090460 0.184108 0
-0.327348 -0.089057 -0.063935 0
0.028571 -0.079652 -0.416719 0
-0.587431 0.160500 -0.713418 0
0.008615 -0.054895 -0.044541 0
-0.431894 -0.010585 0.531869 0
-0.290454 0.146674 -0.915317 0
0.788175 -0.017414 0.073427 0
-0.909655 0.117107 0.110315 0
-0.230350 0.015180 0.719781 1
0.389276 0.118663 0.825852 1
0.520751 0.001463 0.538052 1
0.254969 -0.092481 0.391781 1
0.242566 0.130239 0.892981 1
-0.197324 -0.091931 -0.509087 0
0.962207 0.153066 0.147871 0
-0.376036 -0.088636 -0.018289 0
-0.633810 0.136360 -0.626147 0
-0.135622 0.129581 0.904590 1
-0.024256 -0.070994 0.641506 1
-0.364237 0.021678 -0.726641 0
0.440146 -0.013594 -0.506133 0
-0.729069 0.037943 -0.235489 0
0.536503 -0.090711 0.151291 0
-0.261780 0.074555 -0.842482 0
-0.500131 -0.031609 -0.505017 0
0.269445 -0.094186 0.163480 0
0.379670 0.066617 0.761138 1
0.106804 -0.003421 -0.781393 0
-0.272793 -0.123281 0.463053 0
0.688637 0.058272 0.493553 1
0.120385 0.110364 0.931842 1
0.480294 -0.055294 -0.482988 0
-0.721041 0.013912 -0.066578 0
-0.555608 0.017101 -0.466597 0
-0.785222 0.048369 -0.030661 0
-0.534241 0.119958 0.767552 0
0.593507 -0.126647 -0.158150 0
-0.675595 0.133806 -0.575007 0
-0.523270 0.041681 0.593296 0
0.660158 -0.025483 -0.387376 0
-0.276710 -0.036757 -0.360207 0
-0.267216 0.123095 0.905867 1
-0.650966 0.010051 0.321193 0
-0.220424 -0.093954 0.298736 0
0.177032 -0.043482 -0.286150 0
0.442599 -0.063450 -0.498994 0
0.324971 -0.047237 -0.107218 0
-0.188806 -0.050683 0.671375 1
0.839939 0.051777 -0.011135 0
0.712749 0.138007 0.621123 1
0.866790 0.122909 -0.318992 0
-0.364363 -0.089856 0.012925 0
0.265729 -0.078556 -0.366151 0
0.067247 -0.097259 -0.023636 0
-0.335870 -0.047918 0.312666 0
-0.361859 -0.089848 0.011002 0
0.851507 0.129880 -0.377600 0
-0.284868 -0.092466 0.332385 0
0.275142 -0.090532 -0.024003 0
0.252562 0.021925 0.740504 1
-0.132307 -0.036008 -0.444780 0
0.647720 -0.012712 -0.452906 0
0.297094 -0.049079 -0.082434 0
-0.714719 0.057413 0.473317 0
-0.874630 0.107136 -0.221492 0
0.131357 -0.085524 -0.242361 0
0.710670 -0.045264 -0.142863 0
0.713990 0.092822 0.601846 1
0.881199 0.103930 0.204300 0
-0.804966 0.033666 0.168790 0
0.890158 0.126432 -0.389648 0
0.407580 -0.083316 -0.159065 0
0.757949 -0.016939 -0.214216 0
-0.354809 -0.040511 -0.208647 0
-0.771543 0.133990 0.467292 0
-0.534862 0.024365 0.542183 0
-0.187435 -0.094400 0.339213 0
0.636213 0.018018 -0.548795 0
-0.175167 -0.044343 0.510220 0
0.799400 0.023278 0.306699 0
0.293737 -0.091535 0.022162 0
-0.789409 0.115190 0.378971 0
0.321836 -0.104158 0.445405 1
-0.247169 -0.012540 -0.717798 0
0.716813 -0.028553 0.279963 0
-0.663289 0.168256 -0.656989 0
-0.644277 0.077634 -0.510810 0
-0.615898 -0.000641 0.333037 0
0.392866 -0.082802 -0.187885 0
0.267623 -0.038133 0.541212 1
0.926302 0.140964 0.207271 0
-0.269824 0.167889 -0.913945 0
0.352323 0.152300 -0.876978 0
0.490208 -0.051752 0.520411 1
0.843666 0.057458 0.085187 0
0.023510 -0.007193 -0.677772 0
-0.666806 0.067492 0.559262 0
0.648670 -0.015756 -0.441102 0
0.576128 -0.021515 -0.301348 0
0.115719 -0.081357 -0.371280 0
0.358533 -0.088337 -0.034497 0
0.464845 -0.085704 -0.068767 0
-0.189277 -0.008077 0.678090 1
-0.558521 0.048288 0.642299 0
-0.590898 0.032560 -0.470085 0
-0.372804 -0.036846 -0.292478 0
-0.346584 -0.025348 -0.468757 0
-0.753703 0.165187 -0.550055 0
-0.319831 -0.091447 0.047572 0
-0.117881 -0.057080 0.150035 0
0.202218 -0.082924 -0.267946 0
0.688314 0.129006 0.628302 1
-0.702019 0.032876 0.311766 0
-0.815269 0.079175 -0.123551 0
-0.099336 -0.086437 -0.278284 0
0.408346 -0.112382 -0.486748 0
-0.304297 0.137646 -0.850983 0
-0.427877 -0.044681 0.097972 0
-0.257139 -0.033846 -0.433498 0
-0.866970 0.107827 -0.252445 0
0.623646 -0.084673 0.196202 0
0.120246 -0.115268 -0.610349 0
0.599887 -0.038973 -0.420553 0
0.318821 -0.092794 0.306074 1
0.360395 0.123270 0.844548 1
0.035212 -0.090657 -0.168207 0
0.388336 -0.038805 -0.236753 0
-0.016679 0.107978 -0.880648 0
0.722498 -0.000871 0.164092 0
-0.194502 -0.050316 -0.178776 0
0.404155 -0.016503 -0.516771 0
-0.311076 -0.093259 0.137269 0
0.541325 -0.108745 0.181019 0
-0.131954 -0.100020 0.168609 0
-0.549242 0.008897 -0.440365 0
0.034963 -0.095933 0.349755 1
0.575487 -0.027032 -0.244531 0
-0.464369 -0.041492 -0.023474 0
0.198936 -0.010204 0.767701 1
-0.438474 -0.041540 0.302732 0
-0.195740 -0.089223 -0.184270 0
-0.676815 0.118836 0.636589 0
-0.768771 0.040391 0.104182 0
-0.391827 -0.086545 -0.083222 0
-0.408576 -0.054016 0.540705 0
-0.692957 0.034594 -0.312521 0
0.763603 -0.016853 -0.196275 0
-0.544520 -0.018771 0.519480 0
0.141121 -0.008955 0.700043 1
-0.466500 0.096932 0.728558 0
-0.676779 0.166693 -0.642123 0
-0.699146 0.006629 -0.080328 0
0.745243 0.005069 0.080653 0
0.165536 0.120821 0.895543 1
-0.768121 0.054433 0.219627 0
0.521708 -0.031234 -0.273757 0
0.326683 -0.016125 -0.699291 0
-0.348700 0.021186 0.745088 0
-0.810230 0.071223 0.121324 0
-0.569580 0.135299 0.711600 0
0.358150 0.065226 -0.816721 0
0.596609 0.109458 0.683434 1
0.068243 0.037779 0.799815 1
-0.269675 -0.002363 0.743473 1
-0.031759 0.016730 0.764132 1
0.685886 0.134600 0.642903 1
0.377678 -0.046069 0.083471 0
0.208997 -0.054750 0.262200 1
-0.539623 0.038976 0.572386 0
0.475462 -0.008436 -0.503554 0
0.112835 -0.057092 0.127602 0
0.541929 0.134909 0.766079 1
0.837294 0.055684 -0.113303 0
-0.197967 0.049825 -0.772017 0
-0.439328 0.141343 0.827024 0
-0.722579 0.071424 0.490003 0
-0.019007 0.013505 -0.731560 0
0.765468 0.031685 0.262389 0
0.423583 0.145732 -0.885412 0
0.391266 -0.023107 0.669593 1
-0.058850 -0.099002 0.357733 0
-0.389757 -0.038390 -0.244394 0
0.400161 -0.090597 0.251249 0
-0.189705 -0.050887 0.266316 0
0.163067 0.074879 0.839394 1
-0.197736 -0.023198 -0.712271 0
0.157599 -0.088192 -0.158619 0
0.581162 0.132654 0.733512 1
0.841319 0.013358 0.053388 0
-0.675879 0.003262 -0.161495 0
-0.397566 -0.030010 -0.381364 0
0.775722 0.038955 0.269748 0
-0.568859 0.111636 0.671903 0
0.800759 0.142375 -0.500944 0
0.106988 0.131994 0.950292 1
0.111173 -0.048924 0.490020 1
-0.569565 0.140935 -0.753362 0
-0.578674 -0.004917 0.517467 0
0.388629 -0.038834 -0.232142 0
-0.216555 -0.088456 -0.185889 0
-0.593394 0.112236 -0.627952 0
0.155087 -0.094149 0.370611 1
-0.714360 0.010175 -0.058107 0
-0.044478 -0.056852 0.295723 0
-0.544520 -0.024925 -0.232647 0
-0.200942 0.011055 0.787501 1
-0.727297 -0.019144 0.141396 0
-0.105021 -0.057051 0.102709 0
-0.497641 0.114437 0.732711 0
-0.564378 0.147535 -0.766577 0
-0.493319 -0.026454 -0.307440 0
-0.151700 -0.096470 0.038953 0
-0.082387 -0.136813 0.552994 1
-0.364380 0.041563 0.765825 0
-0.702468 -0.019951 -0.219806 0
-0.046841 -0.092744 -0.140114 0
0.562389 -0.033933 -0.151473 0
-0.265575 -0.093723 0.229739 0
-0.050654 -0.025719 -0.589275 0
0.385608 -0.035720 0.642635 1
-0.271606 -0.086225 -0.200271 0
-0.611991 0.113564 -0.677702 0
-0.076146 -0.080025 -0.425271 0
-0.252510 -0.093995 0.156411 0
-0.664639 -0.024673 -0.292619 0
-0.730492 0.042926 -0.256287 0
0.231115 0.068994 0.817242 1
0.378914 -0.054951 -0.562342 0
-0.639047 0.108852 -0.573892 0
-0.077862 -0.020978 -0.744405 0
-0.153308 -0.094730 0.344745 0
-0.130381 0.047667 -0.845555 0
-0.282827 -0.085499 -0.228622 0
-0.580161 -0.088227 0.155484 0
-0.328018 -0.046907 0.116253 0
-0.056659 -0.078778 -0.463124 0
-0.778460 0.144763 -0.450513 0
-0.030995 -0.011951 -0.657076 0
0.113093 -0.100869 0.269510 0
-0.020024 -0.077366 -0.519032 0
0.542991 0.087410 -0.684111 0
0.011231 -0.036840 -0.714528 0
-0.899497 0.141260 -0.009139 0
-0.323968 -0.042224 -0.149426 0
-0.054528 -0.000489 -0.691622 0
-0.639679 -0.057709 0.097053 0
0.515290 -0.086013 0.391407 1
0.820399 0.046711 0.145618 0
0.344055 -0.047266 0.375757 1
-0.430392 0.143688 -0.796921 0
-0.464092 0.153193 -0.790686 0
0.092378 -0.125655 0.546540 1
-0.486578 0.064386 -0.644882 0
-0.150406 -0.080772 -0.411652 0
0.516473 0.142769 0.795591 1
0.180147 -0.092916 0.455206 1
0.648527 0.000861 0.363744 1
0.288255 -0.117503 -0.555802 0
-0.784973 0.134654 0.444010 0
-0.557687 0.000229 -0.395840 0
0.295899 -0.062120 -0.594894 0
0.458610 0.095158 -0.751265 0
0.367883 -0.088271 -0.435263 0
-0.677198 -0.045797 0.058428 0
-0.539663 -0.037859 -0.440125 0
0.551930 0.068250 -0.646654 0
-0.505936 0.034262 -0.653194 0
-0.459267 -0.019468 0.599284 0
-0.408781 0.048817 -0.673133 0
-0.629984 0.074737 0.544961 0
-0.836389 0.107727 -0.189297 0
0.748803 -0.011691 0.288658 0
0.290459 0.126581 -0.864004 0
-0.234664 0.167858 -0.921562 0
-0.386703 0.116576 -0.837837 0
0.101917 -0.027165 -0.576787 0
-0.102191 -0.050714 0.400910 0
0.201355 -0.098313 -0.609245 0
-0.875854 0.091126 0.144454 0
-0.726428 0.032492 0.242718 0
0.882729 0.127388 -0.408284 0
0.376057 0.016974 -0.655655 0
0.100571 -0.110764 0.606450 1
0.622071 0.151626 -0.768139 0
-0.702854 0.147825 -0.568234 0
-0.469934 -0.018235 -0.400649 0
-0.830135 0.107738 -0.214438 0
-0.263824 -0.050928 -0.097935 0
0.165090 -0.045276 0.702782 1
-0.547707 -0.128400 -0.070603 0
0.681166 0.078565 0.544842 1
0.646089 0.018553 0.445652 1
-0.057142 -0.046391 0.709776 1
-0.169855 -0.051436 -0.145004 0
0.361353 -0.077397 -0.363221 0
-0.071739 -0.094265 0.441068 1
0.071497 -0.093985 -0.046629 0
-0.325994 -0.095205 0.394372 0
-0.419400 0.013126 -0.581802 0
-0.168469 -0.095149 0.003007 0
0.322299 -0.006239 -0.611467 0
0.336576 -0.019044 0.705224 1
0.121747 -0.054397 0.309751 1
0.660474 0.067148 0.619067 1
0.329316 -0.079642 -0.329750 0
-0.146407 0.061959 0.817163 1
0.431353 0.156016 -0.849499 0
0.112790 0.021280 -0.749240 0
0.363125 -0.007106 -0.586233 0
0.129398 -0.093093 -0.039996 0
0.816471 0.038420 -0.066381 0
-0.820676 0.140881 -0.356827 0
-0.833165 0.142825 0.371670 0
0.230785 -0.085389 -0.188038 0
-0.856440 0.118068 -0.150420 0
0.652874 0.095979 -0.599784 0
-0.546582 -0.031836 -0.453356 0
-0.019401 -0.103046 0.149635 0
0.462708 0.107962 0.774216 1
-0.340467 -0.093914 -0.412764 1
-0.536179 0.107808 0.693207 0
-0.171006 0.120778 -0.872968 0
-0.075538 -0.093640 -0.108454 0
-0.920776 0.130994 -0.125351 0
-0.186875 -0.037519 -0.382525 0
-0.638858 -0.001624 -0.429699 0
-0.529658 -0.113358 0.259007 0
-0.448703 -0.089613 0.215083 0
-0.718523 -0.025122 -0.104477 0
-0.359668 -0.042368 0.401881 0
0.709238 -0.010866 0.050265 0
0.708641 0.032828 0.394190 1
0.646672 0.108063 0.634502 1
0.323813 0.067515 -0.777061 0
0.414493 -0.042760 0.374160 1
-0.714394 0.102175 0.486189 0
