3.405359 1.702151 0.542587
0.139300 1.568643 3.365835
2.263966 1.669201 -0.377938
2.387805 0.630569 -0.594451
2.377988 0.666989 -0.601312
2.396380 0.653490 -0.594841
2.403004 0.588181 -0.588813
2.402951 0.631522 -0.591532
2.382167 0.693975 -0.603491
2.376695 0.741151 -0.612600
2.381901 0.721106 -0.607063
2.363480 0.744424 -0.619352
2.387066 0.767801 -0.609192
2.369675 0.749975 -0.617200
2.373928 0.791776 -0.618411
2.374822 0.912901 -0.617516
2.259454 1.641356 -0.400119
2.183263 1.679119 -0.406805
2.143465 1.697632 -0.409903
2.175764 1.685745 -0.404172
2.208139 1.666690 -0.407654
2.222993 1.659287 -0.407640
2.246920 1.675872 -0.383292
2.242785 1.657106 -0.398759
2.217041 1.687479 -0.390583
2.279421 1.612145 -0.409865
2.271174 1.632041 -0.400421
2.267427 1.624970 -0.407162
2.252791 1.467681 -0.542171
2.219150 1.506762 -0.538609
2.248847 1.499359 -0.519418
2.230108 1.502837 -0.533083
2.247237 1.476194 -0.540273
3.446898 1.562230 0.364369
3.451423 1.692060 0.380867
0.091486 1.665704 3.384099
0.115027 1.651566 3.383312
2.085308 1.641617 -0.469506
2.115516 1.645819 -0.460648
2.114324 1.643310 -0.462671
2.206766 1.568760 -0.478417
2.253643 1.561357 -0.458227
2.252044 1.546834 -0.471321
2.236719 1.550518 -0.477389
2.170403 1.613218 -0.462444
2.179663 1.595575 -0.471552
2.146271 1.641301 -0.452686
2.123423 1.644443 -0.459672
2.156001 1.623253 -0.461470
2.158199 1.620791 -0.462277
2.215104 1.589232 -0.457598
2.230305 1.588557 -0.450118
2.084176 1.664099 -0.452258
2.114772 1.660127 -0.448735
2.138825 1.653972 -0.445892
2.277365 1.532664 -0.469603
2.273591 1.558450 -0.449924
2.263361 1.238255 -0.638378
2.264983 1.274573 -0.630060
2.408194 0.525601 -0.584289
2.416503 0.500798 -0.580932
2.264728 1.507640 -0.499635
2.277967 1.478976 -0.513965
2.111739 1.586848 -0.510397
2.118334 1.604015 -0.492530
2.114237 1.589826 -0.506992
2.186987 1.573674 -0.486467
2.189562 1.569089 -0.489793
2.226131 1.526315 -0.511839
2.231840 1.543443 -0.487754
2.251878 1.521310 -0.495887
2.241373 1.523956 -0.501889
2.202837 1.561541 -0.488531
2.224233 1.547435 -0.488630
2.129373 1.602664 -0.489700
2.128089 1.592039 -0.500394
2.162065 1.585439 -0.489299
2.269321 1.511007 -0.493647
3.029920 1.940191 0.922836
2.259482 1.427579 -0.567711
2.190352 1.489187 -0.575739
2.186784 1.497566 -0.570183
2.222350 1.459193 -0.573472
2.242482 1.460924 -0.556458
2.248137 1.447528 -0.561691
2.241115 1.459552 -0.558678
2.196484 1.489940 -0.570801
2.196370 1.480206 -0.579286
2.183494 1.633059 -0.443921
2.258648 1.612245 -0.420104
2.204259 1.621422 -0.442270
2.218002 1.619240 -0.436737
2.217972 1.643433 -0.421525
2.249817 1.633864 -0.410852
2.257862 1.615614 -0.418359
2.081661 1.675736 -0.443288
2.093709 1.671924 -0.444295
2.053879 1.696128 -0.432282
2.081683 1.684838 -0.436600
2.117773 1.702491 -0.418491
2.095941 1.701194 -0.424603
2.136775 1.667711 -0.434596
2.148662 1.651746 -0.443962
2.158136 1.656860 -0.435128
2.177661 1.664866 -0.420993
2.195597 1.655151 -0.423484
2.264325 1.571323 -0.444346
2.266404 1.595707 -0.426848
2.269898 1.580568 -0.435174
2.255727 1.346658 -0.615264
2.212457 1.398103 -0.617254
2.260434 1.371108 -0.602954
2.235095 1.382583 -0.612527
2.206147 1.427317 -0.606477
2.206974 1.417468 -0.610899
2.235106 1.411306 -0.596898
2.188744 1.460495 -0.597723
2.150358 1.488714 -0.598244
2.179348 1.475124 -0.594345
2.200933 1.457809 -0.591030
2.365561 1.030569 -0.615319
2.349824 1.086307 -0.616487
2.346214 1.123274 -0.611586
2.365907 1.124747 -0.599940
2.339932 1.146401 -0.611721
2.360366 1.141724 -0.599893
2.372553 1.126468 -0.594714
2.321657 1.176813 -0.617566
2.323347 1.221560 -0.607723
2.314541 1.196005 -0.618959
2.331523 1.179524 -0.611471
2.355574 1.183394 -0.594072
2.374825 1.162400 -0.585147
2.358333 1.205885 -0.587286
3.448969 1.692798 0.412029
2.344352 0.829046 -0.635777
2.362779 0.831096 -0.626322
2.367840 0.836536 -0.623761
2.339899 0.878149 -0.638661
2.345089 0.855065 -0.636066
2.323550 0.897783 -0.643068
2.308576 0.939633 -0.641434
2.346004 0.896998 -0.634346
2.358374 0.903621 -0.627384
2.373023 0.884420 -0.620132
2.339545 0.916711 -0.636589
2.350839 0.945274 -0.628580
2.258317 1.695249 -0.365850
2.262358 1.415935 -0.574499
2.267110 1.418049 -0.569344
2.265955 1.405008 -0.579752
2.135812 1.542451 -0.550030
2.162621 1.513194 -0.568871
1.803567 -1.154786 0.957530
2.302267 1.244740 -0.615607
2.287947 1.280919 -0.615575
2.334944 1.241836 -0.594548
2.287748 1.311413 -0.607085
2.270879 1.316459 -0.616298
2.296402 1.327804 -0.595392
2.283335 1.341465 -0.599148
2.267179 1.371056 -0.598037
2.278403 1.445181 -0.540118
2.116334 1.572049 -0.524746
2.144128 1.542676 -0.545672
2.169387 1.539486 -0.535059
2.175090 1.534456 -0.537579
2.140139 1.558206 -0.529981
2.148943 1.551770 -0.532864
2.163773 1.545811 -0.531392
2.214599 1.526067 -0.520637
2.214257 1.520502 -0.527626
2.227447 1.517691 -0.520548
2.262043 1.701365 -0.360777
3.369212 1.702721 0.624588
2.260362 1.140977 -0.649479
2.258049 1.161825 -0.649333
2.252395 1.229553 -0.644128
2.253897 1.219979 -0.644942
2.257459 1.222703 -0.643359
2.259220 1.265295 -0.634970
2.244496 1.237112 -0.645393
2.216862 1.291978 -0.645904
2.228983 1.290328 -0.642468
2.243046 1.273432 -0.639767
2.222846 1.331609 -0.635819
2.226453 1.332437 -0.634479
2.227068 1.321046 -0.636750
2.261372 1.304668 -0.625105
2.209682 1.349788 -0.635350
2.198112 1.386731 -0.627712
2.299924 0.970230 -0.640696
2.322422 0.976617 -0.636762
2.291932 1.006615 -0.640820
2.315967 1.006697 -0.635980
2.331039 1.011019 -0.632947
2.342403 0.962549 -0.631742
2.348312 0.952072 -0.629477
2.350187 0.997092 -0.625601
2.313965 1.039257 -0.635223
2.275175 1.079394 -0.642428
2.294662 1.072861 -0.640032
2.303809 1.063454 -0.637361
2.325647 1.075409 -0.628606
2.333500 1.050293 -0.628394
2.336812 1.088952 -0.622667
2.347563 1.057987 -0.621390
2.271638 1.118686 -0.645410
2.279418 1.097383 -0.642552
2.322220 1.120515 -0.624501
2.313227 1.101751 -0.630668
2.266385 1.141946 -0.646988
2.281132 1.140307 -0.640978
2.304891 1.160287 -0.628838
2.312288 1.134526 -0.627788
2.338392 1.091614 -0.621589
2.264363 1.174083 -0.646031
2.288156 1.163664 -0.636548
2.306519 1.175060 -0.626364
2.290306 1.226812 -0.626459
2.284405 1.203440 -0.633568
2.299087 1.212971 -0.624609
3.444259 1.690547 0.433536
