-4.033485 -0.370349 6.468863
-4.035334 -0.341401 6.475910
-4.031891 -0.278696 6.476532
-4.021836 -0.283349 6.457879
-3.957053 0.879093 6.464736
-3.961129 0.862087 6.473473
-3.954101 0.903038 6.460882
-3.956928 0.893017 6.464685
-3.957878 0.929213 6.471870
-3.962380 0.913705 6.476749
-3.946805 0.965309 6.459116
-3.952389 0.950283 6.466037
-3.944425 0.991853 6.463724
-3.940940 1.015686 6.464504
-3.931218 1.048893 6.456009
-3.936726 1.025980 6.459202
-3.937882 1.057737 6.470098
-3.933416 1.083495 6.466816
-3.931260 1.150062 6.471043
-3.920601 1.139570 6.452493
-3.926449 1.181223 6.466904
-3.919550 1.174595 6.454569
-3.926460 1.207413 6.470206
-3.930348 1.189416 6.474580
-3.920873 1.230866 6.463359
-3.926064 1.224868 6.471468
-3.922389 1.254210 6.468798
-3.923529 1.245628 6.469651
-3.913007 1.285558 6.457211
-3.921555 1.296547 6.472385
-3.915408 1.341713 6.467578
-3.920326 1.330917 6.474344
-3.910929 1.343846 6.460532
-3.933373 1.267254 6.488591
-3.927526 1.350383 6.488541
-3.931471 1.362847 6.496337
-3.918688 1.404838 6.479782
-3.934205 1.397867 6.504364
-3.933535 1.408862 6.504370
-3.924220 1.453594 6.493700
-3.925066 1.512067 6.499562
-3.926465 1.488137 6.500340
-3.914541 1.535337 6.484503
-3.918869 1.529244 6.491039
-3.917638 1.562735 6.490735
-3.918143 1.590704 6.492663
-3.912504 1.576279 6.482786
-3.912285 1.614632 6.484784
-3.923138 1.609648 6.502243
-3.920384 1.647602 6.499045
-3.911293 1.667011 6.482701
-4.044691 -0.212773 6.510039
-4.049468 -0.106498 6.533003
-4.038215 -0.128724 6.508865
-4.041568 -0.100909 6.518613
-4.040539 -0.090537 6.517820
-4.039021 -0.044804 6.520007
-4.032252 -0.035495 6.508145
-4.040679 -0.034040 6.524329
-4.036568 0.000960 6.520524
-4.029256 0.037477 6.510919
-4.041309 0.023424 6.532017
-4.032212 0.053480 6.518054
-4.030303 0.041594 6.513298
-4.038320 0.076210 6.531966
-4.027432 0.066341 6.510327
-4.033813 0.092707 6.524754
-4.033135 0.130434 6.527745
-4.024942 0.164474 6.517023
-4.023192 0.149920 6.511360
-4.021132 0.177205 6.512291
-4.022177 0.175453 6.513947
-4.019268 0.180156 6.509196
-4.022363 0.219987 6.519360
-4.026896 0.232781 6.528312
-4.025012 0.278036 6.529995
-4.025417 0.284876 6.531596
-4.012532 0.294957 6.511427
-4.020355 0.297380 6.524958
-3.988210 0.791155 6.525818
-3.981124 0.794012 6.512404
-3.984872 0.853278 6.523625
-3.980630 0.844252 6.514142
-3.982143 0.884484 6.519125
-3.981820 0.909811 6.518950
-3.982487 0.961914 6.529761
-3.974239 0.988442 6.521045
-3.972427 1.035983 6.527092
-3.973033 1.030782 6.527287
-3.962199 1.036757 6.509136
-3.973287 1.059880 6.532222
-3.960484 1.080421 6.512967
-3.962278 1.120903 6.521008
-3.954235 1.149873 6.509204
-3.957087 1.136075 6.513080
-3.951651 1.170566 6.506480
-3.953502 1.162037 6.508740
-3.964923 1.212109 6.529683
-3.955218 1.227665 6.517641
-3.955390 1.258449 6.522998
-3.959055 1.284224 6.533295
-3.943902 1.283931 6.508276
-4.128439 -0.928807 6.569752
-4.128575 -0.942987 6.567590
-4.131080 -0.913000 6.577228
-4.126045 -0.903329 6.569096
-4.130021 -0.872836 6.581225
-4.119130 -0.856007 6.562815
-4.116414 -0.820656 6.563520
-4.127937 -0.815549 6.585583
-4.120326 -0.784222 6.576677
-4.121907 -0.799604 6.577100
-4.114964 -0.759134 6.570387
-4.119268 -0.717104 6.584430
-4.108191 -0.688721 6.566872
-4.108003 -0.696089 6.565653
-4.106228 -0.661102 6.566494
-4.106210 -0.628009 6.571312
-4.112906 -0.638848 6.581899
-4.099376 -0.597666 6.563090
-4.097653 -0.581871 6.561814
-4.093865 -0.521682 6.561919
-4.103953 -0.486379 6.585822
-4.102842 -0.506930 6.580974
-4.096722 -0.456678 6.576226
-4.094565 -0.462462 6.571181
-4.091988 -0.481710 6.563195
-4.093544 -0.451508 6.570816
-4.090804 -0.415634 6.570108
-4.096918 -0.389063 6.584789
-4.089993 -0.369192 6.573844
-4.090128 -0.323787 6.579358
-4.085729 -0.336793 6.569830
-4.089493 -0.309993 6.579777
-4.099104 -0.182194 6.616843
-4.108340 -0.154689 6.637265
-4.103722 -0.174437 6.626146
-4.104789 -0.143816 6.630900
-4.107785 -0.145093 6.636489
-4.098285 -0.165800 6.617370
-4.104450 -0.050034 6.639204
-4.096437 -0.045116 6.626133
-4.090539 -0.035870 6.617009
-4.096619 -0.035518 6.628059
-4.099509 0.001585 6.638247
-4.097722 -0.010980 6.633338
-4.094458 0.032710 6.632047
-4.093117 0.014119 6.627724
-4.097612 0.047981 6.638898
-4.098766 0.067692 6.641854
-4.082398 0.109429 6.617592
-4.090280 0.141569 6.635185
-4.084791 0.164378 6.627296
-4.081955 0.154490 6.621100
-4.093506 0.216742 6.642378
-4.078433 0.211755 6.618392
-4.095751 0.252611 6.641191
-4.092589 0.275571 6.639360
-4.094117 0.259300 6.638931
-4.085875 0.305867 6.637682
-4.079255 0.298167 6.625662
-4.080329 0.329257 6.632907
-4.075159 0.337604 6.625245
-4.080407 0.344545 6.635538
-4.075282 0.342419 6.625851
-4.247639 -0.947806 6.759905
-4.247711 -0.920393 6.764645
-4.257669 -0.933408 6.773994
-4.252673 -0.902695 6.772340
-4.237734 -0.912932 6.753902
-4.238158 -0.891449 6.757236
-4.244658 -0.855479 6.770078
-4.231650 -0.857017 6.752966
-4.238870 -0.847696 6.764514
-4.158370 0.375068 6.778795
-4.149800 0.382892 6.764594
-4.140001 0.416748 6.753981
-4.156265 0.395689 6.777874
-4.141421 0.425763 6.758275
-4.143997 0.468750 6.771742
-4.136554 0.452589 6.755701
-4.144041 0.513289 6.778725
-4.133332 0.531650 6.761700
-4.133417 0.576813 6.767050
-4.139676 0.568886 6.777496
-4.131007 0.590941 6.764261
-4.125374 0.606541 6.755987
-4.126682 0.587030 6.756317
-4.123806 0.615922 6.754060
-4.126923 0.641762 6.761153
-4.125498 0.689606 6.765546
-4.116959 0.712383 6.755100
-4.128627 0.714759 6.775557
-4.124350 0.734028 6.771183
-4.123325 0.726217 6.768268
-4.268625 -0.945277 6.784163
-4.279709 -0.893785 6.799864
-4.290659 -0.918735 6.806191
-4.267548 -0.864403 6.792987
-4.263010 -0.924671 6.781344
-4.262238 -0.906118 6.782520
-4.264193 -0.889066 6.786273
-4.288392 0.168942 6.918602
-4.287129 0.176880 6.917924
-4.287668 0.204472 6.918462
-4.286091 0.229538 6.918191
-4.289195 0.274299 6.924566
-4.287780 0.295098 6.926249
-4.287224 0.338130 6.931977
-4.289602 0.321150 6.931608
-4.272767 0.361546 6.923584
-4.267526 1.399644 7.029114
-4.269609 1.437729 7.033143
-4.266178 1.390132 7.027277
-4.263918 1.422333 7.028941
-3.583142 -0.949147 5.779071
-3.504736 -0.379103 5.860598
-3.522454 -0.393879 5.872954
-3.515411 -0.362339 5.873112
-3.512524 -0.363197 5.870437
-3.499623 -0.389007 5.854045
-3.496545 -0.369988 5.855240
-3.500350 -0.331099 5.866437
-3.482709 -0.297832 5.856862
-3.482746 -0.301622 5.856083
-3.497821 -0.285171 5.873870
-3.487056 -0.251705 5.870416
-3.479652 -0.233856 5.866938
-3.467852 -0.234084 5.855093
-3.475394 -0.184421 5.871560
-3.457648 -0.197984 5.851089
-3.461026 -0.203663 5.853762
-3.476994 -0.161117 5.876614
-3.459775 -0.164954 5.858248
-3.468111 -0.167311 5.866687
-3.458014 -0.139629 5.860234
-3.462147 -0.113784 5.868895
-3.447466 -0.099966 5.855068
-3.458191 -0.088060 5.868579
-3.446428 -0.073916 5.857593
-3.450542 -0.049948 5.865236
-3.451965 -0.063275 5.865174
-3.452076 -0.017786 5.870886
-3.445901 -0.017077 5.864059
-3.442655 0.264198 5.896829
-3.437325 0.300862 5.894452
-3.432366 0.338116 5.893189
-3.439089 0.327887 5.900349
-3.424605 0.351697 5.884862
-3.426464 0.345185 5.886543
-3.717173 -0.941676 5.929055
-3.704830 -0.939941 5.916012
-3.703143 -0.918664 5.918097
-3.696571 -0.866027 5.920817
-3.695415 -0.881206 5.916651
-3.686601 -0.875578 5.907775
-3.686102 -0.846605 5.911941
-3.691844 -0.822964 5.922325
-3.693273 -0.805267 5.927214
-3.675017 -0.788213 5.910995
-3.678344 -0.771761 5.917274
-3.666068 -0.735066 5.909648
-3.666226 -0.723871 5.911697
-3.684775 -0.720856 5.931416
-3.669061 -0.680332 5.923341
-3.670470 -0.700467 5.920763
-3.658873 -0.710107 5.907076
-3.663870 -0.674732 5.919557
-3.668863 -0.658847 5.927299
-3.668119 -0.634529 5.931270
-3.648685 -0.659078 5.909019
-3.659872 -0.664943 5.917787
-3.663237 -0.626973 5.928425
-3.652347 -0.645684 5.915357
-3.651519 -0.598094 5.923918
-3.650462 -0.608069 5.921218
-3.635594 -0.574073 5.915954
-3.640318 -0.540263 5.926694
-3.615688 -0.544940 5.908412
-3.621966 -0.513164 5.919549
-3.637674 -0.515840 5.929928
-3.607515 -0.511346 5.909856
-3.626191 -0.483854 5.928645
-3.621450 -0.504128 5.921073
-3.681285 1.374536 6.168195
-3.679555 1.373596 6.166607
-3.671958 1.354784 6.158239
-3.669157 1.382010 6.158437
-3.675587 1.421577 6.167427
-3.670534 1.445230 6.164940
-3.682862 1.441786 6.175292
-3.680096 1.463035 6.174538
-3.678538 1.503257 6.175711
-3.660123 1.466948 6.158111
-3.663153 1.498275 6.162696
-3.671361 1.524284 6.171256
-3.653536 1.519815 6.157253
-3.658345 1.569661 6.164353
-3.661527 1.558545 6.166057
-3.666303 1.601252 6.172179
-3.672834 1.615350 6.177714
-3.661348 1.592094 6.168028
-3.647489 1.579205 6.156898
-3.642771 1.615759 6.155848
-3.659983 1.620231 6.168416
-3.667889 1.627859 6.174458
-3.643705 1.644631 6.157550
-3.661341 1.644342 6.170218
-3.644942 1.669293 6.159069
-3.662714 1.663486 6.171626
-3.652090 1.726004 6.160159
-3.647233 1.741124 6.153050
-3.816342 0.292954 6.202219
-3.811441 0.296368 6.197596
-3.795516 0.291212 6.180197
-3.800077 0.298963 6.186397
-3.803678 0.337956 6.198457
-3.794129 0.329039 6.185751
-3.794644 0.349389 6.189580
-3.716250 1.256866 6.187464
-3.702475 1.290112 6.178077
-3.712565 1.312310 6.191339
-3.713061 1.349066 6.196054
-3.712607 1.327320 6.193129
-3.734447 1.741505 6.222830
-3.712642 1.512267 6.209217
-3.711107 1.521811 6.208278
-3.715370 1.551833 6.214547
-3.707604 1.594128 6.209183
-3.712170 1.577906 6.212863
-3.716023 1.624430 6.218738
-3.713429 1.602239 6.215385
-3.709901 1.638696 6.212754
-3.704867 1.664947 6.207883
-3.714515 1.663240 6.217428
-3.709285 1.680669 6.211941
-3.714054 1.712382 6.214132
-3.719746 1.726933 6.216324
-3.716004 1.740101 6.209098
-3.901652 -0.079211 6.264797
-3.900132 -0.061703 6.271313
-3.910007 -0.067553 6.284224
-3.902893 -0.030756 6.287174
-3.894390 0.023835 6.286312
-3.888835 0.020838 6.277209
-3.883981 -0.010869 6.263855
-3.880435 0.036983 6.267324
-3.879755 0.070352 6.271372
-3.873710 0.114438 6.268184
-3.878905 0.108204 6.275082
-3.869919 0.125508 6.263857
-3.878294 0.125510 6.276227
-3.868126 0.173546 6.265506
-3.866835 0.160214 6.262589
-3.878220 0.187571 6.281484
-3.871738 0.219282 6.273793
-3.863628 0.232531 6.262094
-3.873840 0.229745 6.278361
-3.859952 0.258634 6.260303
-3.868306 0.263898 6.274222
-3.862248 0.294486 6.269269
-3.872868 0.297585 6.285536
-3.866918 0.332733 6.280828
-3.862622 0.356236 6.278191
-3.859072 0.358496 6.273504
-3.855925 0.347921 6.267569
-3.869612 1.698543 6.415775
-3.877752 1.732002 6.415666
-4.097802 -0.824522 6.528208
-4.088449 -0.816665 6.510985
-4.084113 -0.793479 6.506139
-4.095654 -0.793739 6.528726
-4.087716 -0.763209 6.518359
-4.091610 -0.768848 6.524760
-4.082347 -0.730279 6.513152
-4.086937 -0.752448 6.518758
-4.083500 -0.718545 6.516978
-4.077939 -0.696403 6.510067
-4.081078 -0.668004 6.519875
-4.077342 -0.640828 6.516323
-4.083148 -0.625894 6.529318
-4.076524 -0.602289 6.519687
-4.078349 -0.615178 6.521523
-4.071157 -0.599818 6.510033
-4.070644 -0.581710 6.511286
-4.075070 -0.576919 6.520089
-4.073134 -0.520745 6.523524
-4.066606 -0.501326 6.513806
-4.065610 -0.481356 6.514453
-4.069309 -0.434736 6.527250
-4.070746 -0.452447 6.527547
-4.069577 -0.416318 6.530180
-4.053937 -0.375114 6.506092
-4.059506 -0.398303 6.513730
-4.059403 -0.350732 6.519546
-4.054196 -0.371378 6.507032
-4.062956 -0.322473 6.530150
-4.053678 -0.327975 6.511944
-4.061975 -0.290747 6.532320
-4.061224 -0.283956 6.531734
-4.057039 -0.281708 6.524049
-4.053089 -0.260375 6.519222
-4.055892 -0.200611 6.532974
-4.114344 -0.923846 6.543918
-4.122995 -0.922465 6.560215
-4.107024 -0.894673 6.535034
-4.119391 -0.919518 6.553966
-4.120015 -0.883821 6.560424
-4.103749 -0.841049 6.536872
-4.114817 -0.858243 6.554559
-4.113890 -0.863600 6.552072
-4.110380 -0.784994 6.558167
-4.105923 -0.808225 6.546331
-4.101659 -0.815781 6.537154
-4.102579 -0.837235 6.535374
-4.099360 -0.799100 6.535250
-4.105948 -0.737496 6.556530
-4.101689 -0.746351 6.547411
-4.104428 -0.699114 6.558570
-4.099295 -0.718521 6.546326
-4.094013 -0.673349 6.542912
-4.093123 -0.696392 6.537839
-4.098962 -0.650201 6.554848
-4.092449 -0.653021 6.542862
-4.098752 -0.620773 6.558797
-4.086878 -0.628470 6.535957
-4.091360 -0.600294 6.547689
-4.093664 -0.610194 6.550718
-4.090331 -0.573160 6.549069
-4.090673 -0.591122 6.547620
-4.081751 -0.562054 6.534291
-4.093649 -0.541469 6.559244
-4.080042 -0.525108 6.535703
-4.088491 -0.520710 6.551943
-4.080277 -0.501415 6.538862
-4.076127 -0.471164 6.535085
-4.088244 -0.479639 6.556452
-4.085193 -0.434920 6.557134
-4.079147 -0.400401 6.549838
-4.077018 -0.380361 6.548103
-4.084204 -0.395539 6.559831
-4.079618 -0.324139 6.559731
-4.077347 -0.299853 6.558434
-4.188195 -0.816784 6.690475
-4.175807 -0.808033 6.673901
-4.179333 -0.766729 6.686491
-4.172833 -0.740466 6.678124
-4.181996 -0.724891 6.695704
-4.177530 -0.725030 6.687900
-4.169585 -0.680357 6.679537
-4.173992 -0.697194 6.685070
-4.164949 -0.648359 6.676265
-4.169038 -0.631249 6.685338
-4.160803 -0.622358 6.672221
-4.169847 -0.607210 6.689621
-4.164485 -0.528172 6.690395
-4.156733 -0.561597 6.672350
-4.152115 -0.500967 6.672424
-4.151316 -0.438979 6.679159
-4.153652 -0.439092 6.683379
-4.147671 -0.408356 6.676495
-4.157509 -0.422540 6.692460
-4.049349 1.167021 6.685683
-4.047463 1.185464 6.684047
-4.046997 1.198123 6.684748
-4.045505 1.228194 6.685240
-4.044727 1.261187 6.686868
-4.047062 1.249410 6.690425
-4.044314 1.307268 6.689998
-4.044569 1.303606 6.690159
-4.045628 1.299096 6.691840
-4.041137 1.342472 6.687364
-4.040941 1.327849 6.685143
-4.040338 1.362841 6.688627
-4.033534 1.404509 6.680852
-4.035900 1.386835 6.683424
-4.030513 1.416959 6.676175
-4.038394 1.409418 6.690761
-4.029119 1.437475 6.675444
-4.037607 1.483099 6.697186
-4.023335 1.511058 6.671832
-4.035572 1.510738 6.694349
-4.025266 1.557575 6.677289
-4.035932 1.590712 6.695082
-4.035028 1.631876 6.694620
-4.034321 1.674252 6.689047
-4.335921 -0.716163 6.855018
-4.336034 -0.676479 6.860100
-4.319723 -0.703246 6.849699
-4.296143 -0.675516 6.838992
-4.316226 -0.679396 6.850447
-4.300977 -0.651803 6.844781
-4.290420 -0.653995 6.837767
-4.308392 -0.621851 6.852800
-4.291548 -0.622848 6.842520
-4.313557 -0.606731 6.857628
-4.282331 -0.604837 6.837970
-4.314255 -0.584802 6.861193
-4.308113 -0.583090 6.857810
-4.276388 -0.585590 6.835845
-4.292785 -0.575342 6.849664
-4.280857 -0.542595 6.844545
-4.291289 -0.540916 6.853063
-4.291965 -0.535157 6.854261
-4.329662 -0.254623 6.902377
-4.317540 -0.266247 6.896671
-4.300104 -0.254476 6.889218
-4.315465 -0.261766 6.896104
-4.328266 -0.223184 6.904986
-4.314785 -0.205277 6.901267
-4.310702 -0.189331 6.900841
-4.313846 -0.156450 6.905589
-4.292285 -0.164653 6.893944
-4.299104 -0.136474 6.900350
-4.308850 -0.145614 6.904237
-4.281342 -0.135300 6.889638
-4.292345 -0.135662 6.896765
-4.296885 -0.108157 6.901904
-4.314401 -0.110200 6.910349
-4.281621 -0.119636 6.891210
-4.301101 -0.071611 6.907488
-4.316732 -0.090583 6.913378
-4.278786 -0.090774 6.891723
-4.264296 0.564668 6.945646
-4.269790 0.596966 6.952729
-3.392754 -0.950112 5.579477
-3.412859 -0.931920 5.602772
-3.392426 -0.907655 5.588951
-3.399174 -0.872294 5.602918
-3.392841 -0.871179 5.596619
-3.390883 -0.937648 5.580722
-3.389740 -0.869682 5.593725
-3.390745 -0.854936 5.597675
-3.369945 -0.811508 5.584747
-3.380389 -0.827467 5.592467
-3.378918 -0.836777 5.589208
-3.372111 -0.786455 5.591221
-3.378944 -0.800763 5.595654
-3.359087 -0.784357 5.578416
-3.373041 -0.766257 5.595741
-3.376798 -0.779452 5.597224
-3.364988 -0.680765 5.602550
-3.357489 -0.678873 5.594387
-3.364216 -0.679218 5.601947
-3.353917 -0.646387 5.595442
-3.348368 -0.622807 5.592722
-3.342946 -0.638400 5.584042
-3.347571 -0.592512 5.597163
-3.337849 -0.617756 5.581289
-3.340397 -0.578287 5.591010
-3.331290 -0.592008 5.577898
-3.340327 -0.525229 5.599534
-3.337100 -0.563420 5.589547
-3.323479 -0.510196 5.581664
-3.371114 0.403796 5.794972
-3.383286 0.396817 5.816319
-3.378881 0.444650 5.815555
-3.374354 0.436922 5.805306
-3.372908 0.451938 5.805775
-3.370604 0.498262 5.810252
-3.366158 0.483789 5.798868
-3.372087 0.526277 5.817873
-3.371496 0.541907 5.818970
-3.368035 0.544145 5.812300
-3.363513 0.547109 5.803540
-3.365974 0.564505 5.810454
-3.364001 0.565682 5.806678
-3.368268 0.610071 5.818433
-3.366886 0.654273 5.821846
-3.356951 0.658798 5.803440
-3.356990 0.639734 5.801162
-3.359833 0.687635 5.810374
-3.365543 0.704842 5.821506
-3.357981 0.719428 5.808624
-3.350605 0.730609 5.797174
-3.351584 0.759148 5.803186
-3.356271 0.794675 5.818175
-3.353179 0.780732 5.809853
-3.351719 0.825038 5.811942
-3.350289 0.807838 5.807341
-3.353705 0.839504 5.817788
-3.352584 0.909944 5.819677
-3.396670 0.391607 5.838842
-3.392908 0.418643 5.834842
-3.400097 0.399931 5.845562
-3.394232 0.444424 5.845461
-3.394534 0.453164 5.848689
-3.384084 0.470387 5.831695
-3.391722 0.452906 5.842751
-3.447628 0.370515 5.916109
-3.461007 0.368495 5.928929
-3.440778 0.382928 5.909366
-3.443306 0.367642 5.910735
-3.443527 0.409709 5.915528
-3.447984 0.445728 5.923718
-3.436466 0.440816 5.909805
-3.440284 0.433773 5.913729
-3.452863 0.488774 5.929682
-3.441355 0.498487 5.917799
-3.434933 0.483970 5.910306
-3.437810 0.523980 5.916996
-3.427476 0.539664 5.906429
-3.431120 0.570438 5.913667
-3.443334 0.560068 5.927781
-3.736733 -0.922627 5.953773
-3.741059 -0.937038 5.955046
-3.729156 -0.906029 5.949050
-3.720340 -0.875157 5.945706
-3.722793 -0.813032 5.957732
-3.460678 0.597798 5.947781
-3.449012 0.604009 5.936616
-3.464399 0.618832 5.953314
-3.458499 0.665640 5.951920
-3.450121 0.668429 5.943748
-3.448765 0.747045 5.952480
-3.435640 0.796282 5.942514
-3.443387 0.788692 5.950677
-3.433650 0.826097 5.943011
-3.432428 0.841056 5.942910
-3.440969 0.867558 5.954807
-3.423742 0.863553 5.935083
-3.430088 0.900705 5.945940
-3.431410 0.940048 5.952683
-3.428271 0.923481 5.946681
-3.423504 0.943510 5.943646
-3.415159 0.959527 5.934535
-3.421408 0.980874 5.944046
-3.432862 0.981626 5.957903
-3.414339 0.982438 5.935100
-3.414119 1.021655 5.937665
-3.415492 1.003675 5.938028
-3.412827 1.034139 5.936700
-3.427001 1.067107 5.956453
-3.415835 1.077196 5.944564
-3.416738 1.062185 5.943859
-3.821091 -0.319956 6.138596
-3.812502 -0.293886 6.131547
-3.818658 -0.310110 6.136940
-3.823703 -0.277067 6.147140
-3.811700 -0.247211 6.135349
-3.802932 -0.258964 6.123508
-3.815609 -0.222006 6.142576
-3.814065 -0.182294 6.144899
-3.815125 -0.201892 6.144189
-3.800036 -0.207874 6.124937
-3.805158 -0.153610 6.136929
-3.805303 -0.178118 6.134395
-3.795063 -0.167315 6.123495
-3.793069 -0.136328 6.124732
-3.801158 -0.134364 6.134598
-3.806761 -0.118668 6.143837
-3.801904 -0.097593 6.141091
-3.784856 -0.056752 6.127097
-3.780423 -0.043171 6.124006
-3.789328 -0.035768 6.135700
-3.799316 -0.041490 6.146669
-3.787734 0.004407 6.139777
-3.783502 -0.004572 6.133435
-3.776842 0.028890 6.130066
-3.779582 0.060984 6.136959
-3.789731 0.042451 6.146970
-3.789366 0.076096 6.149744
-3.782453 0.079341 6.141802
-3.775681 0.094488 6.134972
-3.786418 0.099722 6.148139
-3.780988 0.135834 6.144511
-3.769859 0.119338 6.130541
-3.767771 0.095361 6.126291
-3.780533 0.179399 6.147298
-3.765667 0.166493 6.130163
-3.773772 0.152456 6.137803
-3.770255 0.201153 6.139058
-3.762661 0.180622 6.128602
-3.772666 0.220336 6.143785
-3.761590 0.252046 6.135547
-3.867232 -0.179011 6.209307
-3.881666 -0.128507 6.225000
-3.876027 -0.150033 6.217560
-3.870662 -0.114647 6.217454
-3.863885 -0.116977 6.210477
-3.861012 -0.079573 6.215631
-3.864197 -0.052861 6.226398
-3.871284 -0.070343 6.231171
-3.861353 -0.022516 6.229445
-3.849670 -0.024154 6.213420
-3.850434 0.004110 6.219445
-3.856001 -0.016559 6.223370
-3.841423 0.063289 6.216369
-3.835451 0.043894 6.205631
-3.833926 0.088804 6.209280
-3.840007 0.073147 6.215672
-3.849982 0.093676 6.231811
-3.831399 0.123968 6.209460
-3.833407 0.162601 6.215311
-3.839467 0.217796 6.223280
-3.827692 0.154772 6.207003
-3.827890 0.209318 6.208314
-3.829015 0.238996 6.209459
-3.834541 0.279606 6.222080
-3.980621 -0.101079 6.409449
-3.982336 -0.115043 6.410490
-3.972079 -0.077036 6.397407
-3.977842 -0.091580 6.405648
-3.981607 -0.049631 6.417044
-3.969400 -0.027124 6.399301
-3.977299 -0.035291 6.411557
-3.973276 0.005920 6.410271
-3.972791 0.055619 6.415083
-3.971962 0.046373 6.412667
-3.962639 0.103455 6.404363
-3.959748 0.140381 6.404568
-3.964494 0.173362 6.415781
-3.965884 0.149853 6.415264
-3.956475 0.188304 6.404784
-3.957785 0.224370 6.410642
-3.961567 0.214542 6.415478
-3.959081 0.233385 6.413507
-3.952745 0.282699 6.409045
-3.958135 0.307803 6.420922
-3.955923 0.332020 6.420411
-3.950730 0.364530 6.416183
-3.953273 0.351739 6.418633
-3.944807 0.383230 6.408770
-3.941435 0.367856 6.401114
-3.941138 0.400246 6.404942
-3.947367 0.394324 6.414509
-3.944976 0.442941 6.416294
-3.945599 0.436383 6.416553
-3.946591 0.456500 6.420316
-3.943205 0.517747 6.421029
-3.940538 0.524246 6.417407
-3.941061 0.555784 6.420698
-3.939772 0.572178 6.419955
-3.937384 0.418352 6.401196
-3.931950 0.456897 6.396681
-3.939036 0.527490 6.415348
-3.927661 0.532391 6.397310
-3.928364 0.569207 6.401077
-4.038670 1.152055 6.663070
-4.032178 1.170881 6.652284
-4.036975 1.207439 6.666118
-4.034439 1.191955 6.659354
-4.024628 1.258186 6.646021
-4.034266 1.259083 6.665690
-4.032969 1.273345 6.664709
-4.032094 1.322313 6.667594
-4.033468 1.296773 6.667808
-4.029646 1.329326 6.664059
-4.017410 1.344605 6.644323
-4.019058 1.366971 6.649225
-4.014965 1.404505 6.644038
-4.024566 1.413035 6.664087
-4.019736 1.420828 6.655264
-4.025499 1.441107 6.668917
-4.021581 1.467285 6.664672
-4.020355 1.463986 6.661794
-4.013275 1.514219 6.654010
-4.019077 1.510198 6.663865
-4.007910 1.558496 6.646264
-4.014904 1.550926 6.658401
-4.008044 1.583250 6.647676
-4.011593 1.623729 6.653486
-4.006641 1.612677 6.645831
-4.017085 1.629880 6.661884
-4.011736 1.650023 6.652151
-4.022423 1.659217 6.669741
-4.011728 1.663201 6.650510
-4.013121 1.672880 6.651510
-4.236454 -0.920279 6.751236
-4.218530 -0.940536 6.725292
-4.230094 -0.896999 6.745250
-4.221020 -0.912101 6.731308
-4.217742 -0.871684 6.728840
-4.219978 -0.837753 6.736449
-4.225356 -0.802603 6.750760
-4.211906 -0.785118 6.733542
-4.206066 -0.772615 6.727050
-4.208740 -0.774955 6.730641
-4.206240 -0.715933 6.736044
-4.204690 -0.681424 6.738026
-4.204440 -0.695451 6.735891
-4.202182 -0.628640 6.740499
-4.198895 -0.635787 6.734389
-4.199706 -0.594612 6.740860
-4.203363 -0.611390 6.744617
-4.190429 -0.572912 6.728343
-4.189468 -0.536686 6.731158
-4.187856 -0.556356 6.726100
-4.187310 -0.515944 6.730442
-4.190763 -0.528898 6.734255
-4.199082 -0.508812 6.750072
-4.181604 -0.484083 6.725704
-4.191664 -0.461119 6.744526
-4.184695 -0.477037 6.731328
-4.188442 0.152845 6.808530
-4.192951 0.148547 6.814939
-4.188577 0.196455 6.811171
-4.203324 0.189347 6.832476
-4.189040 0.228424 6.811671
-4.187641 0.225137 6.809781
-4.194335 0.277114 6.816881
-4.197073 0.260623 6.820068
-4.193454 0.309319 6.819300
-4.189991 0.291645 6.812286
-4.193840 0.313739 6.820537
-4.184805 0.362018 6.818536
-4.156071 0.593137 6.808171
-4.153691 0.619963 6.807297
-4.156415 0.642583 6.815322
-4.152024 0.685463 6.810313
-4.149554 0.697474 6.807167
-4.156278 0.695485 6.818821
-4.150044 0.732829 6.814715
-4.155912 0.722337 6.822606
-4.141865 0.800446 6.812705
-4.149374 0.778974 6.822408
-4.146292 0.824365 6.823283
-4.149101 0.823921 6.828024
-4.145718 0.835350 6.823626
-4.136649 0.863520 6.811430
-4.138279 0.886521 6.817106
-4.133298 0.916907 6.812696
-4.135064 0.952258 6.820196
-4.133342 0.993329 6.822305
-4.132113 1.005114 6.821516
-4.129049 1.001537 6.815676
-4.131829 1.029340 6.823680
-4.135341 1.066354 6.832725
-4.124472 1.071563 6.813995
-4.124662 1.052263 6.812722
-4.134275 1.098356 6.833047
-4.124288 1.094708 6.815701
-4.127078 1.131701 6.823671
-4.128872 1.123758 6.825871
-4.126486 1.159254 6.825842
-4.121743 1.138600 6.815876
-4.120790 1.185634 6.820415
-4.114976 1.167228 6.808091
-4.127429 1.165665 6.828423
-4.118573 1.208291 6.819379
-4.115116 1.198643 6.812294
-4.110988 1.223904 6.807880
-4.340662 1.732501 6.983020
-4.306977 1.731949 6.980336
-4.297180 1.731822 6.975855
-4.326420 1.735780 6.971741
-4.232967 1.704973 6.976225
-4.232930 1.682320 6.996251
-4.253265 1.711170 6.987403
-3.525769 -0.920328 5.722574
-3.536834 -0.900722 5.739367
-3.524698 -0.874739 5.732340
-3.521579 -0.847498 5.735838
-3.511195 -0.856766 5.722388
-3.516593 -0.828716 5.735473
-3.512410 -0.826516 5.731591
-3.507054 -0.786424 5.738122
-3.493677 -0.787806 5.722445
-3.494084 -0.768600 5.729187
-3.477818 -0.738177 5.720796
-3.491225 -0.739751 5.736058
-3.477108 -0.754591 5.714043
-3.470729 -0.734149 5.713562
-3.479156 -0.713585 5.731400
-3.473210 -0.704451 5.727633
-3.475997 -0.692012 5.735023
-3.453652 -0.673389 5.713282
-3.473032 -0.675345 5.736448
-3.462130 -0.667736 5.725311
-3.441709 -0.570849 5.731875
-3.436226 -0.581290 5.719347
-3.431549 -0.543130 5.727515
-3.421224 -0.514570 5.722389
-3.416657 -0.515856 5.714612
-3.435113 0.605330 5.920813
-3.427202 0.637565 5.913701
-3.429716 0.624631 5.915624
-3.424148 0.654886 5.911425
-3.429544 0.643954 5.917300
-3.418508 0.666835 5.904510
-3.423345 0.692512 5.911085
-3.421142 0.734548 5.914198
-3.411331 0.809879 5.914029
-3.411534 0.840787 5.917419
-3.405295 0.879613 5.912807
-3.411221 0.900531 5.922947
-3.403188 0.923029 5.914130
-3.402788 0.958617 5.916798
-3.399150 0.949044 5.910828
-3.402142 0.994837 5.918646
-3.403511 0.972923 5.918997
-3.401604 1.006683 5.918855
-3.392001 1.024607 5.905887
-3.406355 1.031975 5.928341
-3.403503 1.061648 5.927217
-3.400119 1.056326 5.921363
-3.398807 1.093239 5.923521
-3.392856 1.096855 5.914312
-3.398285 1.117597 5.924788
-3.390105 1.049291 5.905448
-3.390907 1.087230 5.910380
-3.557140 -0.025941 5.956355
-3.538647 -0.049996 5.940390
-3.554278 -0.052799 5.950736
-3.542262 -0.036388 5.944763
-3.547806 -0.020543 5.950718
-3.557966 -0.010581 5.958851
-3.551987 0.008953 5.957228
-3.531911 -0.011402 5.940971
-3.544947 -0.013677 5.949628
-3.528269 -0.000717 5.939872
-3.533638 0.028918 5.947316
-3.536227 0.085949 5.955988
-3.518701 0.083886 5.943017
-3.517095 0.103330 5.944088
-3.521959 0.115824 5.949368
-3.529972 0.135420 5.958210
-3.527806 0.133733 5.956306
-3.508839 0.134343 5.941767
-3.499857 0.117585 5.932827
-3.514607 0.147801 5.948087
-3.496666 0.176617 5.937900
-3.421395 1.109916 5.955331
-3.409735 1.130989 5.941965
-3.402000 1.162504 5.934317
-3.407289 1.161463 5.941360
-3.397133 1.206134 5.932807
-3.401752 1.190686 5.937251
-3.404807 1.238148 5.945460
-3.407592 1.217011 5.948102
-3.487360 1.319772 6.036179
-3.490387 1.302345 6.037504
-3.462719 1.305678 6.015388
-3.491561 1.339059 6.040700
-3.470746 1.349147 6.024538
-3.478093 1.364546 6.031067
-3.472050 1.404021 6.026626
-3.470013 1.395828 6.024507
-3.486768 1.409097 6.040538
-3.482620 1.413322 6.036766
-3.472218 1.424669 6.027340
-3.484614 1.448167 6.040336
-3.472485 1.437576 6.028099
-3.467097 1.479530 6.025729
-3.471837 1.478655 6.030322
-3.463814 1.487791 6.022786
-3.454940 1.524718 6.019926
-3.455352 1.515299 6.018363
-3.473319 1.564629 6.040275
-3.454195 1.590662 6.024145
-3.456746 1.572977 6.025850
-3.454804 1.604336 6.026318
-3.445721 1.574106 6.016297
-3.463428 1.629395 6.038564
-3.439505 1.637313 6.018468
-3.439059 1.675171 6.021990
-3.441751 1.665978 6.024375
-3.493124 1.462457 6.048414
-3.479599 1.506237 6.041791
-3.499529 1.520430 6.060622
-3.487377 1.566173 6.053037
-3.497847 1.554307 6.062012
-3.484432 1.543299 6.050556
-3.494182 1.590990 6.059592
-3.481590 1.576892 6.047801
-3.493445 1.621258 6.061944
-3.482467 1.612482 6.051851
-3.490883 1.631743 6.061278
-3.467216 1.641080 6.043570
-3.478734 1.667828 6.056252
-3.481532 1.662704 6.057913
-3.465735 1.662846 6.045191
-3.469664 1.703421 6.050454
-3.466897 1.687289 6.047746
-3.491610 1.710171 6.067470
-3.467496 1.725733 6.045795
-3.530466 1.636924 6.091170
-3.526664 1.643790 6.089358
-3.529243 1.672898 6.093153
-3.515753 1.673255 6.084194
-3.530934 1.682612 6.094551
-3.507699 1.682635 6.079188
-3.526923 1.700055 6.091851
-3.521805 1.733147 6.086349
-3.511620 1.714740 6.081192
-3.499800 1.724262 6.072026
-3.782794 0.378159 6.179589
-3.797526 0.375174 6.196588
-3.782654 0.413711 6.184051
-3.786022 0.442300 6.191378
-3.793468 0.421951 6.197741
-3.788933 0.451826 6.195761
-3.785639 0.494115 6.196175
-3.792160 0.477195 6.202178
-3.776367 0.532111 6.189452
-3.776509 0.575997 6.194030
-3.775908 0.633857 6.198586
-3.764837 0.610980 6.183578
-3.773890 0.608748 6.193886
-3.762344 0.637141 6.182804
-3.777793 0.672630 6.204101
-3.771022 0.661561 6.195276
-3.754919 0.680607 6.178118
-3.755319 0.699898 6.180489
-3.769098 0.699897 6.196463
-3.748968 0.747399 6.178319
-3.759706 0.725098 6.188112
-3.928467 -0.938280 6.209844
-3.929104 -0.943352 6.209770
-3.929212 -0.905598 6.217805
-3.932528 -0.883674 6.226914
-3.927063 -0.881877 6.218621
-3.930417 -0.845467 6.230129
-3.918924 -0.824408 6.215505
-3.924646 -0.831169 6.223413
-3.919175 -0.809425 6.218477
-3.918344 -0.775816 6.222335
-3.915307 -0.743446 6.221742
-3.921055 -0.739343 6.231100
-4.003601 -0.213912 6.431349
-4.011677 -0.228744 6.444158
-4.007901 -0.203887 6.440788
-4.008697 -0.161063 6.450178
-3.994384 -0.145639 6.426759
-4.002883 -0.145873 6.442131
-3.992426 -0.132004 6.425660
-3.990953 -0.076036 6.429768
-3.993380 -0.090728 6.432464
-3.999786 -0.065758 6.444994
-3.996545 0.015398 6.450657
-3.986811 0.002293 6.432576
-3.990879 -0.011333 6.437267
-3.987694 0.031278 6.437234
-3.987017 0.063795 6.439042
-3.983408 0.091702 6.435164
-3.987338 0.072478 6.439815
-3.983852 0.099150 6.435731
-3.982979 0.129656 6.436931
-3.980308 0.123066 6.432795
-3.982093 0.189098 6.444792
-3.973565 0.186570 6.431061
-3.981993 0.210500 6.447648
-3.968495 0.209612 6.425670
-3.977750 0.254450 6.446375
-3.972538 0.233590 6.435020
-3.965650 0.245338 6.425061
-3.970350 0.257093 6.434263
-3.975206 0.295675 6.448231
-3.964957 0.285758 6.429676
-3.967995 0.318747 6.439224
-4.107924 0.391273 6.685760
-4.107820 0.409801 6.686240
-4.111294 0.400991 6.692078
-4.106285 0.443789 6.689379
-4.107171 0.433146 6.688717
-4.099261 0.439533 6.674986
-4.098229 0.480846 6.682693
-4.095691 0.517046 6.681420
-4.097729 0.512870 6.685504
-4.095449 0.551331 6.685711
-4.097867 0.538966 6.688033
-4.094300 0.560208 6.685424
-4.164468 1.715354 6.830287
-4.179605 1.735080 6.811152
-4.140883 1.691174 6.833353
-4.115934 1.685632 6.810399
-4.129823 1.698250 6.818033
-4.153977 1.707901 6.831447
-4.243105 -0.065871 6.863036
-4.259464 -0.051102 6.879470
-4.243862 0.007660 6.869782
-4.241495 -0.005410 6.866396
-4.252004 0.012684 6.877979
-4.253844 0.056485 6.883672
-4.258332 0.041389 6.886702
-4.237648 0.046892 6.866898
-4.248215 0.084787 6.880427
-4.244089 0.086224 6.876477
-4.252182 0.105218 6.885840
-4.240090 0.095794 6.873240
-4.230226 0.127814 6.864376
-4.251752 0.882332 6.969681
-4.245332 0.862913 6.961981
-4.239810 0.919161 6.962929
-4.242101 0.963283 6.968861
-4.233542 0.965043 6.960471
-4.222263 0.995235 6.951492
-4.215023 1.014113 6.945426
-4.235698 0.997550 6.965538
-4.227501 1.040085 6.960761
-4.224145 1.066813 6.959973
-4.220192 1.053651 6.954570
-4.225766 1.085960 6.963162
-4.228752 1.120208 6.968150
-4.213422 1.107494 6.952769
-4.206689 1.118249 6.946097
-4.224865 1.144960 6.965756
-4.215050 1.144148 6.956019
-4.204053 1.198475 6.949987
-4.220433 1.463866 6.995887
-4.216692 1.500833 6.994669
-4.211430 1.493689 6.988623
-4.207909 1.539526 6.987949
-4.207340 1.525313 6.986320
-4.192939 1.567987 6.971185
-4.201867 1.605515 6.980030
-4.225132 1.667787 6.993660
-4.208821 1.632414 6.984236
-4.212036 1.652138 6.983489
-3.517093 -0.950261 5.706471
-3.514300 -0.928830 5.708264
-3.603872 -0.836904 5.824793
-3.595144 -0.804211 5.824731
-3.602030 -0.802782 5.832148
-3.595102 -0.754563 5.837576
-3.577494 -0.740721 5.824977
-3.591965 -0.707665 5.849082
-3.573526 -0.687526 5.838603
-3.569507 -0.661260 5.843053
-3.564180 -0.618885 5.849456
-3.551932 -0.658760 5.827515
-3.549764 -0.626444 5.834976
-3.539790 -0.613866 5.830929
-3.530751 -0.584272 5.833233
-3.528794 -0.558020 5.838672
-3.531631 -0.527623 5.847593
-3.527953 -0.517128 5.846817
-3.502808 -0.519863 5.822437
-3.521123 -0.507762 5.842775
-3.507427 -0.461612 5.843712
-3.509491 -0.477775 5.840879
-3.506313 -0.437241 5.849351
-3.400477 0.488969 5.864282
-3.404680 0.542893 5.875857
-3.399732 0.581129 5.869246
-3.394633 0.569825 5.860624
-3.388689 0.549906 5.850585
-3.400722 0.600850 5.873020
-3.393929 0.634320 5.866319
-3.397369 0.614645 5.869071
-3.389390 0.623384 5.856760
-3.384883 0.647942 5.852843
-3.384673 0.669182 5.854581
-3.397947 0.719113 5.875472
-3.382467 0.714089 5.852069
-3.390313 0.696371 5.863074
-3.390483 0.746468 5.870901
-3.380852 0.768156 5.859773
-3.388733 0.780005 5.876581
-3.384448 0.782040 5.869238
-3.372293 0.813923 5.852307
-3.373457 0.856034 5.859032
-3.375940 0.835664 5.861501
-3.371816 0.871184 5.857359
-3.380073 0.907153 5.876416
-3.378700 0.936537 5.876322
-3.369372 0.917289 5.856056
-3.378501 0.942109 5.876374
-3.368166 0.993991 5.858390
-3.366639 1.008191 5.855785
-3.677097 -0.948278 5.883962
-3.679471 -0.920028 5.891690
-3.684241 -0.936317 5.894113
-3.674530 -0.946111 5.881548
-3.669126 -0.894925 5.884819
-3.681604 -0.918261 5.894352
-3.675080 -0.875376 5.895032
-3.675866 -0.885959 5.893940
-3.668336 -0.854424 5.891433
-3.678754 -0.863588 5.901301
-3.662465 -0.865126 5.883207
-3.666467 -0.797481 5.900077
-3.650865 -0.820519 5.879120
-3.664889 -0.812088 5.895515
-3.646764 -0.786446 5.881877
-3.660362 -0.800536 5.893068
-3.655906 -0.765051 5.895009
-3.656235 -0.753988 5.896991
-3.635490 -0.748487 5.877685
-3.648558 -0.723079 5.894644
-3.636599 -0.705420 5.887418
-3.627526 -0.693913 5.882452
-3.614220 -0.655113 5.881805
-3.633266 -0.655493 5.896857
-3.622476 -0.632260 5.893855
-3.603701 -0.642033 5.876935
-3.608820 -0.642944 5.880599
-3.612653 -0.608378 5.891757
-3.618444 -0.607158 5.896182
-3.589883 -0.591784 5.879544
-3.609861 -0.604837 5.890695
-3.589170 -0.577407 5.882761
-3.586731 -0.590043 5.877732
-3.609254 -0.570756 5.898610
-3.584122 -0.541309 5.887015
-3.606820 -0.540264 5.903139
-3.595851 -0.560931 5.891333
-3.588120 -0.510613 5.896497
-3.601652 -0.533363 5.900966
-3.578984 -0.513509 5.889274
-3.427002 1.247883 5.974922
-3.420897 1.288723 5.970419
-3.423395 1.309796 5.974218
-3.413153 1.308097 5.961287
-3.428209 1.324973 5.980715
-3.411430 1.344151 5.960647
-3.422677 1.378148 5.974727
-3.427753 1.356381 5.980761
-3.414051 1.369764 5.964436
-3.413458 1.383439 5.963945
-3.429821 1.428684 5.984010
-3.420506 1.428577 5.973078
-3.418885 1.426632 5.971160
-3.426384 1.457860 5.981472
-3.420812 1.440456 5.973889
-3.422105 1.470710 5.975927
-3.417179 1.480766 5.968163
-3.423032 1.500464 5.976402
-3.430029 1.499844 5.986190
-3.416280 1.501182 5.964700
-3.422200 1.528915 5.975869
-3.421170 1.542963 5.976949
-3.413199 1.562732 5.961893
-3.413953 1.580374 5.967596
-3.416194 1.585446 5.973989
-3.406439 1.601308 5.959810
-3.411864 1.635474 5.980482
-3.404841 1.637875 5.967859
-3.409143 1.671068 5.980444
-3.532332 0.606935 6.005841
-3.514581 0.603145 5.993534
-3.507106 0.638160 5.991473
-3.518261 0.618727 5.997288
-3.532584 0.640002 6.009579
-3.503419 0.652653 5.989597
-3.519658 0.651077 6.001578
-3.509547 0.684347 5.995461
-3.520425 0.671094 6.003428
-3.512389 0.707352 5.999547
-3.513323 0.743272 6.005253
-3.512985 0.732195 6.003343
-3.504952 0.770879 6.001907
-3.512918 0.758325 6.006504
-3.503691 0.778304 6.001623
-3.500691 0.734318 5.994856
-3.492608 0.793559 5.995243
-3.497841 0.787019 5.998371
-3.512447 0.807780 6.010381
-3.509852 0.911243 6.013484
-3.502183 0.904868 6.008146
-3.771532 -0.402995 6.069965
-3.791108 -0.399324 6.092853
-3.787117 -0.357398 6.092633
-3.782572 -0.370176 6.086091
-3.767323 -0.374851 6.068542
-3.777297 -0.315804 6.086454
-3.764088 -0.298619 6.073624
-3.776883 -0.283845 6.089830
-3.765699 -0.268944 6.078880
-3.774756 -0.275830 6.088285
-3.755078 -0.210075 6.073375
-3.772926 -0.212486 6.093000
-3.751700 -0.206674 6.069952
-3.748965 -0.172902 6.070188
-3.760541 -0.179769 6.082459
-3.766394 -0.145640 6.091512
-3.761657 -0.146551 6.085897
-3.753510 -0.105010 6.080444
-3.764491 -0.106940 6.093450
-3.747097 -0.113054 6.071589
-3.749331 -0.087945 6.078968
-3.745984 -0.060524 6.082023
-3.736850 -0.033227 6.077385
-3.737113 -0.040403 6.076603
-3.746458 -0.009646 6.090895
-3.735504 0.036393 6.085739
-3.724822 0.024917 6.073137
-3.743752 0.018363 6.091758
-3.731772 0.055512 6.084492
-3.739363 0.050497 6.091528
-3.723640 0.081032 6.079577
-3.731343 0.077919 6.086819
-3.721264 0.110038 6.080431
-3.733608 0.114742 6.092918
-3.724188 0.129503 6.085494
-3.729977 0.134179 6.091668
-3.724438 0.161788 6.089466
-3.668068 0.765024 6.104595
-3.678611 0.756609 6.112365
-3.681420 0.800412 6.118222
-3.665040 0.776210 6.103100
-3.680110 0.849295 6.121765
-3.658402 0.830555 6.103981
-3.662882 0.839155 6.107720
-3.673932 0.873692 6.118825
-3.667938 0.872189 6.114014
-3.667027 0.908454 6.116395
-3.675148 0.900743 6.122078
-3.652507 0.876006 6.103650
-3.661674 0.868587 6.109248
-3.661285 0.906645 6.112188
-3.651846 0.886545 6.104045
-3.638384 0.916618 6.097412
-3.646428 0.939465 6.104733
-3.649615 0.962701 6.108604
-3.660523 0.957305 6.115721
-3.634863 0.959827 6.098452
-3.638255 0.992993 6.102706
-3.661787 0.968610 6.117420
-3.641485 0.998597 6.105289
-3.649911 1.001312 6.111318
-3.634830 1.013789 6.102028
-3.647951 1.043884 6.112593
-3.653686 1.032733 6.115748
-3.624544 1.041930 6.098196
-3.654214 1.058106 6.117577
-3.640235 1.098843 6.111151
-3.652211 1.126566 6.120495
-3.648810 1.111079 6.117260
-3.633540 1.129726 6.109865
-3.640760 1.153844 6.115840
-3.617085 1.148044 6.102115
-3.630455 1.144154 6.109283
-3.643215 1.179306 6.119487
-3.615054 1.168983 6.102607
-3.611759 1.209997 6.104651
-3.631886 1.204813 6.115640
-3.640421 1.222173 6.122650
-3.618987 1.241241 6.111788
-3.610865 1.235928 6.106442
-3.606934 1.149779 6.096608
-3.609586 1.173995 6.099991
-3.607658 1.236254 6.104679
-3.891162 -0.950259 6.149990
-3.866976 -0.907055 6.123204
-3.877679 -0.868431 6.145792
-3.869035 -0.878745 6.131152
-3.874770 -0.840076 6.146067
-3.874620 -0.846556 6.144803
-3.859756 -0.814140 6.129179
-3.863920 -0.825726 6.132911
-3.873814 -0.836018 6.145412
-3.871754 -0.807275 6.147210
-3.731770 0.775097 6.163169
-3.730458 0.769320 6.161273
-3.729114 0.763217 6.159269
-3.721495 0.803339 6.154957
-3.721690 0.780306 6.153137
-3.722255 0.831139 6.158271
-3.740736 0.805218 6.175205
-3.730129 0.850433 6.167862
-3.725008 0.858804 6.163188
-3.735348 0.889873 6.176304
-3.725441 0.929986 6.169592
-3.726044 0.924402 6.169732
-3.727164 0.942492 6.172353
-3.718292 0.934236 6.162814
-3.713573 0.964832 6.160726
-3.715401 0.942978 6.160767
-3.927234 -0.102399 6.309535
-3.927857 -0.121168 6.307807
-3.920990 -0.082594 6.299080
-3.925868 -0.094441 6.307758
-3.922268 -0.058820 6.312254
-3.916890 -0.067167 6.298143
-3.906561 -0.047371 6.287612
-3.916739 -0.023164 6.311595
-3.901876 -0.023063 6.287858
-3.909895 -0.031969 6.298182
-3.900089 -0.000827 6.290296
-3.911047 0.000966 6.307614
-3.896459 0.015495 6.288018
-3.894547 0.043619 6.289793
-3.907081 0.085472 6.314323
-3.899538 0.069246 6.300890
-3.893733 0.112095 6.297681
-3.888289 0.102427 6.288364
-3.888895 0.163782 6.295768
-3.898947 0.195206 6.314064
-3.892394 0.215720 6.306175
-3.889358 0.206663 6.300583
-3.883795 0.223056 6.293728
-3.889226 0.280961 6.308331
-3.888204 0.300630 6.307545
-3.883569 0.270945 6.298597
-3.885123 0.344166 6.307553
-3.823068 1.153450 6.308564
-3.825347 1.133160 6.309355
-3.806488 1.171808 6.288372
-3.817996 1.164079 6.302927
-3.817897 1.200359 6.306715
-3.813476 1.235635 6.304336
-3.807299 1.252117 6.297771
-3.805070 1.244237 6.294074
-3.805739 1.311179 6.301898
-3.806612 1.344428 6.306893
-3.807326 1.323758 6.305464
-3.807384 1.366311 6.310420
-3.803177 1.381201 6.306489
-3.804502 1.414003 6.311217
-3.790848 1.408780 6.292606
-3.795260 1.485135 6.304367
-3.791827 1.462165 6.298379
-3.790601 1.513350 6.299989
-3.791260 1.495228 6.299776
-3.799062 1.540332 6.312637
-3.785651 1.522466 6.294081
-3.786201 1.558449 6.296837
-3.790517 1.556082 6.302321
-3.780040 1.589343 6.289526
-3.782365 1.624464 6.288947
-3.789733 1.610709 6.299971
-3.801187 1.635782 6.313064
-3.783473 1.670859 6.292570
-3.790495 1.662806 6.300919
-3.919411 1.369869 6.477158
-3.909129 1.354316 6.458844
-3.902138 1.405201 6.453237
-3.913134 1.459077 6.476284
-3.899490 1.459717 6.454689
-3.904375 1.433117 6.459849
-3.909497 1.470933 6.471517
-3.905739 1.514688 6.468724
-3.910891 1.500276 6.475986
-3.908857 1.536295 6.475461
-3.893401 1.551088 6.451848
-3.899196 1.549262 6.460772
-3.897951 1.579877 6.460164
-3.908856 1.581360 6.477045
-3.908225 1.616871 6.478419
-3.898910 1.639345 6.465020
-3.896892 1.632932 6.461565
-3.907565 1.671155 6.476693
-3.903433 1.658081 6.472436
-3.996614 0.337023 6.487818
-3.998444 0.343293 6.491093
-3.959250 1.705360 6.546818
-3.960126 1.686062 6.556761
-3.956257 1.679636 6.552847
-3.969025 1.719280 6.552540
-3.962095 1.707375 6.550410
-3.977486 1.734014 6.556902
-4.208553 -0.951645 6.708880
-4.146810 0.009191 6.726635
-4.157651 -0.001190 6.743502
-4.149671 0.036616 6.734939
-4.153687 0.025412 6.740685
-4.151578 0.060002 6.740613
-4.150259 0.106818 6.741661
-4.142423 0.099603 6.726801
-4.149571 0.122410 6.741329
-4.141893 0.169722 6.729885
-4.147939 0.156620 6.740417
-4.151061 0.191128 6.748387
-4.150386 0.211256 6.747932
-4.139599 0.222379 6.727556
-4.141432 0.241218 6.730685
-4.143756 0.258481 6.735726
-4.138254 0.294415 6.728019
-4.144788 0.292593 6.742095
-4.137545 0.319445 6.731570
-4.142504 0.324519 6.742837
-4.130613 0.354010 6.725327
-4.144181 0.351115 6.750407
-4.121183 0.771052 6.771215
-4.112690 0.770672 6.755378
-4.108548 0.815209 6.752707
-4.121232 0.822372 6.778280
-4.118554 0.852774 6.777309
-4.103768 0.885755 6.755448
-4.113491 0.903161 6.775456
-4.107674 0.886270 6.762559
-4.110213 0.915760 6.771276
-4.108209 0.965230 6.773818
-4.100961 0.914196 6.754286
-4.097918 0.992898 6.757184
-4.100523 1.018873 6.764711
-4.100566 1.011271 6.764018
-4.105418 1.036941 6.775843
-4.100119 1.042541 6.766543
-4.102190 1.038906 6.770041
-4.097480 1.056009 6.763172
-4.104185 1.089036 6.779389
-4.090281 1.081884 6.752858
-4.096754 1.078093 6.764335
-4.094602 1.124731 6.765504
-4.098155 1.156627 6.775164
-4.098561 1.133848 6.773710
-4.089332 1.176450 6.760778
-4.085983 1.193747 6.756945
-4.095560 1.203761 6.776763
-4.082281 1.229104 6.755043
-4.094930 1.234339 6.779259
-4.080851 1.247881 6.754608
-4.090817 1.273576 6.775724
-3.358310 0.393153 5.766870
-3.348137 0.374949 5.742826
-3.350979 0.413618 5.757006
-3.356122 0.405323 5.765515
-3.348804 0.444099 5.760345
-3.339493 0.456429 5.745111
-3.345387 0.525506 5.763835
-3.383536 0.061696 5.784531
-3.390737 0.038436 5.794111
-3.379773 0.079206 5.779577
-3.380182 0.130631 5.787303
-3.368489 0.174396 5.772290
-3.367876 0.165266 5.770133
-3.380100 0.176755 5.793260
-3.368122 0.176793 5.771910
-3.366865 0.225298 5.775335
-3.365357 0.202992 5.769968
-3.371828 0.248973 5.787110
-3.363433 0.261594 5.773180
-3.362905 0.319621 5.774690
-3.366690 0.340470 5.782228
-3.360034 0.350059 5.768441
-3.360772 0.341764 5.770411
-3.701797 -0.058960 6.041434
-3.704086 -0.020753 6.048522
-3.716918 -0.021415 6.059381
-3.694992 0.008297 6.043899
-3.706306 -0.005390 6.052196
-3.701889 0.021567 6.051697
-3.700613 0.054276 6.055177
-3.707563 0.053060 6.061025
-3.686329 0.043407 6.042088
-3.694462 0.083771 6.054231
-3.693131 0.108581 6.056170
-3.672915 0.109466 6.041250
-3.700787 0.130260 6.064771
-3.677514 0.156298 6.050100
-3.692272 0.183253 6.063826
-3.682374 0.223522 6.060986
-3.692400 0.210560 6.066881
-3.667455 0.274104 6.056407
-3.675308 0.306714 6.066729
-3.660745 0.271278 6.051548
-3.653821 0.296479 6.050444
-3.666137 0.321612 6.061913
-3.650109 0.327117 6.052017
-3.659704 0.317554 6.057127
-3.644353 0.364683 6.052036
-3.653222 0.348391 6.056425
-3.636125 0.364156 6.046565
-3.634994 0.347846 6.044261
-3.758168 0.266398 6.134176
-3.751455 0.261023 6.125931
-3.763382 0.303259 6.146162
-3.744879 0.303209 6.126741
-3.749885 0.315981 6.133952
-3.758921 0.311955 6.142912
-3.744385 0.319689 6.128916
-3.747759 0.354314 6.137700
-3.730127 0.591513 6.144440
-3.728893 0.638875 6.146983
-3.725183 0.617879 6.141577
-3.723201 0.684029 6.145215
-3.721267 0.712054 6.146029
-3.723193 0.722554 6.149018
-3.716266 0.610466 6.132457
-3.714751 0.587279 6.129113
-3.713287 0.664396 6.133753
-3.699605 0.691957 6.123663
-3.719746 0.674891 6.140697
-3.711872 0.696814 6.135615
-3.704912 0.726652 6.132099
-3.861137 -0.165774 6.202907
-3.841340 -0.178609 6.178475
-3.852643 -0.100747 6.202084
-3.855414 -0.111566 6.203170
-3.841029 -0.084734 6.191089
-3.833014 -0.098541 6.179190
-3.846886 -0.065722 6.201770
-3.835228 -0.061517 6.187940
-3.833640 -0.016885 6.193484
-3.835439 -0.034667 6.192702
-3.835383 0.028358 6.203229
-3.827752 -0.045225 6.181132
-3.828106 -0.011757 6.187100
-3.833631 0.042727 6.203032
-3.816326 0.055847 6.182008
-3.814474 0.083838 6.182719
-3.826857 0.075256 6.198167
-3.811027 0.113046 6.181192
-3.813569 0.146894 6.187488
-3.817270 0.123370 6.190485
-3.810740 0.157871 6.184538
-3.821160 0.200573 6.200154
-3.818996 0.191632 6.196897
-3.811105 0.218266 6.188488
-3.816946 0.205011 6.195288
-3.805645 0.234050 6.183475
-3.823484 0.236790 6.203246
-3.801187 0.233418 6.178779
-3.718651 1.238563 6.187765
-3.731700 1.248550 6.202682
-3.727106 1.285422 6.202770
-3.899738 -0.165985 6.247366
-3.895983 -0.145670 6.238881
-3.907783 -0.135897 6.256534
-3.895959 -0.115755 6.244966
-3.894077 -0.119305 6.241446
-3.895173 -0.073255 6.258573
-3.887434 -0.076778 6.247231
-3.879357 -0.084354 6.235758
-3.884620 -0.051176 6.253569
-3.876046 -0.055895 6.241524
-3.881636 -0.018629 6.258922
-3.864249 0.001387 6.237766
-3.873915 0.032996 6.257119
-3.857979 0.055019 6.237833
-3.872403 0.063377 6.259595
-3.862215 0.072987 6.246426
-3.865397 0.112064 6.255751
-3.855935 0.094071 6.240231
-3.848260 0.128697 6.233189
-3.854762 0.147870 6.244342
-3.849801 0.190573 6.239007
-3.856738 0.211886 6.250023
-3.848747 0.246794 6.238850
-3.854033 0.229542 6.245789
-3.852641 0.286043 6.253171
-3.831257 0.336022 6.233177
-3.849046 0.324310 6.254806
-3.842519 0.346876 6.249846
-3.982406 -0.950849 6.292408
-3.992353 -0.940424 6.313314
-3.975303 -0.916121 6.290473
-3.984006 -0.912368 6.306702
-3.972648 -0.868074 6.295794
-3.977025 -0.889600 6.299566
-3.977348 -0.861293 6.304549
-3.975491 -0.818890 6.308278
-3.970213 -0.786255 6.304655
-3.961703 -0.799795 6.288269
-3.967831 -0.772772 6.302557
-3.965385 -0.766264 6.299313
-3.966786 -0.674576 6.314107
-3.967417 -0.688201 6.313234
-3.954400 -0.696863 6.289513
-3.961201 -0.688646 6.302498
-3.902080 0.377492 6.339180
-3.884069 0.419920 6.317751
-3.897983 0.430442 6.339539
-3.896222 0.451913 6.339331
-3.874933 0.520942 6.316371
-3.878534 0.551775 6.325523
-3.883554 0.548626 6.332643
-3.881367 0.580962 6.331895
-3.870170 0.585569 6.316582
-3.868169 0.639616 6.318822
-3.877830 0.666444 6.334084
-3.869585 0.651942 6.321723
-3.874231 0.688895 6.330675
-3.865709 0.670126 6.317795
-3.862669 0.747381 6.320119
-3.867754 0.726538 6.325037
-3.876194 0.752687 6.339209
-3.861160 0.755235 6.318831
-3.857977 0.793378 6.318202
-3.867414 0.821776 6.333602
-3.865224 0.809498 6.329595
-3.854510 0.830162 6.316746
-3.870121 0.867145 6.341144
-3.867282 0.910339 6.340336
-3.851487 0.909018 6.319076
-3.853397 0.886116 6.319781
-3.911258 0.389687 6.355853
-3.910051 0.401265 6.355283
-3.900067 0.441096 6.343867
-3.898033 0.462743 6.343511
-3.910999 0.498451 6.368464
-3.901122 0.490151 6.352124
-3.910015 0.491695 6.366059
-3.891000 0.552872 6.343666
-3.906144 0.553824 6.365724
-3.894447 0.580591 6.350636
-3.889725 0.591317 6.344549
-3.894760 0.591184 6.351890
-3.897520 0.635913 6.359018
-3.904368 0.652095 6.369232
-3.894007 0.675766 6.355753
-3.885405 0.699989 6.346188
-3.896288 0.709450 6.360216
-3.889114 0.742631 6.354830
-3.895075 0.721831 6.359676
-3.882534 0.707212 6.343271
-3.892941 0.764585 6.362993
-3.890750 0.750591 6.358232
-3.877310 0.789962 6.344477
-3.881949 0.793019 6.351199
-3.873574 0.849024 6.344284
