-4.382756 1.680690 7.043257
-4.357387 1.692852 7.037997
-4.365924 1.697911 7.033185
-4.324947 1.686542 7.045828
-4.334134 1.682743 7.047766
-4.350808 1.706532 7.029058
-4.305751 1.685129 7.043253
-4.319814 1.708507 7.029440
-3.141310 -0.931441 5.329556
-3.122416 -0.857632 5.318689
-3.122782 -0.861371 5.310181
-3.112971 -0.831987 5.305867
-3.115264 -0.831807 5.327651
-3.098416 -0.787803 5.321922
-3.094430 -0.777426 5.313399
-3.089859 -0.741052 5.313035
-3.090552 -0.752617 5.317705
-3.094819 -0.500353 5.370168
-3.087474 -0.505416 5.360916
-3.097351 -0.463611 5.376915
-3.079906 -0.438767 5.357173
-3.089746 -0.412328 5.375589
-3.085260 -0.385178 5.368648
-3.090431 -0.395871 5.377596
-3.093324 -0.369131 5.383331
-3.085461 -0.365945 5.368047
-3.090733 -0.343152 5.382628
-3.090873 -0.294280 5.381847
-3.342017 -1.005447 5.509350
-3.343240 -1.016906 5.502317
-3.347855 -1.022382 5.503258
-3.341649 -0.995611 5.513902
-3.324728 -0.992971 5.498104
-3.332335 -0.994863 5.504612
-3.319320 -0.962980 5.503602
-3.331686 -0.962751 5.515278
-3.291033 -0.852836 5.499890
-3.290450 -0.841074 5.501438
-3.296941 -0.830992 5.509189
-3.293449 -0.787722 5.512725
-3.286894 -0.706507 5.517278
-3.282418 -0.779260 5.503486
-3.275502 -0.744052 5.501960
-3.627099 -1.029371 5.807476
-3.625901 -1.021015 5.808092
-3.619666 -0.995149 5.807211
-3.616088 -0.967729 5.809299
-3.610029 -0.988207 5.797928
-3.602489 -0.963531 5.795928
-4.519612 -0.048302 6.904402
-4.534224 -0.053696 6.898480
-4.492536 -0.050479 6.913625
-4.510884 -0.055425 6.906907
-4.519467 -0.035016 6.905705
-4.496827 -0.024579 6.914607
-4.546371 0.002282 6.899104
-4.519230 0.005311 6.909633
-4.503259 -0.015369 6.913287
-4.534145 0.033655 6.906539
-4.539992 0.028074 6.903929
-4.543819 0.056408 6.904604
-4.529142 0.043438 6.909219
-4.528028 0.056482 6.910680
-4.522894 0.080870 6.914565
-4.540533 0.090352 6.908523
-4.543650 0.100783 6.908059
-4.548271 0.138327 6.909061
-4.509796 0.368151 6.943882
-4.505369 0.417559 6.949023
-4.495246 0.435072 6.953740
-4.513037 0.435958 6.947687
-4.516809 0.462589 6.948396
-4.499053 0.450190 6.953521
-4.485773 0.378942 6.952764
-4.436191 0.386737 6.964872
-4.438361 0.392765 6.964854
-4.472866 0.402241 6.957924
-4.433570 0.411064 6.967054
-4.452013 0.401284 6.962860
-4.414231 0.390706 6.967723
-4.431368 0.373580 6.964979
-4.384975 0.369133 6.965617
-4.385802 0.387594 6.968609
-4.414788 0.401420 6.968645
-4.468349 0.446149 6.962441
-4.474422 0.426360 6.959327
-4.451714 0.443778 6.966169
-4.454745 0.429995 6.964493
-4.459822 0.470234 6.966787
-4.456345 0.449577 6.965787
-4.427977 0.421361 6.968633
-4.520072 0.494735 6.949898
-4.507156 0.476571 6.953014
-4.508036 0.499591 6.954632
-4.515864 0.510062 6.952692
-4.524786 0.505240 6.948935
-4.526137 0.552115 6.951675
-4.507113 0.552579 6.958603
-4.528206 0.584275 6.953422
-4.524508 0.567355 6.953432
-4.500563 0.580060 6.962855
-4.480598 0.498150 6.963320
-4.485077 0.515687 6.963560
-4.367311 0.374196 6.965054
-4.348920 0.378267 6.963561
-4.306433 0.385174 6.948573
-4.314532 0.404049 6.954692
-3.314977 -0.294512 5.605814
-3.311512 -0.273903 5.605624
-3.311862 -0.283404 5.604100
-3.308788 -0.191356 5.618880
-3.310890 -0.166373 5.625873
-3.297832 -0.169227 5.609162
-3.303196 -0.136947 5.621243
-3.302077 -0.117056 5.622582
-3.299535 -0.123813 5.618568
-3.294699 -0.077675 5.618341
-3.284272 -0.089794 5.603915
-3.292442 -0.052271 5.618842
-3.294596 -0.020399 5.625784
-3.288185 -0.035015 5.615798
-3.287103 0.004235 5.619141
-3.285850 -0.009187 5.616039
-3.290721 0.033518 5.627352
-3.288197 0.019622 5.622419
-3.293328 0.382429 5.667359
-3.303478 0.377754 5.680398
-3.300969 0.417610 5.679398
-3.289477 0.398147 5.663168
-3.304165 0.423906 5.684146
-3.287131 0.427193 5.661330
-3.293462 0.474067 5.672403
-3.290187 0.459260 5.666989
-3.299688 0.480022 5.681554
-3.289114 0.493741 5.665990
-3.293626 0.519892 5.673419
-3.286839 0.518625 5.662579
-3.295847 0.541214 5.677842
-3.288785 0.547396 5.665635
-3.293570 0.574285 5.674828
-3.286112 0.558847 5.661178
-3.287607 0.609322 5.665691
-3.293158 0.618061 5.678008
-3.291648 0.615672 5.674587
-3.289859 0.653413 5.677780
-3.337606 0.417440 5.732327
-3.329677 0.377678 5.714330
-3.324215 0.443698 5.716722
-3.323058 0.471039 5.718225
-3.332626 0.456384 5.732966
-3.320526 0.494425 5.715991
-3.329447 0.510926 5.732529
-3.323760 0.518888 5.723454
-3.365342 1.326087 5.881990
-3.370032 1.375834 5.893698
-3.371781 1.422683 5.894732
-3.366021 1.441670 5.878718
-3.396503 1.537630 5.894609
-3.399555 1.555074 5.895659
-3.373435 1.482122 5.877970
-3.386829 1.505035 5.894639
-3.383830 1.490554 5.899553
-3.391519 1.519709 5.895230
-3.793221 -1.033153 5.984630
-3.767827 -1.007182 5.968423
-3.774829 -0.993440 5.980879
-3.758936 -0.994791 5.961557
-3.753900 -0.959200 5.964431
-3.760929 -0.962783 5.972273
-3.855508 -1.038683 6.039485
-3.836402 -1.026237 6.031590
-3.822288 -1.007310 6.029264
-3.805257 -0.987920 6.018849
-3.809801 -0.987494 6.024158
-3.804955 -0.952275 6.029834
-3.794734 -0.954717 6.016601
-4.032481 -1.008358 6.371271
-4.047548 -1.019817 6.392891
-4.038339 -0.985511 6.388038
-4.036648 -0.968720 6.389616
-4.104847 -1.022950 6.501850
-4.098302 -1.035347 6.484244
-4.094370 -1.020307 6.482487
-4.101449 -1.009838 6.499075
-4.095882 -0.980945 6.496902
-4.094981 -0.987258 6.493413
-4.096319 -0.967676 6.501036
-4.197925 -1.017223 6.676198
-4.202988 -1.015827 6.685510
-4.203691 -0.978692 6.696879
-4.199017 -0.999854 6.683629
-4.200244 -0.964682 6.693461
-4.195764 -0.973650 6.684005
-4.402204 -0.195655 6.918965
-4.422980 -0.163421 6.919894
-4.377183 -0.165648 6.921339
-4.393298 -0.158594 6.922298
-4.408489 -0.147895 6.922898
-4.423615 -0.137118 6.922140
-4.391806 -0.152697 6.922857
-4.399364 -0.131032 6.925018
-4.431582 -0.120741 6.922530
-4.459005 -0.082252 6.920316
-4.471456 -0.091281 6.916387
-4.444018 -0.097118 6.921800
-4.444399 -0.080979 6.923012
-4.418160 -0.120134 6.924113
-4.426417 -0.112300 6.923665
-4.405970 -0.087816 6.927670
-4.381281 -0.089049 6.928681
-4.384834 -0.097632 6.927782
-4.360880 -0.184718 6.917140
-4.370566 -0.168150 6.920105
-4.358767 -0.124738 6.923106
-4.369555 -0.104721 6.926512
-4.336529 -0.110867 6.919146
-4.371272 -0.086996 6.928377
-4.341858 -0.078642 6.923725
-4.492049 0.002637 6.918594
-4.473142 -0.053944 6.919022
-4.464621 -0.069652 6.919948
-4.454374 -0.045220 6.924367
-4.458351 -0.055423 6.922755
-4.461111 -0.038139 6.923547
-4.482580 -0.039485 6.917776
-4.441101 -0.022817 6.928799
-4.421741 -0.048641 6.929511
-4.430581 -0.057693 6.927557
-4.414361 -0.032376 6.931888
-4.385735 -0.043971 6.932903
-4.470149 -0.006539 6.923856
-4.437611 -0.000124 6.931313
-4.456077 0.005538 6.928312
-4.461229 0.032151 6.929408
-4.480225 0.021872 6.923604
-4.437459 0.028548 6.933639
-4.427417 1.049648 7.020978
-4.421727 1.034630 7.020718
-4.411390 1.059308 7.024933
-4.403992 1.051007 7.025414
-4.467074 1.087352 7.014366
-4.474824 1.082145 7.011579
-4.431943 1.099919 7.025101
-4.449052 1.079819 7.018859
-4.463344 1.104766 7.017171
-4.446761 1.108609 7.022161
-4.453368 1.131856 7.022510
-4.420784 1.077973 7.025228
-4.489028 1.134702 7.010307
-4.513821 1.162533 7.000550
-4.498917 1.179853 7.007478
-4.514842 1.188648 7.000920
-4.508681 1.192994 7.004072
-4.530149 1.239531 7.000520
-4.527408 1.225220 7.000267
-4.492878 1.239600 7.016078
-4.476803 1.152280 7.015551
-4.485106 1.137489 7.012024
-4.446926 1.154602 7.025784
-4.456543 1.139090 7.022095
-4.478314 1.193884 7.017128
-4.469401 1.217567 7.022892
-4.366837 1.043512 7.024799
-4.340637 1.026258 7.019252
-4.345050 1.044683 7.021908
-4.347886 1.074260 7.025657
-4.325986 1.071506 7.021286
-4.343921 1.059915 7.023267
-4.307172 1.031929 7.010688
-4.316605 1.033196 7.014143
-4.280725 1.025194 6.998730
-4.286088 1.031115 7.002048
-4.301291 1.061847 7.012346
-4.313461 1.059066 7.016186
-4.291394 1.069467 7.009444
-4.331091 1.097048 7.025145
-4.324043 1.091054 7.023106
-4.298763 1.096498 7.015680
-4.316160 1.084846 7.020152
-4.291854 1.103580 7.013448
-4.290632 1.093885 7.011778
-4.299916 1.128173 7.019345
-4.306915 1.110246 7.019769
-4.276578 1.113431 7.005065
-4.293409 1.107957 7.014829
-4.315601 1.133099 7.024894
-4.290915 1.133225 7.015971
-4.287382 1.149504 7.015580
-4.301109 1.160971 7.022688
-4.291747 1.169436 7.019914
-4.280535 1.227946 7.021194
-4.274098 1.231642 7.018054
-4.530131 1.255200 7.001408
-4.528088 1.272376 7.003538
-4.494454 1.277634 7.018139
-4.506008 1.288476 7.014352
-4.547317 1.318997 6.999714
-4.541854 1.325726 7.003070
-4.525880 1.302262 7.007174
-4.537425 1.323128 7.004673
-4.498178 1.297261 7.018178
-4.513370 1.307207 7.013027
-4.473801 1.254952 7.023972
-4.475768 1.278108 7.024943
-3.206109 -0.705402 5.446354
-3.207038 -0.681659 5.450108
-3.214840 -0.691319 5.455680
-3.222143 -0.697638 5.461247
-3.198166 -0.683997 5.442216
-3.206692 -0.656675 5.452912
-3.194924 -0.673073 5.440850
-3.207908 -0.620000 5.458625
-3.201002 -0.597328 5.455490
-3.210469 -0.613421 5.461630
-3.207106 -0.585841 5.462061
-3.200275 -0.576017 5.457515
-3.183834 -0.546842 5.446927
-3.189368 -0.561272 5.450051
-3.202118 -0.523204 5.464883
-3.173446 -0.530631 5.439982
-3.179869 -0.515158 5.447116
-3.178334 -0.483573 5.449383
-3.183564 -0.499029 5.452037
-3.181814 -0.463521 5.454745
-3.173563 -0.475380 5.446313
-3.173894 -0.430544 5.452027
-3.187801 -0.440050 5.462870
-3.168989 -0.498764 5.439767
-3.156740 -0.406501 5.439982
-3.172417 -0.425941 5.451307
-3.180074 -0.376554 5.463608
-3.173381 -0.375974 5.457805
-3.177398 -0.344705 5.465102
-3.154589 -0.357865 5.443499
-3.169811 -0.357594 5.456832
-3.170383 -0.319591 5.462178
-3.148796 -0.331457 5.441644
-3.162818 -0.301015 5.457798
-3.143706 -0.302316 5.440549
-3.317633 0.391460 5.699046
-3.325022 0.375927 5.708175
-3.320660 0.413473 5.705600
-3.325266 0.395357 5.709186
-3.315360 0.422774 5.699456
-3.314378 0.474168 5.703971
-3.308038 0.471894 5.693635
-3.312773 0.493428 5.702630
-3.307215 0.516004 5.695138
-3.313284 0.533213 5.706501
-3.303154 0.538333 5.690498
-3.304174 0.540799 5.692338
-3.308440 0.579921 5.702751
-3.304322 0.586097 5.695776
-3.304971 0.635774 5.701837
-3.307899 0.619168 5.705030
-3.298969 0.668541 5.696443
-3.298369 0.717192 5.700024
-3.297824 0.728590 5.700122
-3.303687 0.753655 5.712568
-3.291744 0.758413 5.692054
-3.298880 0.792303 5.705596
-3.652016 -1.030145 5.835012
-3.657769 -1.018122 5.843835
-3.640053 -0.975074 5.834623
-3.649381 -0.968286 5.847084
-3.813278 -1.033069 6.004008
-3.803699 -1.038675 5.991287
-3.791120 -1.013020 5.992527
-3.785511 -0.989538 5.994970
-3.796936 -0.986275 6.009573
-3.776587 -0.954231 5.994049
-4.023053 -1.005989 6.354399
-4.017381 -1.008216 6.342718
-4.013731 -0.953972 6.348306
-4.017413 -0.967052 6.352609
-4.070855 -1.029663 6.432231
-4.072549 -1.017792 6.440384
-4.072779 -1.026782 6.437386
-4.062310 -0.992420 6.429345
-4.073433 -0.999404 6.448345
-4.064075 -0.973513 6.438671
-4.087041 -1.032082 6.463824
-4.079836 -1.011711 6.456847
-4.085957 -1.016190 6.467294
-4.082279 -0.981732 6.470489
-4.085653 -0.998468 6.472308
-4.076765 -0.965144 6.464521
-4.071894 -0.957371 6.456531
-4.075069 -0.966417 6.460989
-4.173413 -1.011415 6.634898
-4.170718 -1.015183 6.628788
-4.166082 -0.983879 6.629181
-4.167826 -0.997672 6.629277
-4.171470 -0.966068 6.641982
-4.500221 -0.950283 6.826167
-4.482161 -0.948503 6.831948
-4.349488 -1.026807 6.822993
-4.332527 -1.025164 6.816286
-4.346234 -1.011860 6.824643
-4.345269 -0.992747 6.827265
-4.349484 -0.961502 6.832131
-4.344021 -0.956625 6.830279
-4.305282 -0.990175 6.807907
-4.321623 -0.987778 6.817899
-4.312833 -0.969719 6.814519
-4.543898 -0.937028 6.811683
-4.498444 -0.940004 6.827801
-4.490916 -0.921151 6.831951
-4.525666 -0.902773 6.823012
-4.505054 -0.912974 6.828841
-4.551113 -0.872985 6.816345
-4.505794 -0.872215 6.832685
-4.529961 -0.857446 6.825841
-4.531771 -0.854852 6.825441
-4.492849 0.334102 6.946827
-4.494360 0.316856 6.944791
-4.487904 0.348356 6.949736
-4.499868 0.344734 6.945319
-4.470237 0.260481 6.946293
-4.479936 0.268323 6.944504
-4.432196 0.278579 6.955998
-4.458187 0.283943 6.951531
-4.449188 0.292588 6.954141
-4.453115 0.297655 6.953946
-4.412724 0.262750 6.956720
-4.409914 0.297194 6.959552
-4.393094 0.291464 6.959291
-4.484665 0.313160 6.947659
-4.444961 0.323882 6.958181
-4.457916 0.334649 6.956840
-4.477394 0.344943 6.952463
-4.476814 0.360940 6.953854
-4.431572 0.360575 6.964012
-4.444049 0.345172 6.960329
-4.387164 0.326914 6.961028
-4.392732 0.311965 6.960456
-4.404180 0.340698 6.963420
-4.425807 0.357377 6.963978
-4.399465 0.342428 6.963314
-4.402509 0.356892 6.965096
-4.368843 0.184788 6.950363
-4.336830 0.194511 6.944687
-4.342990 0.183134 6.945610
-4.331461 0.218975 6.944707
-4.355588 0.253323 6.953378
-4.369214 0.231810 6.954182
-4.349320 0.241389 6.951683
-4.346426 0.275084 6.952612
-4.361517 0.287068 6.956138
-4.373687 0.295653 6.958309
-4.327564 0.285814 6.947177
-4.340798 0.301350 6.952877
-4.371482 0.332924 6.959785
-4.370901 0.366091 6.964038
-4.332703 0.351715 6.955909
-4.340977 0.356868 6.958611
-4.315805 0.327941 6.947462
-4.320791 0.312169 6.947877
-4.312570 0.350743 6.948584
-4.545660 1.596286 7.015573
-4.529315 1.576111 7.022241
-4.520706 1.583338 7.025553
-4.527172 1.597865 7.022923
-4.525373 1.606550 7.023189
-4.541991 1.639471 7.014339
-4.553214 1.644414 7.009614
-4.535552 1.632306 7.017116
-4.502407 1.646480 7.025280
-4.537010 1.653955 7.013721
-4.539002 1.654779 7.012893
-4.506724 1.653772 7.022446
-4.511806 1.678178 7.012418
-4.509772 1.678343 7.013007
-3.110549 -0.265101 5.409589
-3.096366 -0.287927 5.389925
-3.099162 -0.258798 5.392195
-3.109475 -0.231000 5.410714
-3.109090 -0.204467 5.411317
-3.251431 -0.921381 5.452950
-3.253568 -0.940113 5.450720
-3.266287 -0.916916 5.466030
-3.231215 -0.897569 5.439474
-3.247978 -0.902156 5.453002
-3.259215 -0.886888 5.464805
-3.248405 -0.874846 5.457749
-3.252708 -0.848736 5.466035
-3.229589 -0.847301 5.446096
-3.240434 -0.816631 5.460692
-3.233376 -0.798120 5.457372
-3.221713 -0.789686 5.448514
-3.212288 -0.763846 5.443865
-3.221681 -0.775515 5.450537
-3.213689 -0.735632 5.449012
-3.224732 -0.741111 5.457963
-3.345291 0.733986 5.787751
-3.336009 0.715511 5.768549
-3.342454 0.775994 5.788258
-3.337275 0.792036 5.779113
-3.343766 0.818078 5.794135
-3.340494 0.806055 5.786618
-3.341587 0.841715 5.790451
-3.333548 0.873538 5.771713
-3.334639 0.873606 5.774436
-3.353575 0.933058 5.822921
-4.552959 -0.819090 6.820853
-4.539548 -0.816484 6.826614
-4.554338 -0.774815 6.824797
-4.547010 -0.753262 6.829801
-3.399249 -0.996677 5.572353
-3.378438 -1.002729 5.551220
-3.372653 -0.988763 5.549137
-3.381222 -0.992864 5.556536
-3.372112 -0.961193 5.555547
-3.307198 -0.527054 5.561204
-3.311542 0.165456 5.671657
-3.316482 0.164362 5.678738
-3.311048 0.180775 5.672362
-3.303090 0.183376 5.661689
-3.303808 0.254262 5.669837
-3.311107 0.259443 5.679844
-3.300798 0.311065 5.670831
-3.304560 0.287919 5.673807
-3.291392 0.317426 5.659107
-3.301394 0.352601 5.675860
-3.861041 -1.029173 6.061266
-3.858312 -1.036231 6.046189
-3.846541 -1.022333 6.045236
-3.832306 -0.975248 6.055324
-3.828867 -0.985461 6.046467
-3.826455 -0.963305 6.052199
-4.271309 -1.004148 6.778605
-4.254360 -1.010867 6.759680
-4.253661 -1.028626 6.756243
-4.251907 -0.980632 6.760579
-4.262469 -0.995839 6.770524
-4.254946 -0.964790 6.765848
-4.316514 -1.037475 6.805512
-4.305767 -1.018475 6.803134
-4.281984 -1.003587 6.788098
-4.289294 -1.015041 6.792373
-4.301063 -0.991963 6.804973
-4.275761 -0.990103 6.784397
-4.289984 -0.983297 6.797762
-4.296741 -0.968179 6.805050
-4.290542 -0.954592 6.801453
-4.518682 0.330271 6.937636
-4.522179 0.314732 6.935154
-4.539806 0.344963 6.930595
-4.317582 0.157884 6.934303
-4.299685 0.191162 6.926655
-4.320725 0.175369 6.937392
-4.329904 0.202965 6.943144
-4.312567 0.206676 6.934862
-4.296916 0.242999 6.927791
-4.312127 0.254589 6.937440
-4.301322 0.284016 6.934110
-4.305610 0.267877 6.934846
-4.317685 0.259742 6.940963
-4.296529 0.308035 6.934871
-4.316060 0.294830 6.943551
-4.299953 0.358332 6.942941
-4.460728 1.262278 7.028433
-4.462862 1.275745 7.028705
-4.456342 1.290567 7.031853
-4.404963 1.252243 7.040109
-4.394838 1.242707 7.040536
-4.405635 1.288914 7.043036
-4.421202 1.291767 7.040269
-4.394528 1.279434 7.043688
-4.466226 1.313086 7.030497
-4.449782 1.315159 7.035261
-4.454791 1.313482 7.033864
-4.461306 1.346696 7.034431
-4.473927 1.343916 7.030241
-4.433517 1.329044 7.040695
-4.453115 1.343942 7.036543
-4.414263 1.310531 7.043217
-4.390896 1.296886 7.045691
-4.401877 1.302651 7.044886
-4.488620 1.382046 7.028142
-4.491685 1.457177 7.032491
-4.460333 1.374430 7.036857
-4.478636 1.359656 7.029900
-4.446592 1.360969 7.039602
-4.470698 1.397041 7.035084
-4.435588 1.389872 7.044871
-4.449074 1.386786 7.040888
-4.408411 1.369959 7.049628
-4.430779 1.371324 7.044693
-4.425263 1.389093 7.047366
-4.401263 1.386506 7.052316
-4.435420 1.418194 7.047240
-4.446210 1.419410 7.044273
-4.469693 1.449676 7.039653
-4.476603 1.438793 7.036511
-4.434587 1.444505 7.049375
-4.456413 1.453629 7.044230
-4.418570 1.411584 7.050708
-4.352470 1.260590 7.044278
-4.369913 1.251425 7.043382
-4.357562 1.289947 7.046922
-4.368217 1.270519 7.045105
-4.326982 1.283927 7.043026
-4.338306 1.282179 7.044588
-4.299836 1.263331 7.033209
-4.306401 1.264253 7.035436
-4.302717 1.288841 7.036283
-4.308847 1.269909 7.036690
-4.359222 1.313473 7.049144
-4.375485 1.306346 7.048431
-4.373186 1.344131 7.051904
-4.325571 1.336449 7.047097
-4.307224 1.307266 7.039306
-4.298242 1.348650 7.039082
-4.320436 1.340581 7.046222
-4.278118 1.346232 7.029401
-4.283603 1.324809 7.030765
-4.357750 1.354827 7.052529
-4.366739 1.353637 7.052570
-4.334596 1.371781 7.051120
-4.333736 1.385970 7.052276
-4.301351 1.358227 7.040905
-4.314585 1.359226 7.045568
-4.287906 1.355663 7.034991
-4.314794 1.379841 7.047292
-4.287466 1.390870 7.037978
-4.310731 1.422131 7.049334
-4.321193 1.409044 7.052130
-4.278838 1.421270 7.036461
-4.289007 1.427540 7.041658
-4.498781 1.476844 7.030749
-4.501377 1.473994 7.029618
-4.506930 1.495300 7.028231
-4.503479 1.505705 7.029622
-3.164609 -0.255662 5.465562
-3.141028 -0.251267 5.443733
-3.159672 -0.214484 5.465937
-3.153952 -0.186654 5.463255
-3.147013 -0.203232 5.454946
-3.137835 -0.189843 5.446872
-3.145084 -0.205204 5.452871
-3.155057 -0.171020 5.465806
-3.152065 -0.138132 5.465658
-3.145162 -0.127328 5.459619
-3.150919 -0.119031 5.465763
-3.127061 -0.105962 5.439317
-3.139452 -0.092871 5.453128
-3.150305 -0.048610 5.466378
-3.144812 -0.050910 5.458484
-3.282347 -0.178520 5.589167
-3.268697 -0.148981 5.579034
-3.275560 -0.147246 5.586931
-3.264459 -0.123528 5.577789
-3.272600 -0.120420 5.587244
-3.270026 -0.080380 5.589017
-3.277993 -0.086064 5.597262
-3.258716 -0.048730 5.580115
-3.270028 -0.054277 5.592250
-3.277255 -0.046316 5.601378
-3.259752 -0.025957 5.583736
-3.267688 -0.010656 5.594219
-3.260674 0.030260 5.589731
-3.255221 0.018612 5.582379
-3.260713 0.054917 5.592915
-3.260666 0.048075 5.591841
-3.243513 0.091084 5.578742
-3.249078 0.073025 5.581811
-3.243800 0.111069 5.582228
-3.260761 0.122712 5.602621
-3.241997 0.137821 5.584039
-3.252499 0.133734 5.595128
-3.251615 0.166409 5.598176
-3.229040 0.209051 5.579072
-3.249155 0.232298 5.603153
-3.226457 0.207551 5.576086
-3.235152 0.277528 5.592040
-3.237457 0.262315 5.593308
-3.232747 0.294073 5.590522
-3.614556 -1.038573 5.786432
-3.601410 -1.002496 5.784520
-3.605326 -1.010047 5.786156
-3.609665 -1.010135 5.791665
-3.584206 -0.962103 5.776855
-3.706391 -0.996749 5.905340
-3.716061 -0.956437 5.925037
-4.225716 -0.995422 6.727134
-4.234021 -0.986164 6.738827
-4.224789 -0.965024 6.730225
-4.237911 -0.971802 6.745631
-4.529794 -0.555952 6.856195
-4.531121 -0.532705 6.857660
-4.542448 -0.465595 6.859366
-4.536275 -0.502010 6.858292
-4.553861 -0.421330 6.858595
-4.500123 -0.284190 6.891171
-4.498802 -0.260910 6.893827
-4.512721 -0.244086 6.890968
-4.518730 -0.210907 6.891041
-4.520700 -0.227114 6.889209
-4.496891 -0.222911 6.897684
-4.502371 -0.219800 6.896127
-4.523594 -0.186059 6.891039
-4.503546 -0.194046 6.897748
-4.480989 -0.285211 6.896910
-4.482030 -0.274959 6.897629
-4.446469 -0.284559 6.905390
-4.453929 -0.265379 6.905698
-4.466764 -0.253382 6.903683
-4.461413 -0.236747 6.906529
-4.448479 -0.235910 6.909226
-4.411253 -0.279905 6.910566
-4.415941 -0.282665 6.909886
-4.398435 -0.289719 6.910216
-4.400115 -0.278416 6.911300
-4.426338 -0.245151 6.912137
-4.453471 -0.213688 6.910156
-4.468135 -0.187631 6.908797
-4.433747 -0.206079 6.914695
-4.418539 -0.214856 6.915939
-4.515119 -0.166262 6.896222
-4.496188 -0.167381 6.902255
-4.507042 -0.168308 6.898696
-4.531643 -0.140105 6.892265
-4.526761 -0.126799 6.895233
-4.493885 -0.132681 6.905910
-4.507191 -0.142462 6.900891
-4.546982 -0.085488 6.890788
-4.517558 -0.106747 6.900266
-4.524292 -0.089042 6.899155
-4.518786 -0.076182 6.902222
-4.494099 -0.076374 6.910665
-4.500577 -0.091790 6.907191
-4.460733 -0.160436 6.913032
-4.439840 -0.179738 6.916032
-4.459429 -0.145765 6.914600
-4.481854 -0.084080 6.914020
-4.365306 -0.288570 6.907789
-4.335065 -0.279060 6.901621
-4.344475 -0.265636 6.905935
-4.361586 -0.254920 6.910472
-4.355478 -0.214358 6.913382
-4.330933 -0.214211 6.906690
-4.350832 -0.188310 6.915004
-4.325686 -0.185162 6.907885
-4.344347 -0.182702 6.913756
-4.339691 -0.159850 6.914989
-4.336714 -0.151616 6.914891
-4.335815 0.444554 6.968170
-4.334631 0.435669 6.966638
-4.332505 0.450307 6.967822
-4.297443 0.430474 6.948672
-4.315961 0.431873 6.958973
-4.318956 0.468871 6.964841
-4.281279 0.487351 6.945909
-4.293509 0.478047 6.952315
-4.298654 0.504388 6.959630
-4.315543 0.503858 6.967429
-4.276443 0.521850 6.948421
-4.287927 0.507465 6.953779
-4.280891 0.543868 6.954432
-4.273668 0.555287 6.951076
-4.283532 0.566490 6.958624
-4.548053 0.627802 6.949329
-4.537023 0.601977 6.951598
-4.505610 0.585979 6.961681
-4.516124 0.634251 6.962227
-4.508805 0.616798 6.963472
-4.544307 0.654675 6.953141
-4.517522 0.646852 6.962658
-4.521270 0.664536 6.962582
-4.501560 0.646782 6.968165
-4.522762 0.682295 6.963184
-4.524971 0.672313 6.961736
-4.547774 0.717557 6.955451
-4.547278 0.734455 6.956668
-4.504038 0.695497 6.970858
-4.537611 0.743336 6.961160
-4.512495 0.728640 6.970037
-4.545445 0.752009 6.958586
-4.530705 0.756156 6.964903
-4.532731 0.766400 6.964903
-4.523233 0.786566 6.970566
-4.534281 0.802349 6.967487
-4.275558 0.609484 6.957329
-4.275805 0.613986 6.957772
-4.280613 0.631433 6.961736
-3.234624 -0.921420 5.438506
-3.234344 -0.945108 5.432808
-3.216428 -0.925540 5.420825
-3.201248 -0.896404 5.411883
-3.203851 -0.900432 5.413591
-3.208292 -0.871004 5.423003
-3.203862 -0.855467 5.421779
-3.195217 -0.862556 5.412734
-3.211830 -0.813628 5.436260
-3.186971 -0.788828 5.418017
-3.190377 -0.801307 5.419337
-3.206743 -0.776139 5.437311
-3.187703 -0.769646 5.421342
-3.193417 -0.769108 5.426563
-3.178481 -0.729248 5.419249
-3.282493 -0.596535 5.525262
-3.276047 -0.578814 5.521517
-3.272869 -0.555156 5.522146
-3.276618 -0.558155 5.525163
-3.274878 -0.513532 5.530699
-3.287287 -0.493162 5.545293
-3.286169 -0.499455 5.543430
-3.266667 -0.498637 5.524573
-3.279996 -0.490726 5.538394
-3.270603 -0.459984 5.532443
-3.278351 -0.481541 5.537827
-3.262082 -0.427161 5.527697
-3.274813 -0.448967 5.537811
-3.280123 -0.421904 5.546632
-3.257399 -0.412250 5.525748
-3.265607 -0.424821 5.531616
-3.254283 -0.402633 5.524524
-3.264743 -0.364598 5.541450
-3.254566 -0.348828 5.534076
-3.250556 -0.325318 5.533637
-3.246864 -0.341076 5.527625
-3.257392 -0.305503 5.543317
-3.242841 -0.312230 5.528390
-3.239065 -0.268422 5.531804
-3.232489 -0.281490 5.523686
-3.236738 -0.238085 5.533902
-3.231238 -0.239850 5.528453
-3.246036 -0.224471 5.544558
-3.236460 -0.229725 5.534776
-3.235649 -0.185750 5.539818
-3.235729 -0.206356 5.537231
-3.403744 -0.990894 5.578279
-3.418071 -0.997314 5.588973
-3.408866 -0.966577 5.590277
-3.487841 -1.031780 5.611251
-3.477032 -1.020344 5.616144
-3.450061 -1.008900 5.604612
-3.421458 -0.959960 5.603601
-3.346259 0.864459 5.802641
-3.753934 -1.033795 5.943072
-3.766276 -1.029529 5.958835
-3.754076 -1.024914 5.946838
-3.738022 -1.009568 5.934244
-3.731102 -0.977607 5.935860
-3.733606 -0.962885 5.941813
-4.540363 1.703001 6.989869
-4.504253 1.706100 6.995198
-4.536024 1.722180 6.972577
-4.487236 1.723730 6.976522
-4.480561 1.723528 6.979852
-4.469538 1.728464 6.973900
-4.439038 1.721376 6.997578
-4.442152 1.731820 6.972059
-4.417837 1.727964 6.984994
-4.370870 1.729562 6.984429
-4.411017 1.471062 7.055292
-4.393363 1.481788 7.058225
-4.427478 1.502150 7.053760
-4.378814 1.494355 7.060401
-4.393107 1.505046 7.058862
-4.406005 1.532220 7.057294
-4.429304 1.524464 7.053654
-4.386004 1.526900 7.059679
-4.393577 1.528358 7.058798
-4.406796 1.564801 7.055302
-4.401355 1.551090 7.057087
-4.381126 1.586254 7.056389
-4.352947 1.475808 7.059712
-4.372803 1.467317 7.059467
-4.328899 1.472357 7.056260
-4.346082 1.462057 7.058453
-4.342339 1.500775 7.059563
-4.313392 1.497676 7.053897
-4.357329 1.516677 7.060851
-4.345424 1.533108 7.060577
-4.352196 1.566222 7.060358
-4.375056 1.557228 7.060093
-4.327333 1.568483 7.057518
-4.307520 1.520678 7.053443
-4.320761 1.539783 7.057382
-4.375809 1.585558 7.057145
-4.344839 1.578262 7.058687
-3.078212 -0.491747 5.342616
-3.084128 -0.483610 5.356754
-3.080480 -0.449084 5.353940
-3.078704 -0.403559 5.354291
-3.150139 -0.715739 5.396315
-3.167288 -0.722909 5.410480
-3.143232 -0.648234 5.399169
-3.123485 -0.622351 5.385207
-3.124882 -0.601201 5.389306
-3.146484 -0.576085 5.411079
-3.132586 -0.586180 5.397850
-3.137072 -0.549129 5.406038
-3.137969 -0.523243 5.410030
-3.122803 -0.523782 5.396083
-3.117061 -0.526444 5.390455
-3.127550 -0.486450 5.404446
-3.115676 -0.506834 5.391366
-3.105824 -0.468176 5.385488
-3.124365 -0.418787 5.409860
-3.111126 -0.433201 5.395243
-3.109648 -0.407951 5.396923
-3.110111 -0.421301 5.395820
-3.109703 -0.377757 5.399853
-3.107972 -0.356889 5.400261
-3.107432 -0.363284 5.398970
-3.100683 -0.322143 5.394925
-3.110225 -0.338139 5.404199
-3.108410 -0.294661 5.405278
-3.092873 -0.294047 5.385314
-3.510079 -1.031284 5.640395
-3.506092 -1.032424 5.632424
-3.525293 -1.038438 5.643312
-3.501557 -1.014614 5.652147
-3.478860 -1.001800 5.639046
-3.482062 -1.009066 5.635373
-3.478372 -0.982860 5.651079
-3.452980 -0.952110 5.637459
-3.459981 -0.972411 5.637471
-3.357633 1.029090 5.834413
-3.360242 1.058392 5.841781
-3.354215 1.066991 5.824446
-3.356576 1.104036 5.831851
-3.356931 1.078137 5.832575
-3.354589 1.119836 5.825014
-3.360610 1.150295 5.848730
-3.356254 1.185612 5.832278
-3.358930 1.204022 5.848999
-3.358257 1.221572 5.848319
-3.356770 1.216442 5.836887
-3.745047 -1.039190 5.930649
-3.723334 -1.007226 5.920158
-3.733886 -1.004893 5.931420
-3.723153 -0.981344 5.926979
-3.720073 -1.032033 5.908453
-3.719162 -1.003227 5.917240
-3.964433 -1.032138 6.231160
-3.956763 -1.039939 6.207286
-3.947417 -1.008022 6.214217
-3.938598 -0.977512 6.214577
-4.389572 1.398789 7.054457
-4.386763 1.415458 7.055707
-4.398655 1.450761 7.056199
-4.373629 1.366277 7.053488
-4.356555 1.409831 7.056160
-4.362843 1.421080 7.056854
-4.355502 1.442817 7.057968
-4.376512 1.438831 7.057981
-4.336186 1.446848 7.056323
-3.174426 -0.916543 5.382535
-3.163519 -0.922820 5.369333
-3.158255 -0.905936 5.366908
-3.163996 -0.903717 5.373559
-3.164031 -0.909022 5.372536
-3.153813 -0.878445 5.368289
-3.155736 -0.888334 5.368005
-3.146501 -0.859914 5.365610
-3.159829 -0.851031 5.381447
-3.136689 -0.844243 5.358542
-3.136549 -0.830546 5.361933
-3.140139 -0.831495 5.365745
-3.146521 -0.803527 5.378808
-3.135590 -0.799657 5.368371
-3.134006 -0.755539 5.374698
-3.135011 -0.743499 5.377727
-3.140493 -0.751307 5.381408
-3.114938 -0.750928 5.357491
-3.128366 -0.716300 5.376320
-3.122565 -0.673670 5.377345
-3.121955 -0.700472 5.372876
-3.113064 -0.682670 5.366344
-3.102296 -0.655752 5.358861
-3.113532 -0.656571 5.370430
-3.096526 -0.627671 5.358582
-3.110409 -0.643802 5.369193
-3.107551 -0.594804 5.374509
-3.118243 -0.617050 5.381279
-3.110528 -0.580524 5.378621
-3.110643 -0.583963 5.378417
-3.108172 -0.550728 5.378913
-3.105088 -0.525520 5.378440
-3.105279 -0.529435 5.378228
-3.198041 -0.718001 5.437834
-3.176745 -0.716855 5.419640
-3.191447 -0.684875 5.436460
-3.178450 -0.648179 5.429997
-3.185521 -0.663775 5.434040
-3.170186 -0.717773 5.413820
-3.172925 -0.687479 5.420446
-3.168493 -0.624376 5.424458
-3.163739 -0.637800 5.418538
-3.180819 -0.611458 5.436810
-3.157516 -0.607265 5.417021
-3.167480 -0.599541 5.426683
-3.168950 -0.565269 5.432074
-3.170137 -0.574958 5.431971
-3.171451 -0.553272 5.435679
-3.168264 -0.513310 5.437514
-3.151977 -0.519447 5.422780
-3.157499 -0.468524 5.433251
-3.159239 -0.442180 5.437902
-3.134101 -0.429394 5.417334
-3.150730 -0.407772 5.434483
-3.134295 -0.403137 5.420544
-3.142538 -0.420223 5.425848
-3.146065 -0.392487 5.432029
-3.136414 -0.381909 5.424644
-3.131731 -0.319844 5.427654
-3.140084 -0.330781 5.433940
-3.135276 -0.311023 5.431639
-3.262407 -0.158036 5.570944
-3.252365 -0.175339 5.557860
-3.263325 -0.152619 5.572710
-3.241606 -0.102357 5.556746
-3.248009 -0.114823 5.561749
-3.258143 -0.086022 5.575145
-3.241986 -0.075254 5.559817
-3.249329 -0.092439 5.565519
-3.233633 -0.061509 5.552718
-3.253933 -0.070826 5.572329
-3.249536 -0.041559 5.571058
-3.240704 -0.000166 5.565330
-3.244569 -0.006039 5.568952
-3.232104 0.013057 5.557252
-3.229027 0.061663 5.556314
-3.230585 0.075310 5.560597
-3.219461 0.083551 5.549662
-3.232342 0.107707 5.568821
-3.228367 0.127902 5.567992
-3.222358 0.095649 5.555487
-3.212399 0.125307 5.549751
-3.225941 0.140088 5.566965
-3.212703 0.167340 5.555806
-3.207046 0.184923 5.552099
-3.220512 0.212425 5.570230
-3.202434 0.233934 5.553080
-3.216306 0.234213 5.567968
-3.211924 0.281038 5.566898
-3.217885 0.256834 5.571725
-3.198374 0.262004 5.551195
-3.204899 0.305190 5.558748
-3.547706 -1.038474 5.692624
-3.532442 -1.003871 5.702700
-3.546808 -1.018487 5.712029
-3.521263 -0.975523 5.703261
-3.522678 -0.992310 5.696208
-3.518100 -0.964403 5.703611
-3.319543 0.556604 5.720066
-3.321559 0.534426 5.721126
-3.326881 0.564638 5.733778
-3.330336 0.558491 5.739244
-3.316927 0.600994 5.719595
-3.316040 0.628894 5.720695
-3.316265 0.619155 5.720055
-3.313116 0.666248 5.720140
-3.314290 0.649475 5.720056
-3.321612 0.677626 5.736872
-3.313586 0.670597 5.721532
-3.317880 0.716616 5.734827
-3.316582 0.701231 5.730638
-3.318207 0.739859 5.737724
-3.310799 0.729734 5.723175
-3.308966 0.723725 5.719383
-3.308200 0.761748 5.720842
-3.309971 0.788570 5.724427
-3.313558 0.779733 5.731409
-3.318574 0.819195 5.739411
-3.311240 0.809055 5.726139
-3.303283 0.811853 5.712842
-3.319408 0.846989 5.739652
-3.315584 0.871774 5.726821
-3.324785 0.908218 5.737536
-3.356470 1.268223 5.823454
-3.357050 1.295540 5.833359
-3.355166 1.323316 5.846297
-3.355419 1.318806 5.848691
-3.351903 1.344916 5.834361
-3.354963 1.326369 5.837922
-3.345670 1.380063 5.833132
-3.350406 1.420896 5.841905
-3.686274 -0.968552 5.889718
-3.912899 -1.037380 6.142039
-3.895493 -1.007509 6.134986
-3.902365 -1.011754 6.143360
-3.907936 -1.027672 6.143214
-3.892623 -0.977133 6.144252
-3.888880 -0.984273 6.135514
-3.878780 -0.960118 6.128301
-4.225478 -1.030933 6.717259
-4.214797 -1.027402 6.702004
-4.211825 -1.017943 6.700099
-4.223784 -0.999082 6.724013
-4.209373 -0.995997 6.702013
-3.991759 -1.025461 6.288719
-3.985386 -0.981675 6.288836
-3.992522 -0.987517 6.300794
-4.143317 -1.038803 6.568961
-4.141239 -1.011784 6.574559
-4.138030 -0.988653 6.575477
-4.137131 -0.997560 6.571246
-4.141016 -0.974153 6.584918
-4.129490 -0.957125 6.566668
-4.405978 -0.875472 6.850863
-4.425417 -0.871586 6.850472
-4.394733 -0.867455 6.851339
-4.391200 -0.855829 6.852662
-4.398250 -0.850387 6.853890
-4.488322 -0.827780 6.841748
-4.497047 -0.792821 6.843156
-4.519472 -0.782189 6.837263
-4.500880 -0.780295 6.843373
-4.527037 -0.735437 6.839176
-4.493690 -0.747064 6.848874
-4.504015 -0.750170 6.845479
-4.464954 -0.833135 6.847358
-4.438356 -0.826510 6.853652
-4.458604 -0.814358 6.850920
-4.478184 -0.797429 6.847713
-4.435183 -0.797494 6.856713
-4.428489 -0.810634 6.856550
-4.377527 -0.828131 6.854805
-4.413709 -0.787016 6.859449
-4.481028 -0.774680 6.849497
-4.436325 -0.773736 6.858643
-4.455676 -0.777541 6.854887
-4.464525 -0.753755 6.855512
-4.421093 -0.778002 6.859758
-4.376935 -0.771190 6.859838
-4.375459 -0.785770 6.858060
-4.512153 -0.707888 6.847239
-4.526729 -0.697503 6.843098
-4.538135 -0.676426 6.841207
-4.490541 -0.684535 6.856019
-4.491451 -0.699862 6.854264
-4.544340 -0.663561 6.840181
-4.530597 -0.654436 6.846083
-4.540243 -0.672812 6.840845
-4.512121 -0.653196 6.852688
-4.519199 -0.624038 6.853303
-4.524956 -0.643742 6.849193
-4.496194 -0.626564 6.860493
-4.497633 -0.622062 6.860565
-4.470264 -0.725875 6.857061
-4.475193 -0.717617 6.856663
-4.453725 -0.726184 6.860713
-4.474747 -0.698911 6.858596
-4.478519 -0.668573 6.860873
-4.554734 -0.574989 6.844609
-4.527089 -0.597163 6.853197
-4.527959 -0.617809 6.850793
-4.503784 -0.610723 6.859850
-4.512627 -0.599838 6.858171
-4.515682 -0.587094 6.858384
-4.531826 -0.583327 6.852834
-4.543616 -0.527039 6.853302
-4.412916 -0.015635 6.933444
-4.427981 -0.000668 6.932801
-4.414168 0.036576 6.937008
-4.379201 0.020356 6.936664
-4.399569 0.024720 6.937161
-4.486164 0.043108 6.923882
-4.487548 0.082458 6.926814
-4.508989 0.071509 6.918877
-4.524128 0.118985 6.917058
-4.497066 0.105542 6.925454
-4.503160 0.099855 6.923025
-4.521382 0.141474 6.919758
-4.526412 0.132442 6.917230
-4.497155 0.126711 6.927021
-4.467284 0.044783 6.928947
-4.449580 0.041248 6.932509
-4.437533 0.060995 6.936480
-4.468058 0.090419 6.932655
-4.482560 0.066922 6.926976
-4.433352 0.090152 6.940034
-4.453986 0.072050 6.934449
-4.415421 0.046210 6.937724
-4.409900 0.061930 6.939617
-4.385485 0.057911 6.939371
-4.389994 0.047425 6.938646
-4.411096 0.077772 6.941040
-4.414822 0.071424 6.940075
-4.458934 0.110527 6.936881
-4.485387 0.099798 6.928835
-4.456094 0.119299 6.938270
-4.451744 0.110509 6.938306
-4.464221 0.133875 6.937429
-4.453851 0.126137 6.939395
-4.457799 0.129539 6.938849
-4.352188 -0.065034 6.927831
-4.370041 -0.038415 6.932525
-4.367853 -0.032788 6.932532
-4.348129 -0.025916 6.929727
-4.353857 0.000002 6.932189
-4.344974 0.003618 6.930378
-4.372005 0.014508 6.935608
-4.370334 0.019366 6.935635
-4.323527 0.030953 6.925943
-4.317256 0.015561 6.922189
-4.349818 0.038975 6.933750
-4.327857 0.060713 6.929611
-4.336617 0.084406 6.934021
-4.348884 0.079847 6.936929
-4.321316 0.046374 6.926450
-4.364652 0.096987 6.941008
-4.354490 0.132594 6.943340
-4.343321 0.136883 6.941085
-4.316320 0.124097 6.930681
-4.534264 0.168328 6.916888
-4.511498 0.149838 6.923963
-4.526863 0.192377 6.921237
-4.500075 0.197497 6.932402
-4.495291 0.182843 6.932404
-4.541511 0.249641 6.920082
-4.552190 0.253223 6.916409
-4.520531 0.216494 6.925954
-4.512361 0.213382 6.929371
-4.527814 0.252401 6.925716
-4.488931 0.251639 6.940384
-4.500016 0.241471 6.935603
-4.460161 0.173335 6.942126
-4.449389 0.150767 6.942590
-4.461143 0.175728 6.942054
-4.484113 0.182527 6.936054
-4.481618 0.221174 6.940410
-4.543817 0.296178 6.924751
-4.532326 0.262377 6.925150
-4.490547 0.261404 6.940591
-4.488490 0.278965 6.943044
-4.516738 0.302979 6.936078
-4.529696 0.307909 6.931621
-4.498696 0.294059 6.941253
-4.541558 0.352473 6.930501
-3.259926 0.391873 5.626730
-3.257428 0.373203 5.622980
-3.247936 0.384424 5.612397
-3.254401 0.373065 5.619421
-3.261677 0.433873 5.628973
-3.263056 0.481522 5.626829
-3.314531 0.028933 5.659100
-3.316621 0.041275 5.664078
-3.315885 0.075664 5.667706
-3.317313 0.134012 5.677145
-3.336784 0.939428 5.776151
-3.338016 0.986610 5.768252
-3.340105 1.003953 5.770288
-3.346349 1.058733 5.778574
-4.551832 0.196692 6.910110
-4.554304 0.185926 6.908564
-4.545270 0.229722 6.916057
-3.103568 -0.808156 5.300958
-3.085656 -0.673446 5.328632
-3.082572 -0.655950 5.329122
-3.079556 -0.642416 5.326010
-3.067816 -0.571801 5.328189
-3.069779 -0.544972 5.329786
-3.070773 -0.535976 5.327316
-3.247587 -0.707284 5.482172
-3.248881 -0.712511 5.482590
-3.246573 -0.675883 5.485260
-3.229289 -0.661534 5.471791
-3.248319 -0.668644 5.487669
-3.248971 -0.630581 5.492536
-3.225818 -0.620088 5.473925
-3.235423 -0.599011 5.484457
-3.239911 -0.613594 5.486688
-3.225131 -0.615237 5.473897
-3.216332 -0.567740 5.471849
-3.227192 -0.568081 5.480785
-3.230313 -0.555660 5.485005
-3.227945 -0.515429 5.487823
-3.232319 -0.518363 5.491320
-3.212486 -0.559098 5.469702
-3.216516 -0.510569 5.478625
-3.228560 -0.474395 5.493063
-3.213535 -0.483460 5.479244
-3.204153 -0.497330 5.469600
-3.207042 -0.463399 5.476055
-3.227653 -0.473456 5.492391
-3.224409 -0.450171 5.492266
-3.210946 -0.443595 5.481730
-3.193605 -0.438611 5.467994
-3.216217 -0.419184 5.489245
-3.211383 -0.375125 5.490662
-3.203409 -0.392491 5.481769
-3.192705 -0.399688 5.471786
-3.202445 -0.367775 5.483800
-3.193128 -0.371011 5.475472
-3.206003 -0.320504 5.493108
-3.199000 -0.339616 5.484258
-3.176465 -0.310996 5.468766
-3.258867 -0.681499 5.495414
-3.269062 -0.698276 5.502333
-3.261214 -0.657031 5.500527
-3.271592 -0.671800 5.508123
-3.256885 -0.646023 5.497930
-3.269142 -0.628687 5.510664
-3.258798 -0.628659 5.501399
-3.262442 -0.605240 5.506715
-3.275037 -0.599464 5.518314
-3.274179 -0.582610 5.519341
-3.265198 -0.578173 5.511922
-3.247477 -0.544972 5.501325
-3.242587 -0.563897 5.494826
-3.262668 -0.518891 5.518266
-3.257300 -0.521307 5.512914
-3.242840 -0.525828 5.499815
-3.244350 -0.492829 5.504901
-3.253024 -0.466314 5.515144
-3.244862 -0.448603 5.509815
-3.236075 -0.405720 5.507744
-3.239190 -0.422280 5.507997
-3.222438 -0.409049 5.495896
-3.241298 -0.378950 5.516654
-3.238070 -0.394603 5.511364
-3.236128 -0.370624 5.513196
-3.222127 -0.382828 5.499106
-3.233704 -0.333624 5.516287
-3.222333 -0.320695 5.508022
-3.220158 -0.333996 5.503870
-3.209011 -0.310578 5.497472
-3.217863 -0.312231 5.505331
-3.204397 -0.272772 5.499230
-3.207413 -0.281154 5.500722
-3.221011 -0.259670 5.516215
-3.233705 0.319471 5.593052
-3.238978 0.358214 5.600827
-3.228480 0.357403 5.588128
-3.226009 0.354669 5.584584
-3.290759 0.053585 5.629994
-3.279696 0.061800 5.616971
-3.275703 0.074681 5.613700
-3.279424 0.104953 5.622529
-3.267156 0.144192 5.613029
-3.263595 0.166061 5.611559
-3.268200 0.158010 5.615826
-3.262671 0.186423 5.612980
-3.267881 0.176052 5.617818
-3.259962 0.222486 5.614197
-3.263162 0.232778 5.618941
-3.253404 0.229454 5.607635
-3.259704 0.260630 5.617840
-3.252030 0.303890 5.612847
-3.262810 0.324162 5.626441
-3.246733 0.329497 5.608557
-3.260859 0.341349 5.625395
-3.254375 0.347322 5.618057
-3.323010 0.181750 5.690466
-3.321972 0.218177 5.692198
-3.321818 0.266913 5.696917
-3.321160 0.300738 5.698676
-3.318952 0.291297 5.694543
-3.321937 0.332468 5.702812
-3.311915 0.328629 5.687730
-3.323873 0.362783 5.706112
-3.327619 0.356128 5.711289
-3.693314 -1.021844 5.882500
-3.870957 -1.006333 6.096814
-3.869608 -0.979524 6.107384
-3.873180 -0.953743 6.121626
-3.915647 -1.011060 6.163206
-3.907515 -0.984845 6.163318
-3.899019 -0.965752 6.157433
-4.053416 -1.018043 6.404078
-4.052539 -1.026683 6.398956
-4.049194 -0.987626 6.406863
-4.047979 -0.974772 6.408739
-4.042238 -0.956340 6.402623
-4.042655 -0.969039 6.400713
-4.410981 -0.738268 6.864580
-4.385161 -0.740626 6.863675
-4.383680 -0.751811 6.862383
-4.373982 -0.747185 6.861962
-4.438812 -0.722167 6.863622
-4.451004 -0.719516 6.861831
-4.456794 -0.704383 6.862065
-4.434178 -0.683480 6.867957
-4.451441 -0.690294 6.864363
-4.423278 -0.725993 6.864978
-4.398303 -0.723931 6.866296
-4.419732 -0.699794 6.867704
-4.387623 -0.681582 6.870091
-4.456198 -0.667448 6.866032
-4.467085 -0.619846 6.868725
-4.407230 -0.654604 6.873203
-4.425444 -0.671062 6.870088
-4.377770 -0.656567 6.872374
-4.422890 -0.620081 6.875748
-4.385233 -0.631144 6.875407
-4.381918 -0.644914 6.873759
-4.493381 -0.597214 6.864536
-4.490239 -0.583323 6.866969
-4.491479 -0.561724 6.868702
-4.513213 -0.540830 6.863725
-4.497301 -0.512259 6.871036
-4.499517 -0.534801 6.868553
-4.462578 -0.606215 6.871263
-4.481117 -0.592753 6.868461
-4.442153 -0.602788 6.875209
-4.447922 -0.614759 6.872976
-4.473522 -0.587237 6.870779
-4.432640 -0.575801 6.879805
-4.457706 -0.573423 6.875832
-4.422605 -0.597332 6.878318
-4.394495 -0.617840 6.877216
-4.385702 -0.598137 6.879387
-4.407727 -0.574213 6.882470
-4.427231 -0.572192 6.880834
-4.382080 -0.573177 6.882171
-4.395614 -0.587297 6.881027
-4.440446 -0.541702 6.882210
-4.419914 -0.560321 6.882869
-4.425788 -0.555705 6.882799
-4.389038 -0.558876 6.884029
-4.400326 -0.557649 6.884556
-4.390146 -0.533118 6.886821
-4.399025 -0.518252 6.888465
-4.363026 -0.682472 6.866967
-4.373201 -0.656205 6.871705
-4.373699 -0.620294 6.875707
-4.363163 -0.604518 6.875600
-4.358867 -0.583729 6.877265
-4.369472 -0.566445 6.881337
-4.284564 0.663719 6.966011
-4.283377 0.687852 6.967886
-4.547741 0.868460 6.967294
-4.551621 0.935759 6.970911
-4.404178 0.764786 7.000151
-4.384887 0.765813 7.000492
-4.402391 0.767975 7.000460
-4.413634 0.783912 7.000571
-4.426981 0.782663 6.998683
-4.401475 0.784338 7.002037
-4.367008 0.759308 6.998964
-4.358648 0.777504 7.000132
-4.347622 0.788842 7.000432
-4.443694 0.823295 6.999055
-4.447661 0.844483 7.000069
-3.349626 -1.035578 5.491098
-3.532057 -1.036351 5.667801
-3.512209 -1.002531 5.677808
-3.514463 -1.012598 5.670456
-3.518469 -1.017439 5.670595
-3.494323 -0.995060 5.661091
-3.496530 -0.998232 5.661508
-3.499280 -0.971828 5.680681
-3.676011 -1.034431 5.859500
-3.673566 -1.005556 5.864487
-3.660388 -1.005377 5.849576
-3.674539 -0.999253 5.867313
-3.658472 -0.996744 5.849738
-3.654143 -0.965728 5.853168
-3.390617 1.701649 5.919835
-4.120459 -1.021630 6.531334
-4.110539 -1.024217 6.512325
-4.107017 -0.983489 6.517462
-4.111738 -0.968750 6.530966
-4.125556 -1.022983 6.540387
-4.127909 -0.982222 6.558054
-4.124578 -0.989312 6.549580
-4.120294 -1.001334 6.537821
-4.125267 -0.963654 6.557638
-4.436553 -0.743603 6.861781
-4.438894 -0.457702 6.890179
-4.417206 -0.499640 6.889199
-4.407289 -0.468623 6.892591
-4.430976 -0.460188 6.891216
-4.398268 -0.480460 6.891801
-4.398212 -0.461180 6.893336
-4.431890 -0.453594 6.891677
-4.444091 -0.432989 6.891394
-4.440867 -0.403117 6.894861
-4.454047 -0.426019 6.890238
-4.411056 -0.449800 6.893829
-4.384728 -0.427615 6.895866
-4.400994 -0.448169 6.894494
-4.404531 -0.423375 6.896743
-4.415199 -0.402700 6.897836
-4.403528 -0.419512 6.897126
-4.474062 -0.373552 6.890433
-4.465015 -0.394563 6.890856
-4.440983 -0.384735 6.896664
-4.465019 -0.347901 6.895296
-4.405621 -0.373426 6.901557
-4.418557 -0.389320 6.898922
-4.377007 -0.373012 6.900753
-4.399832 -0.385963 6.900257
-4.406942 -0.357607 6.903189
-4.379299 -0.369947 6.901171
-4.473422 -0.330628 6.894707
-4.437727 -0.330262 6.902699
-4.455947 -0.323903 6.899840
-4.462487 -0.310509 6.899577
-4.439210 -0.307509 6.904662
-4.429471 -0.339967 6.903105
-4.394243 -0.344910 6.904509
-4.389854 -0.319974 6.907094
-4.411413 -0.290521 6.909630
-4.389577 -0.305922 6.908465
-4.367054 -0.463351 6.891120
-4.350818 -0.443651 6.889955
-4.374540 -0.445468 6.893753
-4.366570 -0.421342 6.894526
-4.362824 -0.380605 6.897719
-4.372449 -0.386769 6.898688
-4.350204 -0.351762 6.898551
-4.340592 -0.305819 6.900562
-4.279866 0.464460 6.941176
-4.278704 0.481822 6.943131
-4.438573 0.139021 6.943733
-4.422039 0.117381 6.944055
-4.423460 0.131720 6.945166
-4.398033 0.123298 6.946157
-4.387471 0.140663 6.947584
-4.358023 0.132674 6.943949
-4.433420 0.156226 6.946239
-4.385104 0.166158 6.949977
-4.396371 0.165272 6.950078
-4.411124 0.185889 6.951295
-4.379422 0.184614 6.951550
-4.387763 0.194574 6.952554
-4.431813 0.228121 6.952383
-4.445304 0.211835 6.948472
-4.460214 0.244592 6.947658
-4.449241 0.233071 6.949184
-4.452672 0.235885 6.948670
-4.388071 0.216923 6.954362
-4.396299 0.211603 6.954062
-4.406690 0.231285 6.955394
-4.388466 0.238524 6.955926
-4.403580 0.256565 6.957283
-4.487009 0.287555 6.944410
-4.410306 0.447060 6.973240
-4.389540 0.448009 6.974599
-4.393180 0.435010 6.973186
-4.404211 0.466481 6.976003
-4.442801 0.498389 6.973301
-4.461110 0.524553 6.971690
-4.446040 0.516049 6.974293
-4.407063 0.475881 6.976594
-4.415956 0.501834 6.977927
-4.388224 0.478387 6.977483
-4.400732 0.509506 6.980070
-4.462323 0.553518 6.973598
-4.440200 0.550769 6.978706
-4.465739 0.563667 6.973269
-4.433310 0.560927 6.981239
-4.441340 0.561240 6.979366
-4.417570 0.542943 6.981490
-4.423403 0.538887 6.980481
-4.390443 0.533140 6.982188
-4.404328 0.580946 6.986176
-4.413242 0.578982 6.985078
-4.386174 0.568168 6.985304
-4.390693 0.562158 6.984780
-4.351840 0.446176 6.972528
-4.366613 0.441248 6.973423
-4.357815 0.471024 6.975094
-4.357124 0.449683 6.973360
-4.347934 0.458861 6.972946
-4.360733 0.478858 6.976039
-4.359918 0.523459 6.979874
-4.363987 0.542101 6.981947
-4.326715 0.532297 6.974460
-4.342556 0.544702 6.979271
-4.374439 0.562436 6.984713
-4.332144 0.561804 6.978493
-4.330832 0.579320 6.979746
-4.321109 0.568874 6.976480
-3.214487 -0.230733 5.513916
-3.193042 -0.211747 5.496586
-3.194824 -0.235439 5.495554
-3.214017 -0.184261 5.519102
-3.206368 -0.200014 5.510034
-3.196765 -0.197810 5.501464
-3.185708 -0.160774 5.495536
-3.188667 -0.129912 5.501652
-3.196327 -0.135900 5.508359
-3.201546 -0.118663 5.515189
-3.190568 -0.077722 5.508217
-3.179739 -0.046877 5.499476
-3.199802 -0.046878 5.520174
-3.177626 -0.019736 5.499135
-3.190290 -0.035494 5.511239
-3.189013 0.007173 5.511784
-3.175603 -0.015875 5.497160
-3.194726 0.029021 5.517690
-3.183913 0.018230 5.506254
-3.179859 0.057618 5.503204
-3.181891 0.046622 5.504039
-3.191200 0.087880 5.519469
-3.186081 0.077308 5.512354
-3.183946 0.103795 5.514590
-3.186186 0.122900 5.519882
-3.169944 0.099392 5.499196
-3.182415 0.152263 5.519859
-3.310039 -0.508253 5.566975
-3.300483 -0.460126 5.563514
-3.298360 -0.437946 5.564047
-3.296356 -0.402290 5.567452
-3.306364 -0.422334 5.575075
-3.285523 -0.388334 5.558429
-3.291728 -0.353814 5.570067
-3.292980 -0.364052 5.569956
-3.292037 -0.331552 5.573619
-3.284517 -0.324169 5.566752
-3.276721 -0.355562 5.554477
-3.264939 -0.306501 5.550573
-3.276328 -0.263855 5.568622
-3.276477 -0.284604 5.565268
-3.267190 -0.252474 5.561427
-3.251987 -0.218233 5.551224
-3.247973 -0.197660 5.550165
-3.312279 -0.455984 5.576910
-3.309556 -0.425565 5.578170
-3.313323 -0.299516 5.602702
-3.292081 -0.311682 5.576936
-3.307996 -0.271877 5.601753
-3.289873 -0.269145 5.582030
-3.294361 -0.240053 5.592443
-3.303758 -0.255576 5.600073
-3.291907 -0.259815 5.585952
-3.292195 -0.224168 5.592693
-3.291165 -0.203271 5.595239
-3.285399 -0.158149 5.596325
-3.280207 -0.183646 5.586026
-3.299558 0.059726 5.642563
-3.302275 0.079454 5.648931
-3.292847 0.071638 5.635245
-3.303955 0.094072 5.652989
-3.287743 0.145215 5.637997
-3.301587 0.125649 5.653747
-3.282566 0.163781 5.633307
-3.300367 0.161149 5.655834
-3.286998 0.191203 5.641781
-3.291149 0.204063 5.648402
-3.284797 0.255129 5.645980
-3.289937 0.244167 5.651134
-3.291451 0.257835 5.654469
-3.283229 0.355549 5.652560
-3.278303 0.257755 5.638630
-3.282048 0.314940 5.647501
-3.282846 0.528371 5.656477
-3.283520 0.574460 5.656288
-3.282417 0.388547 5.653615
-3.277516 0.432166 5.649359
-3.264615 0.472588 5.630967
-3.268933 0.494061 5.633908
-3.274009 0.495650 5.641696
-3.278382 0.522745 5.646170
-3.280546 0.536881 5.649149
-4.541537 0.384885 6.933029
-4.552240 0.399758 6.929648
-4.515372 0.377926 6.942701
-4.534960 0.386036 6.935701
-4.511407 0.371638 6.943620
-4.524293 0.418852 6.942250
-4.540920 0.428564 6.936323
-4.544016 0.454421 6.936979
-4.532446 0.431070 6.939895
-4.285257 0.371589 6.934246
-4.293429 0.389677 6.941651
-4.284663 0.420754 6.939550
-4.287052 0.396823 6.937910
-4.473935 0.874616 6.995209
-4.485414 0.878364 6.992002
-4.481204 0.905837 6.995304
-4.520614 0.918761 6.982198
-4.535140 0.928694 6.977133
-4.487757 0.916858 6.994015
-4.511718 0.919301 6.985718
-4.540009 0.945707 6.976533
-4.488007 0.946694 6.996371
-4.509996 0.945925 6.988361
-4.542892 0.983961 6.978261
-4.528855 0.968319 6.982899
-4.521269 1.014331 6.988832
-4.500167 1.003601 6.996252
-4.318284 0.811160 6.996407
-4.279469 0.827803 6.981576
