-2.842593 1.032105 1.265320
-2.852022 0.999219 1.269920
-2.837337 1.043548 1.265944
-2.820642 1.059175 1.278152
-2.825778 1.092557 1.265090
-2.821553 1.125049 1.261568
-2.800753 1.111703 1.285818
-2.773504 1.169934 1.294433
-2.793008 1.137152 1.286200
-2.766781 1.171143 1.300808
-2.791534 1.194936 1.267959
-2.770521 1.213240 1.281572
-2.754810 1.213109 1.298269
-2.778965 1.218482 1.271629
-2.746073 1.228960 1.302385
-2.768222 1.292897 1.264926
-2.750666 1.337019 1.272129
-2.739754 1.334611 1.282894
-2.750588 1.310119 1.277901
-2.718678 1.347857 1.301396
-2.740169 1.369690 1.277309
-2.740580 1.387854 1.277005
-2.726813 1.436064 1.302816
-2.752759 1.412879 1.266917
-2.729523 1.399342 1.290219
-2.738675 1.465610 1.294932
-2.748375 1.445496 1.277331
-2.743803 1.485633 1.293831
-2.775535 1.537834 1.268641
-2.762943 1.529471 1.282521
-2.568148 0.141344 1.755761
-2.569539 0.147154 1.754274
-2.563703 0.180973 1.760822
-2.563549 0.156845 1.760648
-2.577916 0.259080 1.753510
-2.551010 0.263445 1.780002
-2.551679 0.300898 1.782135
-2.585831 0.368359 1.754291
-2.569537 0.373839 1.766408
-2.563138 0.381614 1.770809
-2.573916 0.408248 1.760731
-2.581358 0.463650 1.747691
-2.542851 0.191045 1.784116
-2.546101 0.453880 1.771442
-2.553336 -0.032148 1.796564
-3.534659 0.473207 0.625815
-3.536201 0.525825 0.626518
-3.518571 0.539298 0.637535
-3.547595 0.681697 0.633842
-3.542814 0.689357 0.637417
-3.554065 0.858654 0.632434
-3.540854 0.877662 0.633941
-3.539614 0.864520 0.636542
-3.518360 0.992710 0.611755
-3.742986 -0.996801 0.947425
-3.730177 -0.981453 0.914667
-3.698686 -0.967812 0.924103
-3.632075 -0.913404 0.954409
-3.628497 -0.900882 0.951476
-2.971994 1.209233 1.102683
-2.969755 1.174144 1.103566
-2.981567 1.245274 1.093792
-2.964366 1.223290 1.111457
-2.948373 1.297457 1.125659
-2.974290 1.312271 1.098641
-2.990783 1.313490 1.082778
-2.967509 1.365671 1.106355
-2.949259 1.382661 1.123214
-2.986977 1.416400 1.095871
-2.967511 1.399202 1.109289
-2.974588 1.448332 1.111034
-3.007320 1.548412 1.088778
-2.996875 1.612549 1.090495
-2.979963 1.567965 1.109911
-2.981628 1.584308 1.106819
-2.957978 1.581105 1.126273
-2.994079 1.661261 1.088451
-2.968135 1.641159 1.111970
-2.983829 1.663435 1.096771
-2.949511 1.672756 1.124354
-2.945771 1.698241 1.123678
-2.991088 1.724634 1.087847
-2.977685 1.705860 1.098667
-2.963369 1.735696 1.106655
-2.901372 1.395303 1.157357
-2.887085 1.675306 1.166526
-3.042381 0.476885 1.195023
-3.038835 0.521569 1.174455
-3.030672 0.544667 1.181473
-3.021416 0.526567 1.211586
-3.018613 0.581919 1.199350
-3.021590 0.634837 1.180424
-3.021406 0.683780 1.186009
-3.021245 0.648076 1.180851
-3.021859 0.710522 1.191223
-3.024527 0.714034 1.184453
-3.021045 0.767203 1.193373
-3.011883 0.802545 1.192745
-3.005355 0.808311 1.210253
-2.995558 0.853996 1.183326
-2.995496 0.860372 1.175036
-3.008678 0.823158 1.178951
-2.972477 0.888414 1.201000
-2.977910 0.877040 1.202991
-3.127580 -0.926478 1.402106
-3.120216 -0.909318 1.403901
-3.124692 -0.891030 1.392916
-3.113353 -0.890306 1.407978
-3.100488 -0.820322 1.413639
-3.093302 -0.858250 1.427560
-3.081500 -0.781128 1.434221
-3.106944 -0.801422 1.405461
-3.082661 -0.808760 1.434137
-3.099671 -0.735739 1.418173
-3.113275 -0.764680 1.400922
-3.110929 -0.713617 1.408469
-3.106829 -0.603591 1.394219
-3.082190 -0.600590 1.417469
-3.094653 -0.591129 1.403823
-2.722871 0.918495 1.470649
-2.717405 0.912254 1.479339
-2.697587 0.982304 1.473496
-2.708076 1.002593 1.447936
-2.674084 1.060705 1.471893
-2.661940 1.122997 1.466757
-2.665428 1.095058 1.471187
-2.663864 1.170276 1.436464
-2.657377 1.142667 1.467981
-2.955953 -0.930520 1.633343
-2.942183 -0.933002 1.650513
-2.957308 -0.904192 1.619087
-2.927106 -0.874806 1.640269
-2.941857 -0.905617 1.636915
-2.905666 -0.851342 1.651211
-2.909728 -0.791111 1.622201
-2.894672 -0.780452 1.631312
-2.858481 -0.754433 1.654004
-2.870279 -0.736187 1.639112
-2.856012 -0.738238 1.651359
-2.883289 -0.729699 1.627246
-2.865815 -0.704076 1.635080
-2.844305 -0.729825 1.657642
-2.876480 -0.670112 1.618083
-2.836585 -0.617897 1.624469
-3.400043 0.594472 0.709611
-3.393609 0.567410 0.707530
-3.387788 0.597512 0.717879
-3.388808 0.574585 0.712013
-3.424150 0.615238 0.698785
-3.395233 0.636647 0.722402
-3.445771 0.679955 0.698907
-3.462556 0.726348 0.694034
-3.454124 0.756337 0.702620
-3.449989 0.736935 0.704854
-3.439233 0.779089 0.722755
-3.420372 0.667842 0.713772
-3.416143 0.644115 0.710378
-3.437677 0.838794 0.727208
-3.451144 0.876940 0.701849
-3.461943 0.877867 0.687820
-3.417573 0.990487 0.697746
-3.404619 0.988867 0.713338
-3.453536 1.163317 0.687022
-3.397870 0.999374 0.717574
-3.389924 1.023560 0.723890
-3.388515 1.013683 0.727063
-3.394198 1.068475 0.722127
-3.410801 1.057265 0.697242
-3.421691 1.099415 0.694862
-3.414052 1.088708 0.701107
-3.431489 1.133840 0.700438
-3.475343 1.207878 0.686168
-3.449726 1.187720 0.706654
-3.490554 1.237872 0.687965
-3.478280 1.238333 0.703411
-3.454337 1.230923 0.727651
-3.341902 0.500114 0.735295
-3.307955 0.495459 0.758663
-3.339116 0.528341 0.737220
-3.326606 0.553573 0.745356
-3.377907 0.620075 0.729932
-3.351956 0.602954 0.742008
-3.317961 0.582946 0.755400
-3.297313 0.565370 0.762851
-3.328226 0.607225 0.755472
-3.320950 0.600834 0.756825
-3.355677 0.677117 0.765168
-3.366148 0.661111 0.749648
-3.399503 0.725548 0.749089
-3.389037 0.718332 0.755847
-3.343437 0.665633 0.769417
-3.413436 0.769697 0.750399
-3.414956 0.756683 0.744270
-3.403417 0.734367 0.748671
-3.404766 0.787492 0.764505
-3.424097 0.777414 0.740351
-3.435268 0.820840 0.732685
-3.421059 0.851674 0.748859
-3.418760 0.825540 0.754668
-3.410545 0.890107 0.751989
-3.426479 0.887372 0.730573
-3.398330 0.927394 0.752366
-3.403675 0.938365 0.738981
-3.391990 0.974182 0.736527
-3.383646 0.967953 0.751384
-3.377950 0.967119 0.759622
-3.364167 1.011299 0.761393
-3.368143 1.081203 0.766463
-3.404136 1.124018 0.734266
-3.392532 1.100105 0.738995
-3.373294 1.094143 0.763711
-3.403010 1.151957 0.746228
-3.444162 1.240481 0.745117
-3.588086 -0.880816 0.989920
-3.486198 -0.909787 1.116583
-3.519378 -0.926250 1.094602
-3.507134 -0.876952 1.083778
-3.481148 -0.881000 1.113108
-3.492338 -0.862040 1.094855
-3.474696 -0.856455 1.112661
-3.466343 -0.780293 1.096300
-3.445141 -0.798011 1.122340
-3.441444 -0.772395 1.118622
-3.436512 -0.690230 1.105691
-3.443041 -0.675334 1.097692
-3.445642 -0.626551 1.089222
-3.430272 -0.674520 1.109883
-3.405371 -0.616160 1.126243
-3.419821 -0.636597 1.116481
-3.443772 -0.586490 1.083475
-3.434807 -0.582712 1.091656
-3.429590 -0.574582 1.094384
-3.398585 -0.511808 1.095713
-3.425041 -0.546026 1.090540
-3.377023 -0.475322 1.091623
-3.346224 -0.478505 1.126164
-3.369829 -0.454308 1.084764
-3.350309 -0.423553 1.087769
-3.320946 -0.416737 1.126096
-3.308300 -0.344903 1.113327
-3.319971 -0.363407 1.104010
-3.322763 -0.374963 1.105264
-3.427768 -1.008490 1.240042
-3.372152 -0.998089 1.229808
-3.379320 -1.005011 1.242512
-3.349912 -0.979567 1.216976
-3.371344 -0.995501 1.225057
-3.301446 -0.971516 1.251211
-3.314915 -0.959995 1.230434
-3.332401 -0.960354 1.215748
-3.214994 -0.950533 1.323636
-3.182336 -0.914381 1.338580
-3.198734 -0.822689 1.314302
-3.185571 -0.851793 1.324482
-3.175248 -0.797556 1.338791
-3.166939 -0.786128 1.347421
-3.212035 -0.732809 1.311154
-3.195699 -0.769032 1.324695
-3.200293 -0.692847 1.321934
-3.207650 -0.701582 1.313793
-3.224784 -1.004673 1.383132
-3.201156 -0.984368 1.371311
-3.200377 -0.966625 1.352316
-2.955790 -0.402678 1.533003
-2.925276 -0.417907 1.549388
-2.908745 -0.398024 1.558871
-2.959251 -0.366550 1.532337
-2.909632 -0.335345 1.557941
-2.920542 -0.372222 1.553291
-2.911760 -0.296509 1.554200
-2.920733 -0.326627 1.551486
-2.951209 -0.251010 1.530971
-2.931510 -0.279755 1.542599
-2.903413 -0.250948 1.554850
-2.896804 -0.488835 1.564306
-2.896103 -0.379273 1.565526
-2.899867 -0.287592 1.560003
-2.933750 -0.216636 1.538384
-2.907435 -0.223415 1.551424
-2.928699 -0.184221 1.539752
-2.927914 -0.125558 1.535164
-2.903250 -0.125802 1.549853
-2.920249 -0.086143 1.531630
-2.889211 -0.993051 1.752413
-2.835843 -0.962522 1.773702
-2.843327 -0.931196 1.750371
-2.783715 -0.912160 1.789209
-2.808441 -0.904137 1.766261
-2.788398 -0.878105 1.769312
-2.780277 -0.844437 1.758504
-2.760476 -0.824750 1.764589
-2.746626 -0.848521 1.787652
-2.734231 -0.803583 1.775047
-2.742155 -0.817464 1.775414
-2.721084 -0.790247 1.777885
-2.726436 -0.730881 1.746391
-2.699007 -0.753196 1.771084
-2.718816 -0.751269 1.760105
-2.709250 -0.729521 1.754395
-2.671620 -0.717206 1.764040
-2.663888 -0.727981 1.773883
-2.605174 -0.697757 1.780469
-2.627322 -0.692470 1.766001
-2.598907 -0.670697 1.763738
-2.587631 -0.672081 1.773554
-2.583498 -0.682504 1.784414
-2.553134 -0.598162 1.776047
-2.583034 -0.626851 1.747908
-3.515463 0.263747 0.637319
-3.524562 0.339820 0.629146
-3.520134 0.327296 0.632542
-3.515998 0.338256 0.636458
-3.596460 -0.720391 0.902200
-3.602769 -0.648270 0.871462
-3.590334 -0.669279 0.894743
-3.589013 -0.599929 0.874767
-3.605176 -0.640624 0.865241
-3.582727 -0.583731 0.877822
-3.573369 -0.540414 0.866311
-3.555904 -0.521413 0.879184
-3.524649 -0.487845 0.892883
-3.543701 -0.508412 0.887438
-3.512077 -0.476932 0.902341
-3.497198 -0.448386 0.871273
-3.494937 -0.449743 0.886430
-3.443525 -0.390492 0.896277
-3.432589 -0.351627 0.865358
-3.428757 -0.355944 0.900943
-3.424321 -0.296035 0.880379
-3.427693 -0.331040 0.878623
-3.419528 -0.245057 0.874778
-3.425399 -0.285122 0.871699
-3.406281 -0.228688 0.897461
-3.415884 -0.228091 0.877797
-3.417100 -0.188474 0.862771
-3.404505 -0.149057 0.873229
-3.394135 -0.105467 0.878450
-3.375538 -0.101160 0.899260
-3.542168 -0.912476 1.060120
-3.554576 -0.935251 1.063150
-3.545672 -0.885523 1.041210
-3.529160 -0.880450 1.057681
-3.523271 -0.853754 1.052804
-3.521385 -0.845777 1.051868
-3.499729 -0.796472 1.061002
-3.499425 -0.808639 1.065877
-3.513788 -0.818770 1.050425
-3.494274 -0.771206 1.059931
-3.503984 -0.735640 1.039494
-3.475230 -0.736998 1.077479
-3.474471 -0.686059 1.068622
-3.465036 -0.644485 1.072082
-3.456616 -0.648029 1.082007
-3.486146 -0.622840 1.042343
-3.478550 -0.628209 1.053434
-3.458789 -0.613040 1.072689
-3.457569 -0.566315 1.064374
-3.458205 -0.588019 1.068340
-3.439202 -0.515933 1.063528
-3.443668 -0.540901 1.070970
-3.455491 -0.547404 1.061396
-3.427634 -0.469773 1.039272
-3.429981 -0.495784 1.058343
-3.391030 -0.457934 1.064813
-3.372333 -0.430945 1.067243
-3.371164 -0.389619 1.045257
-3.353765 -0.403054 1.074339
-3.355470 -0.367683 1.056326
-3.341475 -0.346551 1.068999
-3.498451 -1.006664 1.208940
-3.508269 -0.998866 1.183727
-3.455621 -0.980007 1.176045
-3.467868 -0.991006 1.185627
-3.352965 -0.959119 1.202301
-3.349811 -0.974769 1.212536
-3.329875 -0.952862 1.213373
-3.185270 -0.672189 1.337827
-3.196438 -0.680027 1.326331
-3.169978 -0.600717 1.332304
-3.184283 -0.636057 1.329713
-3.181437 -0.585190 1.316432
-3.178333 -0.569309 1.316190
-3.170234 -0.542076 1.320099
-3.148746 -0.555164 1.343121
-3.139908 -0.518626 1.347069
-3.177001 -0.491842 1.309828
-3.169455 -0.428673 1.307089
-3.141470 -0.486581 1.342141
-3.157902 -0.450829 1.322819
-3.139618 -0.449838 1.339159
-3.154730 -0.401772 1.313435
-3.136789 -0.418497 1.336172
-3.136274 -0.372957 1.324506
-3.133872 -0.326950 1.308730
-3.102240 -0.298429 1.345447
-3.110442 -0.259116 1.322512
-3.101716 -0.270528 1.340697
-3.102741 -0.201186 1.334935
-3.113715 -0.224498 1.309491
-3.102292 -0.158318 1.334494
-3.108783 -0.177496 1.322821
-3.106749 -0.121364 1.320423
-3.099964 -0.153619 1.338623
-3.098748 -0.079215 1.323720
-3.094044 -0.107461 1.339257
-3.107301 -0.052925 1.304102
-3.093364 0.016294 1.307002
-3.092821 0.016547 1.307530
-3.073643 0.015460 1.326054
-3.072873 -0.005404 1.334701
-2.882374 -0.206491 1.564259
-2.886519 -0.223308 1.562609
-2.894136 -0.196659 1.557466
-2.881563 -0.140682 1.564577
-2.900422 -0.077949 1.545964
-2.890928 -0.101918 1.557173
-2.871915 -0.032235 1.560647
-2.875598 -0.061301 1.564018
-2.864243 0.008239 1.554136
-2.895324 0.002909 1.525414
-2.898752 -0.020830 1.532069
-2.863900 0.064497 1.530560
-2.834942 0.066605 1.562615
-2.844627 0.040508 1.562385
-2.848730 0.100798 1.535360
-2.829687 0.102000 1.558068
-2.856424 0.079071 1.533795
-2.817068 0.135817 1.565057
-2.841624 0.117778 1.539142
-2.830091 0.186512 1.536697
-2.828912 0.208482 1.533371
-2.820156 0.238528 1.537832
-2.805942 0.223725 1.558066
-2.820818 0.314735 1.527085
-2.820089 0.356221 1.525636
-2.793397 0.321389 1.561124
-2.791964 0.372215 1.563416
-2.817404 0.420072 1.527403
-2.798826 0.412207 1.554676
-2.799868 0.394693 1.553295
-2.793953 0.447776 1.560206
-2.738270 0.473586 1.628862
-2.730628 0.482211 1.635100
-2.727330 0.519096 1.629659
-2.706929 0.491649 1.656874
-2.719633 0.544450 1.627705
-2.700998 0.572635 1.631695
-2.697302 0.563294 1.642353
-2.674947 0.582191 1.650924
-2.643343 0.618269 1.648525
-2.641361 0.632420 1.639488
-2.672272 0.623256 1.621872
-2.656267 0.639695 1.622731
-2.608598 0.654478 1.648089
-2.621479 0.662827 1.635524
-2.600476 0.648520 1.656619
-2.611814 0.691913 1.627952
-2.605537 0.722899 1.622823
-2.604279 0.741270 1.618989
-2.594559 0.769194 1.621599
-2.578664 0.750079 1.645590
-2.594941 0.801983 1.626173
-2.546414 -0.573094 1.769638
-2.531444 -0.524738 1.756358
-2.516864 -0.495266 1.754665
-2.584803 -0.127228 1.759607
-2.592576 -0.080852 1.767428
-2.581532 -0.096077 1.771274
-2.593393 -0.057144 1.767604
-2.591770 -0.038275 1.766199
-2.578405 -0.057162 1.778280
-2.610109 -0.019108 1.749717
-2.591777 0.000585 1.760430
-2.581287 0.044462 1.760124
-2.555593 0.067078 1.777171
-2.554232 0.079471 1.775630
-2.504318 -0.227844 1.748202
-2.516882 -0.192707 1.759152
-2.536157 -0.150468 1.769415
-2.545419 0.094133 1.783404
-3.493016 0.472440 0.650075
-3.487677 0.493720 0.652403
-3.459869 0.499722 0.667090
-3.460957 0.493496 0.667179
-3.507064 0.527743 0.642792
-3.481904 0.539008 0.656554
-3.472307 0.516983 0.660153
-3.446771 0.536863 0.674398
-3.442397 0.582335 0.681434
-3.516412 0.623663 0.647453
-3.461442 0.609952 0.675664
-3.531204 0.645811 0.640893
-3.521944 0.663702 0.648152
-3.492532 0.667776 0.667324
-3.466011 0.648430 0.680304
-3.519654 0.704841 0.653224
-3.479266 0.714871 0.679949
-3.523822 0.746812 0.652519
-3.541270 0.780526 0.644465
-3.491080 0.754214 0.673749
-3.501609 0.792377 0.665710
-3.539443 0.831466 0.642069
-3.524614 0.853312 0.644240
-3.521276 0.850212 0.646461
-3.484393 0.843939 0.672765
-3.476044 0.830486 0.680632
-3.493273 0.881284 0.660388
-3.519047 0.865076 0.646053
-3.475469 0.905109 0.667723
-3.472260 0.919789 0.666825
-3.448479 0.985321 0.667598
-3.440114 0.978851 0.677400
-3.441498 0.958444 0.682977
-3.634146 1.728448 0.728889
-3.617600 1.708359 0.739455
-3.411333 0.024934 0.822752
-3.381760 0.023774 0.854385
-3.390394 0.107547 0.820636
-3.370045 0.093979 0.844071
-3.365247 0.067176 0.856517
-3.353560 0.130995 0.851158
-3.374936 0.126008 0.832384
-3.352136 0.191926 0.845883
-3.340679 0.151936 0.859219
-3.343015 0.163842 0.856059
-3.373151 0.205268 0.824222
-3.359274 0.233664 0.826770
-3.352663 0.270630 0.816494
-3.338398 0.203442 0.856546
-3.335500 0.279988 0.830249
-3.331712 0.253943 0.847599
-3.318161 0.294448 0.842147
-3.299073 0.323113 0.848034
-3.298802 0.357895 0.826653
-3.293827 0.337527 0.846834
-3.269448 0.421094 0.822342
-3.265809 0.387007 0.854463
-3.281480 0.385332 0.832215
-3.268268 0.425291 0.820867
-3.254546 0.428203 0.841222
-3.380495 -0.035107 0.871335
-3.361708 -0.046883 0.893122
-3.353268 -0.016681 0.892871
-3.358035 0.003535 0.883154
-3.344740 -0.015156 0.900951
-3.353451 0.023305 0.882935
-3.351920 0.042526 0.878060
-3.341761 0.052061 0.885122
-3.342651 0.097155 0.869272
-3.320836 0.066936 0.900853
-3.331540 0.149228 0.868956
-3.306850 0.163063 0.893206
-3.309649 0.181289 0.887614
-3.330256 0.202698 0.864025
-3.306538 0.234106 0.879833
-3.292633 0.223886 0.896821
-3.312332 0.253551 0.867567
-3.301195 0.287238 0.865153
-3.297721 0.285936 0.869944
-3.268199 0.316624 0.892193
-3.289850 0.301458 0.871838
-3.254440 0.347729 0.895922
-3.237279 0.395576 0.895915
-3.227119 0.447171 0.874967
-3.240250 0.845843 0.915374
-3.239959 0.879639 0.917546
-3.251265 0.912383 0.907516
-3.240623 0.950202 0.908587
-3.193093 0.932301 0.942529
-3.237787 0.970034 0.909058
-3.176039 0.955399 0.948842
-3.201029 0.955623 0.933336
-3.175401 1.027161 0.948734
-3.207472 1.025696 0.929645
-3.240459 1.042327 0.907028
-3.228418 1.126384 0.915790
-3.194200 1.126505 0.938408
-3.225953 1.132653 0.917466
-3.182561 1.169079 0.943180
-3.185236 1.146526 0.942665
-3.268442 1.391773 0.917176
-3.347155 1.497108 0.909157
-3.315808 1.451790 0.908240
-3.296685 1.478014 0.928642
-3.324836 1.520198 0.927620
-3.261928 1.500068 0.947471
-3.171139 1.214690 0.946521
-3.190029 1.201341 0.935650
-3.192759 1.177252 0.936602
-3.195328 1.234313 0.931582
-3.172603 1.230819 0.945824
-3.136297 0.539836 0.985034
-3.149929 0.512663 0.974098
-3.144911 0.597617 0.952765
-3.149775 0.570559 0.951288
-3.127620 0.561315 0.989713
-3.123598 0.574658 0.991217
-3.132362 0.608208 0.969371
-3.128640 0.622326 0.971404
-3.089847 0.683355 1.020143
-3.104758 0.698491 0.995643
-3.090613 0.705648 1.019986
-3.082050 0.746905 1.028815
-3.083608 0.818095 1.023837
-3.091106 0.775678 1.017770
-3.078779 0.760807 1.032951
-3.093838 0.855981 1.009908
-3.105914 0.885299 0.997051
-3.088245 0.909205 1.005034
-3.088709 0.946450 1.001426
-3.062153 0.847351 1.037128
-3.053329 0.900691 1.032726
-3.073938 0.869147 1.021854
-3.063357 0.943548 1.022556
-3.067578 0.987566 1.017610
-3.057040 0.964953 1.027858
-3.080447 1.063516 0.999997
-3.086945 1.165488 0.994261
-3.069187 1.037705 1.013024
-3.065152 1.014532 1.018477
-3.057387 1.042536 1.024403
-3.045608 1.105388 1.031291
-3.077790 1.093078 1.000582
-3.057065 1.147128 1.018392
-3.257137 -0.650578 1.257849
-3.269259 -0.661528 1.249603
-3.294719 -0.684642 1.231584
-3.290969 -0.630258 1.228111
-3.277735 -0.601970 1.233863
-3.293251 -0.566413 1.215458
-3.269417 -0.562128 1.233922
-3.267818 -0.537917 1.231720
-3.251628 -0.575676 1.250694
-3.248388 -0.585008 1.254732
-3.239474 -0.525105 1.255664
-3.253658 -0.470826 1.236652
-3.245360 -0.422275 1.230510
-3.244121 -0.454316 1.242588
-3.226143 -0.415003 1.248008
-3.232195 -0.369975 1.217670
-3.203851 -0.350247 1.235665
-3.168692 -0.314509 1.253593
-3.174993 -0.309269 1.241971
-3.167292 -0.314843 1.255669
-3.146698 -0.253155 1.249577
-3.162486 -0.283365 1.243141
-3.141407 -0.177609 1.243045
-3.135012 -0.195495 1.255457
-3.156660 -0.119761 1.221257
-3.158333 -0.092639 1.222340
-3.153337 -0.101298 1.230639
-3.063010 -0.556834 1.431786
-3.060364 -0.510464 1.430556
-3.067755 -0.548733 1.426103
-3.075780 -0.499883 1.412580
-3.074253 -0.441946 1.406747
-3.078251 -0.399227 1.396349
-3.051387 -0.409873 1.434844
-3.066495 -0.351344 1.412525
-3.064244 -0.290007 1.416420
-3.062684 -0.258425 1.421928
-3.067566 -0.285613 1.409768
-3.055586 -0.203699 1.433946
-3.075429 -0.213667 1.393932
-3.051556 -0.169711 1.432192
-3.055808 -0.120372 1.407873
-3.049243 -0.108120 1.412678
-3.035028 -0.088446 1.424523
-3.037652 -0.046390 1.397169
-2.997505 -0.011863 1.427431
-2.982743 0.020054 1.418900
-2.949334 0.059181 1.429291
-2.968140 0.057552 1.407878
-2.960848 0.033344 1.434366
-2.974103 0.023502 1.426106
-2.935449 0.110793 1.417312
-2.922420 0.137317 1.421027
-2.937519 0.111495 1.414246
-2.916751 0.170348 1.415730
-2.911146 0.214163 1.412424
-2.910919 0.220864 1.411255
-2.913700 0.264962 1.396932
-2.784535 -0.762674 1.718216
-2.771522 -0.734368 1.717726
-2.745952 -0.756425 1.744705
-2.727131 -0.710233 1.733421
-2.759057 -0.698459 1.707402
-2.696287 -0.654989 1.711341
-2.688013 -0.658838 1.717749
-2.646085 -0.660710 1.735725
-2.666948 -0.643603 1.715440
-2.672570 -0.628842 1.704181
-2.606230 -0.646794 1.743980
-2.599661 -0.625273 1.734437
-2.608390 -0.606709 1.719947
-2.572277 -0.597837 1.741440
-2.566264 -0.573641 1.733809
-2.565384 -0.565373 1.730200
-2.564670 -0.537916 1.712455
-2.579354 -0.256517 1.704702
-2.540657 -0.535004 1.738330
-2.507904 -0.472747 1.737679
-2.510812 -0.447498 1.720070
-2.505167 -0.431132 1.716129
-2.489570 -0.421095 1.735816
-2.502129 -0.384641 1.712889
-2.520833 -0.359359 1.703868
-2.481759 -0.362762 1.735390
-2.521152 -0.300034 1.712409
-2.488256 -0.303570 1.731220
-2.507231 -0.245471 1.737826
-2.511145 -0.253151 1.733262
-3.456122 1.022206 0.648886
-3.451988 1.031990 0.649874
-3.460514 1.065995 0.639752
-3.438859 1.070967 0.663695
-3.436836 1.113328 0.679620
-3.461050 1.166223 0.678451
-3.482704 1.187805 0.661645
-3.505543 1.206133 0.642692
-3.468679 1.185523 0.680273
-3.520876 1.236964 0.645023
-3.499450 1.244351 0.681590
-3.548382 1.280818 0.642233
-3.578657 1.350575 0.662719
-3.542488 1.317251 0.677705
-3.586348 1.391951 0.682441
-3.595492 1.401273 0.679957
-3.620608 1.456418 0.684874
-3.614906 1.529754 0.702136
-3.627001 1.597695 0.701640
-3.634989 1.586019 0.693963
-3.611342 1.631096 0.720806
-3.629642 1.696512 0.726204
-3.635617 1.669228 0.711438
-3.413611 0.507869 0.689658
-3.409780 0.490454 0.693964
-3.388529 0.498213 0.704791
-3.354885 0.491085 0.727497
-3.410517 0.522788 0.692469
-3.386157 0.539923 0.707547
-3.361999 0.539257 0.723111
-3.034151 1.293081 1.039378
-3.006524 1.296525 1.066928
-3.018925 1.273305 1.054448
-3.020365 1.346456 1.057749
-3.031022 1.309735 1.043945
-3.013605 1.393718 1.069069
-2.997948 1.364829 1.078960
-3.037602 1.435608 1.055816
-3.035868 1.411035 1.053110
-3.051561 1.474767 1.051487
-3.057572 1.446275 1.043039
-3.027462 1.478778 1.069770
-3.066188 1.522456 1.045312
-3.053433 1.492250 1.052092
-3.037076 1.528290 1.065892
-3.038306 1.575554 1.061804
-3.040828 1.585814 1.058514
-3.026987 1.609081 1.065980
-3.038044 1.619143 1.055900
-3.027093 1.652324 1.062204
-3.033302 1.625323 1.059026
-3.047197 1.700374 1.047832
-3.022285 1.694629 1.065399
-3.001741 1.689749 1.081205
-3.055215 1.713888 1.042712
-2.961925 0.952002 1.170491
-2.987023 0.909641 1.149003
-2.961738 0.970214 1.160571
-2.984297 0.957474 1.130605
-2.948858 1.022209 1.152734
-2.954240 1.052279 1.136116
-2.953524 1.072582 1.133022
-2.937314 1.057632 1.155241
-2.942289 1.126547 1.135557
-2.945081 1.091268 1.138477
-2.935637 1.164159 1.139647
-2.926553 1.134711 1.151590
-2.928040 1.209775 1.146792
-2.942321 1.226717 1.133749
-2.939747 1.256434 1.136353
-2.926220 1.284282 1.145011
-2.926277 1.303708 1.142325
-2.932832 1.349776 1.133304
-2.902699 1.326426 1.157217
-2.909418 1.391948 1.151675
-2.903066 1.417955 1.161491
-2.950592 1.441283 1.129906
-2.930004 1.451459 1.147891
-2.961416 1.527249 1.128312
-2.944331 1.507929 1.141243
-2.911392 1.537900 1.168328
-2.923866 1.543172 1.157673
-2.932272 1.602050 1.144597
-2.936259 1.587486 1.142938
-2.922544 1.638016 1.148882
-2.913464 1.676065 1.148938
-2.917988 1.717400 1.137806
-2.912611 1.736912 1.136449
-3.238889 -0.907392 1.283580
-3.247336 -0.942746 1.290218
-3.222834 -0.867970 1.290720
-3.241432 -0.896871 1.278894
-3.215482 -0.898292 1.302485
-3.256598 -0.828888 1.261603
-3.248209 -0.858796 1.267545
-3.226382 -0.788378 1.294029
-3.253584 -0.796738 1.267704
-3.229493 -0.757035 1.293838
-3.253680 -0.745794 1.271258
-3.221534 -0.690485 1.299112
-3.225626 -0.716673 1.297254
-3.233269 -0.642040 1.279695
-3.221189 -0.685191 1.298843
-3.229645 -0.619551 1.278849
-3.206488 -0.599317 1.294321
-3.239412 -0.594834 1.263843
-3.203073 -0.583449 1.294851
-3.186007 -0.478830 1.300631
-3.209738 -0.459201 1.277833
-3.187185 -0.453235 1.296495
-3.181324 -0.413990 1.292048
-3.163849 -0.346106 1.278723
-3.160661 -0.366951 1.294141
-3.142562 -0.314843 1.289188
-3.148074 -0.306834 1.276405
-3.132076 -0.134233 1.273248
-3.137280 -0.111004 1.263190
-3.122208 -0.132067 1.292510
-3.128410 -0.081915 1.276940
-3.116555 -0.086972 1.296795
-3.117975 -0.096222 1.296415
-3.052021 0.049992 1.328150
-3.070778 0.041199 1.317070
-3.057356 0.077498 1.311290
-3.031725 0.091509 1.325694
-3.022284 0.138910 1.314144
-3.016610 0.194134 1.304938
-2.998760 0.195050 1.321143
-2.989069 0.154334 1.338571
-3.006512 0.223980 1.310656
-2.998130 0.286101 1.309297
-2.976441 0.248604 1.334627
-2.989765 0.311728 1.312204
-2.960618 0.289994 1.340965
-2.980168 0.363331 1.311466
-2.971955 0.346693 1.321895
-2.955520 0.335284 1.338804
-2.968743 0.408980 1.311691
-2.953207 0.410625 1.327627
-2.943202 0.384171 1.342909
-2.961760 0.449844 1.310227
-2.953885 0.462260 1.317437
-2.622352 0.876037 1.627250
-2.653139 0.944927 1.619955
-2.839428 -1.006235 1.814066
-2.821957 -0.989525 1.803177
-2.776267 -0.990081 1.830745
-2.780747 -0.955813 1.809433
-2.773810 -0.949097 1.810633
-2.759732 -0.929596 1.811620
-2.776509 -0.906082 1.791665
-2.739897 -0.869625 1.801353
-2.744790 -0.897262 1.808029
-2.736504 -0.847985 1.794546
-2.722493 -0.935565 1.834067
-2.706476 -0.864416 1.818647
-2.705512 -0.867993 1.820581
-2.708885 -0.819846 1.798377
-2.717519 -0.828531 1.797606
-2.696273 -0.862049 1.822924
-2.663147 -0.824137 1.823921
-2.657459 -0.816808 1.823565
-2.661704 -0.776962 1.801382
-2.626579 -0.785419 1.826059
-2.640088 -0.764538 1.804049
-2.667755 -0.774032 1.797338
-2.615914 -0.744315 1.808677
-2.585375 -0.702086 1.807921
-2.555650 -0.637288 1.796499
-3.597764 -0.491137 0.761802
-3.546703 -0.433865 0.745628
-3.432112 0.040324 0.795554
-3.402722 0.110481 0.806852
-3.400543 0.147858 0.803900
-3.412019 0.134392 0.792374
-3.418236 0.196271 0.774415
-3.385809 0.237628 0.797915
-3.359241 0.261777 0.814290
-3.363429 0.325283 0.774809
-3.331766 0.318484 0.812143
-3.328191 0.353308 0.796371
-3.339295 0.340852 0.791552
-3.306822 0.390353 0.797337
-3.304229 0.407723 0.788930
-3.263904 0.458374 0.806357
-3.224328 1.305230 0.919768
-3.196578 1.280308 0.934453
-3.235788 1.317989 0.916103
-3.206363 1.308310 0.932977
-3.234505 1.385516 0.935746
-3.220647 1.358115 0.936477
-3.252469 1.404532 0.930147
-3.371533 1.528905 0.911498
-3.352831 1.571805 0.930809
-3.411851 1.611994 0.911349
-3.339398 1.565335 0.934011
-3.307776 1.540911 0.938272
-3.298602 1.553647 0.943199
-3.279397 1.536568 0.946196
-3.336448 1.599562 0.940809
-3.313422 1.587366 0.945673
-3.427181 1.651566 0.908166
-3.371262 1.636335 0.932233
-3.345422 1.624531 0.941158
-3.427239 1.684386 0.909602
-3.382723 1.674842 0.929232
-3.335670 1.628645 0.944443
-3.326273 1.687986 0.945769
-3.414889 1.717292 0.913860
-3.367136 1.741776 0.925898
-3.326484 1.713130 0.941601
-3.306589 1.725535 0.942730
-3.282588 1.738878 0.944983
-3.313915 -0.303167 1.085270
-3.284401 -0.303176 1.118764
-3.276084 -0.268310 1.104354
-3.244678 -0.244725 1.117255
-3.236484 -0.231923 1.115117
-3.248305 -0.206021 1.083587
-3.204087 -0.176049 1.122672
-3.209746 -0.194441 1.122267
-3.208667 -0.126663 1.090282
-3.193231 -0.114647 1.125743
-3.205562 -0.072791 1.096574
-3.204304 -0.083232 1.097694
-3.207749 -0.029884 1.100810
-3.200668 -0.046921 1.119614
-3.201683 -0.065316 1.111749
-3.199833 0.022402 1.115971
-3.196639 0.043898 1.112687
-3.192314 0.085112 1.099779
-3.169887 0.141570 1.122148
-3.172078 0.183990 1.098079
-3.152484 0.284607 1.099882
-3.157523 0.310752 1.087023
-3.137446 0.326700 1.122117
-3.147941 0.354048 1.101224
-3.142073 0.388648 1.102825
-3.111367 0.447850 1.101062
-3.449409 -0.940077 1.151049
-3.421070 -0.918959 1.158395
-3.429710 -0.883257 1.149791
-3.397588 -0.905345 1.166145
-3.431214 -0.847479 1.144426
-3.429615 -0.860081 1.147709
-3.427260 -0.791939 1.136271
-3.406608 -0.814964 1.156120
-3.396663 -0.773629 1.157454
-3.412847 -0.734193 1.134041
-3.419156 -0.725385 1.126921
-3.376612 -0.662915 1.157740
-3.384353 -0.633007 1.148408
-3.356958 -0.608150 1.169891
-2.993401 0.526977 1.261105
-2.986048 0.489318 1.274064
-2.978216 0.474564 1.286034
-2.982084 0.545247 1.277965
-2.990486 0.521760 1.265238
-2.993724 0.600565 1.259190
-2.974014 0.629578 1.300705
-2.972601 0.677946 1.302175
-2.988959 0.652081 1.269253
-2.987867 0.730016 1.273636
-2.974831 0.753740 1.294472
-2.955972 0.817848 1.297838
-2.978696 0.778194 1.284938
-2.962630 0.824941 1.282949
-2.942485 0.853481 1.287248
-2.924039 0.871869 1.294215
-2.906536 0.921322 1.270488
-2.893127 0.235816 1.430119
-2.901176 0.280309 1.409622
-2.889034 0.269230 1.429902
-2.901808 0.317795 1.404718
-2.887457 0.371943 1.421502
-2.893777 0.413179 1.406543
-2.879445 0.394196 1.432936
-2.888939 0.464409 1.414182
-2.897296 0.454325 1.400774
-2.616190 0.848946 1.610294
-2.629842 0.869151 1.597823
-2.643685 0.913462 1.611375
-2.652042 0.908325 1.571422
-2.663854 0.982504 1.612052
-2.652055 0.496797 1.698378
-2.664314 0.469288 1.691667
-2.698373 0.523432 1.658604
-2.653653 0.544441 1.686672
-2.663268 0.542669 1.680721
-2.669528 0.564630 1.666762
-2.648945 0.596353 1.660279
-2.604569 0.590604 1.691416
-2.633346 0.573607 1.684226
-2.615659 0.619622 1.665695
-2.565747 0.627963 1.695751
-2.592028 0.626916 1.675844
-3.543859 -0.121795 0.678212
-3.544959 0.012926 0.662173
-3.540509 -0.013747 0.675787
-3.531047 0.033405 0.672024
-3.502448 0.132843 0.669877
-3.487250 0.192717 0.671099
-3.511797 0.167426 0.643822
-3.494910 0.167301 0.666346
-3.509634 0.213523 0.641984
-3.483980 0.221645 0.674055
-3.483183 0.253382 0.675463
-3.507850 0.302714 0.645667
-3.489953 0.374591 0.658564
-3.481773 0.343410 0.667315
-3.516212 0.389122 0.639431
-3.483880 0.434782 0.659168
-3.468240 0.432642 0.669577
-3.606811 -0.520307 0.787845
-3.576754 -0.479858 0.776586
-3.580447 -0.505060 0.813342
-3.547208 -0.468786 0.808568
-3.557528 -0.459817 0.772920
-3.503073 -0.425683 0.799237
-3.491908 -0.415199 0.797324
-3.472860 -0.386442 0.789857
-3.444339 -0.328189 0.811859
-3.460940 -0.251987 0.784094
-3.459365 -0.272229 0.786783
-3.447647 -0.208062 0.805156
-3.463343 -0.240551 0.779653
-3.458247 -0.154780 0.780197
-3.450208 -0.122928 0.798010
-3.445572 -0.124784 0.806174
-3.451370 -0.083269 0.799290
-3.460793 -0.088706 0.785899
-3.444770 -0.029099 0.800946
-3.463665 -0.055692 0.780404
-3.462448 -0.061872 0.782316
-3.457065 0.010707 0.777964
-3.453933 0.033745 0.774476
-3.423570 0.006655 0.814942
-3.258626 0.655863 0.816656
-3.302345 0.704844 0.816886
-3.293661 0.728777 0.835712
-3.322768 0.753670 0.823535
-3.277153 0.759242 0.860009
-3.304639 0.776874 0.845729
-3.308828 0.784000 0.844775
-3.228352 0.510417 0.831240
-3.229594 0.628950 0.831529
-3.216777 0.629828 0.847367
-3.236457 1.538218 0.960050
-3.218961 1.570870 0.968853
-3.196626 1.555045 0.976315
-3.189412 1.552367 0.979051
-3.225880 1.582518 0.968316
-3.198990 1.579396 0.976748
-3.193633 1.600870 0.980888
-3.224163 1.623344 0.972613
-3.231786 1.642917 0.971068
-3.197575 1.617918 0.980760
-3.179305 1.635774 0.987208
-3.219351 1.681394 0.971347
-3.207557 1.662490 0.977605
-3.177325 1.696550 0.981521
-3.191036 1.706487 0.975637
-3.160990 1.736185 0.981346
-2.959534 0.740824 1.319678
-2.959509 0.781875 1.310702
-2.940615 0.783285 1.333393
-2.930764 0.845924 1.307476
-2.892116 0.899557 1.306883
-2.862728 0.933087 1.309527
-2.820355 0.951415 1.340745
-2.836406 0.944112 1.329050
-2.824907 0.969730 1.321101
-2.816562 0.987121 1.316662
-2.797246 1.036581 1.310290
-2.802702 1.024535 1.309982
-2.812851 1.001971 1.310158
-2.767479 1.037533 1.347257
-2.785433 1.085672 1.309358
-2.775774 1.124108 1.308452
-2.768077 1.100798 1.325284
-2.735774 1.153657 1.344046
-2.734275 1.202623 1.326493
-2.738681 1.212034 1.317431
-2.725647 1.243976 1.321117
-2.682158 1.205238 1.389896
-2.691378 1.207531 1.377187
-2.687590 1.219679 1.377559
-2.677420 1.268136 1.375743
-2.685559 1.312238 1.352597
-2.679437 1.343872 1.356134
-3.487476 1.299537 0.731907
-3.460903 1.285497 0.752553
-3.492990 1.327449 0.743399
-3.511184 1.337676 0.729838
-3.412661 1.196630 0.756619
-3.422966 1.183065 0.737908
-3.422022 1.223766 0.760707
-3.530643 1.393781 0.741097
-3.557721 1.429491 0.728660
-3.529096 1.395874 0.743814
-3.489267 1.355569 0.763144
-3.526848 1.478296 0.771027
-3.553250 1.515262 0.750743
-3.560917 1.496539 0.741803
-3.536094 1.537433 0.770370
-3.559270 1.540485 0.747744
-3.567426 1.650919 0.763253
-3.583116 1.680412 0.758556
-3.595068 1.661551 0.743482
-3.587176 1.734876 0.763626
-2.884150 1.300341 1.174328
-2.853762 1.286165 1.200306
-2.853287 1.269352 1.203064
-2.867390 1.326451 1.183193
-2.829503 1.347460 1.210092
-2.836065 1.313403 1.210868
-2.868708 1.395186 1.178089
-2.864539 1.366852 1.180363
-2.831073 1.363608 1.207685
-2.854809 1.389004 1.187542
-2.860128 1.437254 1.193923
-2.833716 1.399132 1.202806
-2.853848 1.459692 1.201948
-2.878955 1.516685 1.192196
-2.842977 1.486110 1.212383
-2.872085 1.566576 1.194690
-2.894449 1.580664 1.176721
-2.872193 1.572593 1.193983
-2.844834 1.587598 1.211934
-2.864924 1.639574 1.189429
-2.840000 1.642084 1.207715
-2.874311 1.675230 1.174069
-2.857950 1.702147 1.174835
-2.816471 1.707458 1.202935
-2.823641 1.729816 1.189256
-2.805966 1.738581 1.206812
-3.003199 0.045284 1.377452
-3.026507 0.035359 1.360161
-2.979714 0.064136 1.389561
-2.989757 0.077811 1.370850
-2.966769 0.094023 1.388064
-2.949777 0.148652 1.380847
-2.987541 0.130679 1.347970
-2.956670 0.160294 1.369753
-2.932254 0.191184 1.391109
-2.959626 0.223868 1.353916
-2.956329 0.227071 1.356784
-2.923358 0.310386 1.377267
-2.928004 0.290896 1.374021
-2.942320 0.342480 1.350848
-2.930565 0.349035 1.364375
-2.915393 0.418124 1.373691
-2.918335 0.401167 1.371758
-2.916494 0.385081 1.376111
-2.932402 0.444548 1.348132
-3.289115 0.021604 0.953489
-3.296955 -0.007083 0.952026
-3.269561 -0.008281 0.982887
-3.268080 0.044345 0.967742
-3.257936 0.039009 0.982419
-3.257284 0.101746 0.965041
-3.239261 0.089792 0.993076
-3.260444 0.137833 0.952478
-3.244602 0.130334 0.976326
-3.239781 0.165896 0.973424
-3.232364 0.240565 0.966043
-3.222192 0.216806 0.985135
-3.228124 0.264319 0.967556
-3.228114 0.315984 0.951378
-3.193257 0.414512 0.978936
-3.197243 0.384169 0.986895
-3.182632 0.432439 0.986533
-3.189443 0.424592 0.980154
-3.249829 -0.110650 1.013993
-3.245053 -0.137097 1.034577
-3.256418 -0.102288 1.004568
-3.248804 -0.105072 1.014953
-3.247587 -0.054870 1.014230
-3.228100 0.017676 1.036842
-3.256252 -0.011653 0.999120
-3.229604 0.063477 1.019252
-3.219494 0.064694 1.037332
-3.217303 0.104170 1.029503
-3.233650 0.094552 1.002030
-3.226595 0.126117 1.004936
-3.208508 0.142866 1.032991
-3.205613 0.184865 1.023427
-3.200927 0.251459 1.016829
-3.204357 0.321250 0.994492
-3.185699 0.301187 1.035303
-3.186490 0.390719 1.007044
-3.154860 0.460661 1.009958
-3.159511 0.438734 1.024269
-3.129638 0.186364 1.177346
-3.121040 0.182683 1.191797
-3.114848 0.218931 1.186895
-3.102027 0.201700 1.211223
-3.106699 0.281502 1.181529
-3.095830 0.244107 1.208412
-3.092887 0.323325 1.196490
-3.098672 0.293928 1.191145
-3.097751 0.347983 1.186011
-3.088988 0.375605 1.191727
-3.078173 0.399031 1.194110
-3.036509 0.464285 1.212362
-3.073641 0.436073 1.177619
-2.957413 0.488600 1.311357
-2.953641 0.507430 1.316302
-2.941663 0.500409 1.333339
-2.955547 0.514189 1.314463
-2.935273 0.512337 1.344206
-2.959979 0.570922 1.317446
-2.951575 0.688317 1.338389
-2.952757 0.728815 1.331652
-2.844771 0.476032 1.486538
-2.833845 0.471914 1.503087
-2.825410 0.535984 1.513987
-2.838285 0.516629 1.498923
-2.838687 0.562678 1.491790
-2.829011 0.604379 1.488024
-2.793375 0.636161 1.502952
-2.790611 0.632849 1.506620
-2.885123 -0.575197 1.582532
-2.871062 -0.581689 1.593498
-2.855188 -0.560713 1.597342
-2.855092 -0.568593 1.599687
-2.878966 -0.552610 1.580626
-2.831012 -0.511810 1.598961
-2.847560 -0.526081 1.593505
-2.825484 -0.544414 1.608698
-2.832218 -0.501334 1.597302
-2.813994 -0.466353 1.602816
-2.840261 -0.445043 1.590945
-2.825822 -0.436888 1.597453
-2.800088 -0.471446 1.609493
-2.787486 -0.422726 1.612720
-2.794429 -0.461275 1.611278
-2.866268 -0.389330 1.579296
-2.836445 -0.402571 1.592715
-2.815205 -0.391399 1.601381
-2.833901 -0.340629 1.594634
-2.785743 -0.407245 1.612738
-2.808658 -0.387481 1.603796
-2.807662 -0.338787 1.605771
-2.874654 -0.318532 1.574974
-2.868283 -0.287820 1.577691
-2.852879 -0.291258 1.586383
-2.839757 -0.322412 1.593012
-2.873636 -0.262921 1.572214
-2.866781 -0.263040 1.576094
-2.818342 -0.286849 1.606072
-2.796530 -0.312365 1.613227
-2.809344 -0.277623 1.610940
-2.872614 -0.165230 1.569889
-2.843229 -0.176013 1.589031
-2.841067 -0.198270 1.589660
-2.808681 -0.177746 1.611759
-2.809021 -0.182348 1.611343
-2.800598 -0.736141 1.695301
-2.810871 -0.760096 1.695108
-2.781027 -0.695006 1.691934
-2.787545 -0.704231 1.690992
-2.786761 -0.721109 1.699714
-2.822156 -0.685578 1.658596
-2.788100 -0.668537 1.673835
-2.759046 -0.681038 1.697909
-2.728644 -0.634649 1.684489
-2.752022 -0.631706 1.672136
-2.735316 -0.611242 1.668920
-2.717646 -0.603012 1.671493
-2.669722 -0.554432 1.667628
-2.654619 -0.589792 1.690179
-2.638273 -0.531023 1.672403
-2.624201 -0.587979 1.701843
-2.626365 -0.546312 1.682377
-2.626904 -0.511241 1.670001
-2.582065 -0.516815 1.689397
-2.640764 -0.505289 1.663771
-2.610232 -0.490336 1.669993
-2.565958 -0.484031 1.685802
-2.562988 -0.478515 1.685542
-2.614725 -0.456437 1.663189
-2.620728 -0.423305 1.660523
-2.578031 -0.459642 1.675649
-2.576818 -0.432276 1.675076
-2.637832 -0.346919 1.666915
-2.632320 -0.384710 1.661865
-2.601799 -0.390664 1.669819
-2.615037 -0.418159 1.662229
-2.572204 -0.397486 1.678683
-2.558206 -0.376450 1.686555
-2.628265 -0.343421 1.670466
-2.569749 -0.373005 1.683198
-2.555312 -0.347167 1.692847
-2.679430 -0.308119 1.660503
-2.662740 -0.311933 1.665022
-2.702730 -0.263628 1.662679
-2.667252 -0.256421 1.676302
-2.658929 -0.269586 1.675971
-2.608923 -0.297289 1.685140
-2.582443 -0.298141 1.693220
-2.573060 -0.276446 1.701235
-2.541860 -0.425530 1.688227
-2.537148 -0.397098 1.691963
-3.621262 -0.522685 0.767789
-3.509414 1.468644 0.785841
-3.489494 1.448892 0.799046
-3.508387 1.452488 0.782610
-3.504749 1.510017 0.798534
-3.492620 1.487034 0.806240
-3.534597 1.560919 0.775091
-3.538921 1.586717 0.775036
-3.527746 1.587060 0.789158
-3.518857 1.571971 0.796259
-3.518806 1.529415 0.788549
-3.534682 1.654858 0.799592
-3.553648 1.677407 0.785215
-3.547812 1.741073 0.801480
-3.546412 1.720513 0.799808
-3.018048 0.483770 1.233037
-3.012143 0.474250 1.242120
-3.020633 0.520761 1.215027
-2.996328 0.530997 1.256135
-2.997650 0.597432 1.249147
-3.000353 0.559660 1.246375
-3.004447 0.633762 1.227528
-3.010373 0.598291 1.215326
-2.994680 0.684104 1.255393
-3.014422 0.725869 1.220043
-3.006053 0.697501 1.229818
-3.008233 0.763714 1.231167
-3.007832 0.732464 1.234980
-2.999600 0.790959 1.240790
-2.998246 0.810744 1.228801
-2.962308 0.856680 1.257148
-2.956352 0.877548 1.244677
-2.929693 0.922691 1.241692
-2.914406 0.957794 1.230586
-2.782289 1.637570 1.294069
-2.789319 1.665060 1.298016
-2.866070 0.509935 1.453923
-2.872045 0.557190 1.446324
-2.858921 0.611083 1.455923
-2.854077 0.624072 1.457359
-2.836982 0.649368 1.461885
-2.848192 0.662780 1.447569
-2.836104 0.680836 1.450220
-2.851890 0.687731 1.436285
-2.805809 0.723857 1.460518
-2.793911 0.734650 1.466552
-2.804896 0.810104 1.443690
-2.749411 0.846859 1.474573
-2.750001 0.835489 1.477347
-2.754022 0.901166 1.445899
-2.743404 0.876394 1.468648
-2.755797 0.910767 1.439504
-3.109442 -1.003699 1.519820
-3.109545 -0.988623 1.489745
-2.840797 -0.119013 1.592355
-2.826475 -0.149908 1.601006
-2.866483 -0.109948 1.574574
-2.839799 -0.083245 1.592766
-2.812245 -0.127225 1.611640
-2.861330 -0.030106 1.569330
-2.851894 -0.056185 1.581806
-2.824996 -0.032953 1.599537
-2.830424 0.024224 1.581149
-2.819220 0.045928 1.585070
-2.821645 0.073405 1.575060
-2.784586 0.059283 1.612011
-2.778821 0.081781 1.611116
-2.791961 0.081732 1.599866
-2.776993 0.139349 1.601820
-2.799000 0.112840 1.586506
-2.786903 0.161094 1.589491
-2.771572 0.180011 1.598615
-2.769290 0.176670 1.601319
-2.743816 0.217681 1.612147
-2.789169 0.244405 1.570338
-2.747952 0.282328 1.607841
-2.748842 0.252484 1.604408
-2.750297 0.324175 1.608585
-2.760237 0.361546 1.600574
-2.755585 0.415424 1.611502
-2.779281 0.453506 1.579608
-2.763536 0.436059 1.602203
-2.797679 -0.140180 1.621790
-2.754153 -0.123472 1.654768
-2.771233 -0.094996 1.643404
-2.807612 -0.050388 1.614095
-2.755281 -0.022284 1.653167
-2.802377 -0.015600 1.614354
-2.786982 0.013526 1.621937
-2.746143 0.012608 1.653010
-2.731678 0.039628 1.653846
-2.777496 0.069196 1.614953
-2.760019 0.096827 1.621268
-2.705719 0.089912 1.655553
-2.724840 0.095525 1.643865
-2.751830 0.112261 1.623894
-2.737381 0.154745 1.629834
-2.730272 0.219447 1.621487
-2.725719 0.259786 1.625261
-2.719727 0.146285 1.642282
-2.723478 0.168533 1.636303
-2.724463 0.222690 1.625891
-2.695693 0.230825 1.649210
-2.722094 0.249479 1.626816
-2.748513 0.365501 1.614331
-2.737956 0.342994 1.623544
-2.740795 0.391817 1.625083
-2.725082 0.289604 1.630034
-2.709661 0.429832 1.657612
-2.723438 0.425840 1.645982
-2.581792 -0.227192 1.715014
-2.563269 -0.215639 1.727537
-2.603842 -0.171464 1.731604
-2.588729 -0.195238 1.725388
-2.680810 -0.120257 1.703258
-2.664044 -0.132533 1.710372
-2.688637 -0.090982 1.702107
-2.676481 -0.082714 1.711212
-2.658288 -0.066294 1.724735
-2.618538 -0.115278 1.746202
-2.636114 -0.081179 1.738267
-2.681417 -0.060463 1.708712
-2.677233 -0.053096 1.710463
-2.666020 0.013935 1.704471
-2.626177 -0.036819 1.741550
-2.645968 0.022810 1.716094
-2.632633 0.037354 1.720530
-2.608347 0.026552 1.742808
-2.602148 0.103145 1.725875
-2.586047 0.120814 1.738012
-2.592938 0.164132 1.731596
-2.620155 0.236415 1.712997
-2.586020 0.225549 1.742053
-2.599042 0.278831 1.737350
-2.599804 0.244868 1.731512
-2.564362 0.485126 1.753292
-2.554015 0.494778 1.757715
-2.564390 0.513943 1.746478
-3.526320 1.348224 0.719143
-3.489440 1.284386 0.720005
-3.497746 1.280312 0.707444
-3.486420 1.262859 0.710537
-3.498734 1.310675 0.725909
-3.571768 1.381450 0.689598
-3.556087 1.364684 0.694546
-3.546530 1.384827 0.718125
-3.604878 1.435029 0.690194
-3.576900 1.461964 0.722342
-3.597701 1.446640 0.700534
-3.590269 1.525016 0.720020
-3.590395 1.491420 0.717161
-3.590049 1.531220 0.720722
-3.393961 0.837395 0.785055
-3.371235 0.858266 0.808119
-3.375119 0.827608 0.803789
-3.396871 0.872209 0.777801
-3.372732 0.907961 0.794454
-3.360425 0.896954 0.812243
-3.364559 0.951495 0.785701
-3.378129 0.931148 0.778097
-3.368671 0.915207 0.796252
-3.352985 0.957905 0.797032
-3.346209 0.970781 0.800031
-3.343538 0.976086 0.801607
-3.354765 1.017119 0.774072
-3.325923 1.038329 0.815112
-3.329576 1.070517 0.812400
-3.362915 1.089154 0.775809
-3.361698 1.153874 0.791973
-3.442603 1.285027 0.772576
-3.438503 1.344627 0.801008
-3.441022 1.333150 0.794005
-3.367673 1.211583 0.806118
-3.386425 1.202215 0.786704
-3.404017 1.247918 0.790625
-3.367496 1.220547 0.808881
-3.396981 1.288463 0.812275
-3.423768 1.293239 0.792315
-3.414002 1.324750 0.812034
-3.454431 1.368220 0.798726
-3.470260 1.422789 0.806918
-3.242499 0.645370 0.825273
-3.318630 0.856617 0.851219
-3.320299 0.833986 0.848040
-3.314781 0.897586 0.852998
-3.340927 0.921436 0.824695
-3.328535 0.958042 0.825552
-3.319733 0.996532 0.825415
-3.313065 1.019168 0.832728
-3.299774 1.070985 0.848315
-3.324710 1.102181 0.822568
-3.304615 1.115956 0.847122
-3.295570 1.093797 0.853830
-3.310416 1.139681 0.843239
-3.298380 1.144530 0.856042
-3.304919 1.188377 0.850472
-3.337338 1.232900 0.832362
-3.307328 1.254082 0.854877
-3.366325 1.302497 0.836024
-3.397493 1.326924 0.824109
-3.392544 1.322565 0.826045
-3.353826 1.350719 0.858538
-3.361854 1.312959 0.841915
-3.442789 1.439283 0.831114
-3.439862 1.396329 0.819637
-3.599514 -0.824645 0.946203
-3.602063 -0.796711 0.929226
-3.596968 -0.817326 0.945567
-3.590988 -0.735219 0.915074
-3.589254 -0.760227 0.928617
-3.579204 -0.720197 0.926230
-3.571081 -0.700972 0.931397
-3.573230 -0.681271 0.922142
-3.560630 -0.660508 0.936018
-3.562354 -0.678379 0.937573
-3.564975 -0.604948 0.914552
-3.545169 -0.561114 0.929666
-3.552305 -0.588444 0.929556
-3.530092 -0.519145 0.926688
-3.529873 -0.511180 0.918328
-3.502635 -0.478175 0.929213
-3.509648 -0.480595 0.913541
-3.487493 -0.455431 0.924310
-3.448072 -0.404169 0.918135
-3.448906 -0.411613 0.936287
-3.431351 -0.379436 0.923214
-3.429612 -0.366817 0.911552
-3.412230 -0.303041 0.922820
-3.393357 -0.254383 0.937066
-3.391710 -0.229918 0.925884
-3.376628 -0.208979 0.935806
-3.384838 -0.230225 0.937848
-3.382437 -0.189235 0.917451
-3.375837 -0.152539 0.911431
-3.351792 -0.139259 0.933727
-3.341095 -0.128213 0.939593
-3.330167 -0.081125 0.934803
-3.126459 0.488686 1.032721
-3.118225 0.505399 1.034439
-3.124409 0.519700 1.015876
-3.104946 0.573489 1.022956
-3.105990 0.640017 0.996207
-3.340483 -0.596616 1.182606
-3.327365 -0.569756 1.187128
-3.334171 -0.560183 1.177932
-3.293699 -0.559683 1.213791
-3.332761 -0.539104 1.172356
-3.303635 -0.530319 1.198187
-3.301054 -0.527566 1.200406
-3.285648 -0.517526 1.213868
-3.317831 -0.493386 1.171428
-3.276079 -0.440208 1.200768
-3.261734 -0.416217 1.209033
-3.265189 -0.380200 1.184989
-3.257050 -0.364007 1.185691
-3.248210 -0.395960 1.214551
-3.232499 -0.336312 1.194917
-3.230306 -0.324906 1.189905
-3.195014 -0.297931 1.210530
-3.212716 -0.276801 1.175380
-3.162970 -0.210694 1.203203
-3.163818 -0.167947 1.194366
-3.165329 -0.194028 1.193387
-3.178404 -0.089330 1.173061
-3.156946 -0.150643 1.210275
-3.170556 -0.044831 1.201895
-3.170840 -0.011851 1.197395
-3.171374 0.022603 1.187408
-3.164092 0.056838 1.181747
-3.137681 0.108853 1.193804
-3.150211 0.083518 1.190782
-2.890446 0.965010 1.253253
-2.870244 1.038678 1.234863
-2.866688 1.015025 1.247793
-2.878375 1.056139 1.222123
-2.848085 1.071523 1.248969
-2.851126 1.059031 1.249075
-2.831174 1.108832 1.256253
-2.815327 1.161492 1.256650
-2.837648 1.146542 1.240739
-2.812085 1.173511 1.255822
-2.842182 1.202615 1.222464
-2.817131 1.175642 1.250826
-2.819191 1.222724 1.236219
-2.827922 1.260673 1.223612
-2.803157 1.190882 1.258204
-2.831711 1.266781 1.220015
-2.812078 1.297709 1.231731
-2.770538 1.333100 1.255252
-2.801125 1.350335 1.231089
-2.791902 1.393128 1.232650
-2.806934 1.356763 1.226400
-2.810597 1.398205 1.219392
-2.815362 1.456718 1.221511
-2.822001 1.488744 1.223336
-2.796993 1.461525 1.235031
-2.781696 1.506489 1.252704
-2.833958 1.545356 1.222756
-2.796151 1.568889 1.253852
-2.813730 1.573857 1.237638
-2.794316 1.572638 1.256503
-2.828064 1.635623 1.217883
-3.282400 -1.005504 1.332424
-3.298925 -1.006559 1.311741
-3.229890 -0.969213 1.327831
-3.207490 -0.963472 1.341015
-2.922338 0.496250 1.363146
-2.927520 0.490418 1.354828
-2.923925 0.546146 1.366530
-2.930554 0.592857 1.364184
-2.922032 0.558351 1.371136
-2.918138 0.611151 1.383735
-2.944399 0.615117 1.348316
-2.924644 0.667773 1.374784
-2.936082 0.651447 1.362050
-2.910438 0.704121 1.383782
-2.915388 0.692774 1.380910
-2.804560 0.650066 1.487621
-2.784598 0.683109 1.487473
-2.764842 0.658913 1.513617
-2.755194 0.702606 1.504105
-2.753159 0.694826 1.507907
-2.745485 0.761842 1.496874
-2.740155 0.736275 1.507223
-2.746629 0.786478 1.490997
-2.703362 0.805547 1.516496
-2.723523 0.781462 1.508262
-2.720862 0.825716 1.500194
-2.711643 0.903331 1.488493
-2.692928 0.880741 1.509484
-2.700081 0.919027 1.494541
-2.683306 0.963811 1.501167
-2.670140 1.023410 1.508282
-2.670272 1.044505 1.493457
-3.068675 -0.982849 1.541470
-2.954789 -0.997139 1.684232
-2.946628 -0.985399 1.682621
-2.903657 -0.925448 1.692402
-2.931512 -0.934144 1.663962
-2.892508 -0.873357 1.674711
-2.889544 -0.903887 1.693979
-2.877924 -0.831116 1.666609
-2.866728 -0.835075 1.678467
-2.875619 -0.861728 1.683983
-2.855828 -0.853050 1.697430
-2.852014 -0.790573 1.671700
-2.828499 -0.804386 1.696515
-2.811467 -0.776962 1.700340
-2.817306 -0.762442 1.690311
-2.827294 -0.722036 1.668362
-2.582712 0.490271 1.741006
-2.620511 0.530700 1.710363
-2.571351 0.536915 1.735414
-2.592447 0.515883 1.728942
-2.593252 0.557205 1.714727
-2.562201 0.555210 1.736127
-3.138160 1.546480 1.002595
-3.137503 1.548225 1.002923
-3.085504 1.554360 1.031094
-3.103154 1.580658 1.019489
-3.093977 1.604933 1.022666
-3.159256 1.620156 0.994324
-3.132349 1.656803 1.003889
-3.118189 1.667784 1.009536
-3.133333 1.734511 0.994884
-3.087776 1.713283 1.022784
-3.081548 0.481693 1.122040
-3.079640 0.525123 1.092520
-3.061135 0.578795 1.103913
-3.069562 0.563975 1.092664
-3.063925 0.603023 1.091000
-3.057755 0.677204 1.092247
-3.052282 0.722379 1.097228
-3.051789 0.691307 1.104714
-3.045294 0.770838 1.098714
