-0.680060 -0.017666 -2.271462
-0.688173 0.212030 -2.267673
-0.682924 0.235667 -2.274302
-0.662045 -0.139825 -2.287085
-0.635191 -0.127941 -2.318571
-0.674668 -0.076720 -2.274889
-0.645430 -0.036057 -2.311940
-0.674524 -0.015806 -2.279149
-0.641398 0.028983 -2.321397
-0.662144 0.043112 -2.297505
-0.640446 0.080245 -2.324391
-0.645344 0.153061 -2.319768
-0.671067 0.205819 -2.289076
-0.646132 0.177956 -2.319266
-0.665209 0.286062 -2.294950
-0.641924 0.262689 -2.324132
-0.665121 0.307991 -2.291958
-0.634127 0.314394 -2.326835
-0.779019 0.509732 -2.156801
-0.749738 0.495208 -2.186639
-0.745090 0.578590 -2.196873
-0.762151 0.578889 -2.177910
-0.774704 0.599757 -2.163517
-0.787292 0.603558 -2.149215
-0.785936 0.660436 -2.151030
-0.787265 0.690596 -2.150172
-0.771570 0.685817 -2.167865
-0.784992 0.727853 -2.153444
-0.748372 0.747498 -2.195328
-0.775510 0.759189 -2.164380
-0.744788 0.796799 -2.199266
-0.770295 0.837083 -2.168296
-0.742256 0.859087 -2.198605
-0.778498 0.847566 -2.158057
-0.746697 0.889221 -2.189564
-0.742633 0.951049 -2.177907
-0.776964 0.947810 -2.146442
-0.720679 0.951068 -2.202059
-0.742570 0.985091 -2.170319
-0.757210 1.008746 -2.152881
-0.753905 1.058944 -2.151436
-0.734773 1.068052 -2.166417
-0.746376 1.113989 -2.158285
-0.764173 1.120948 -2.143873
-0.707974 1.090416 -2.187981
-0.712147 1.120559 -2.186349
-0.740697 1.183798 -2.171479
-0.742740 1.205967 -2.173665
-0.735681 1.153652 -2.169906
-0.711951 1.185256 -2.194062
-0.754864 1.243919 -2.172581
-0.782754 1.258598 -2.146029
-0.720889 1.242320 -2.203643
-0.754151 1.293831 -2.182875
-0.788173 1.280438 -2.143755
-0.771882 1.334170 -2.168175
-0.762517 1.376447 -2.183161
-0.764572 1.402195 -2.182043
-0.778851 1.402028 -2.164900
-0.772227 1.454111 -2.174018
-0.763847 1.473571 -2.183890
-0.774376 1.510700 -2.169982
-0.770417 1.507160 -2.175166
-0.761959 1.527372 -2.185566
-0.753683 1.537031 -2.195937
-0.771473 1.583946 -2.169147
-0.991305 0.371367 -1.965054
-0.969760 0.369661 -1.981602
-0.931071 0.353242 -2.012525
-0.945862 0.377735 -2.001199
-0.967903 0.449621 -1.984157
-0.928448 0.460644 -2.015862
-0.948998 0.460594 -1.999368
-0.956097 0.525708 -1.993647
-0.930729 0.520002 -2.014355
-0.989708 0.569419 -1.966474
-0.943062 0.551677 -2.004224
-0.928905 0.589297 -2.016013
-0.984342 0.619955 -1.971312
-1.001307 0.613897 -1.958248
-0.967448 0.638208 -1.985680
-0.928581 0.599768 -2.016444
-0.964414 0.691716 -1.989341
-0.955608 0.662015 -1.995612
-0.930022 0.717993 -2.016794
-1.289044 0.406880 -1.777610
-1.261228 0.373794 -1.795184
-1.266764 0.439287 -1.785121
-1.245450 0.454214 -1.797697
-1.218029 0.436436 -1.818037
-1.275969 0.476954 -1.774061
-1.215708 0.499469 -1.816647
-1.264785 0.573768 -1.787102
-1.215137 0.535925 -1.816077
-1.203845 0.569616 -1.824197
-1.255082 0.624621 -1.795350
-1.281119 0.649042 -1.781364
-1.222652 0.627764 -1.814722
-1.204251 0.626541 -1.825990
-1.265569 0.660584 -1.791309
-1.271485 0.708853 -1.791610
-1.199878 0.714101 -1.833516
-1.442112 -0.344920 -1.714523
-1.429112 -0.311994 -1.720194
-1.433224 -0.230553 -1.717916
-1.433397 -0.152480 -1.717328
-1.368601 -0.335560 -1.747673
-1.379146 -0.382393 -1.742625
-1.332842 -0.384446 -1.763885
-1.332055 -0.331678 -1.764572
-1.383818 -0.266631 -1.740716
-1.399576 -0.322222 -1.733501
-1.344479 -0.313884 -1.758866
-1.375044 -0.248037 -1.744775
-1.383871 -0.228832 -1.740603
-1.350208 -0.236525 -1.756223
-1.318164 -0.254999 -1.771007
-1.405585 -0.202601 -1.730421
-1.366490 -0.162993 -1.748434
-1.340961 -0.201422 -1.760296
-1.345170 -0.146237 -1.758259
-1.437562 -0.065016 -1.715927
-1.447524 0.018509 -1.712684
-1.418893 0.048241 -1.725848
-1.381805 -0.088673 -1.741434
-1.365042 -0.116411 -1.749113
-1.351600 -0.119484 -1.755315
-1.399000 -0.079047 -1.733535
-1.363777 -0.061581 -1.749904
-1.349333 -0.059836 -1.756439
-1.313430 -0.044588 -1.772771
-1.390683 0.005640 -1.738122
-1.386463 0.032402 -1.740060
-1.313048 0.014791 -1.772554
-1.389608 0.069467 -1.738596
-1.370489 0.075818 -1.746773
-1.349495 0.045457 -1.756054
-1.339828 0.045191 -1.760372
-1.431203 0.109756 -1.720183
-1.448274 0.119031 -1.712479
-1.416797 0.208981 -1.725041
-1.426434 0.255985 -1.719607
-1.439617 0.311970 -1.712280
-1.394938 0.155499 -1.735604
-1.409905 0.102845 -1.729690
-1.351259 0.160705 -1.754367
-1.389284 0.202348 -1.737343
-1.353531 0.196449 -1.752962
-1.315914 0.188074 -1.770010
-1.398033 0.244050 -1.732418
-1.363430 0.228104 -1.748155
-1.316241 0.275275 -1.768308
-1.384256 0.334456 -1.735619
-1.390830 0.305957 -1.733630
-1.310467 0.329959 -1.769755
-1.553810 -0.385205 -1.667794
-1.552098 -0.348493 -1.668887
-1.549799 -0.359815 -1.669717
-1.594916 -0.332190 -1.651914
-1.568336 -0.315535 -1.662801
-1.544703 -0.277402 -1.672127
-1.530454 -0.354488 -1.677602
-1.477523 -0.347537 -1.699092
-1.456325 -0.333776 -1.708288
-1.494162 -0.316993 -1.692326
-1.500497 -0.281249 -1.689662
-1.463259 -0.303817 -1.705181
-1.577046 -0.236208 -1.659797
-1.540317 -0.259886 -1.673780
-1.582783 -0.176223 -1.657475
-1.586820 -0.143510 -1.655973
-1.526440 -0.249400 -1.679113
-1.482742 -0.228542 -1.696339
-1.467752 -0.225276 -1.702614
-1.510670 -0.171712 -1.684900
-1.482967 -0.187521 -1.695982
-1.562725 -0.138465 -1.664902
-1.544078 -0.105408 -1.672107
-1.589307 -0.030378 -1.656610
-1.558363 -0.058594 -1.667510
-1.495427 -0.136617 -1.690902
-1.478934 -0.120175 -1.697557
-1.471741 -0.105565 -1.700620
-1.527058 -0.045262 -1.679543
-1.498015 -0.060353 -1.690722
-1.467706 -0.044073 -1.703223
-1.603894 0.037592 -1.651899
-1.572044 0.017028 -1.663675
-1.567747 -0.009847 -1.664892
-1.567330 0.048136 -1.665725
-1.543591 0.076588 -1.674448
-1.508355 0.030207 -1.688166
-1.502405 -0.006594 -1.689960
-1.521903 0.085740 -1.682886
-1.504638 0.066136 -1.689828
-1.575513 0.146518 -1.662217
-1.541658 0.139827 -1.674755
-1.602836 0.178372 -1.651548
-1.572685 0.221979 -1.662206
-1.583143 0.178545 -1.659035
-1.508869 0.105350 -1.688037
-1.488404 0.143247 -1.695878
-1.462789 0.105088 -1.706613
-1.512214 0.181921 -1.685919
-1.514666 0.213827 -1.684507
-1.452633 0.166914 -1.710216
-1.600151 0.228557 -1.651772
-1.575974 0.237158 -1.660663
-1.561704 0.258070 -1.665495
-1.567626 0.328164 -1.661495
-1.588641 0.332541 -1.653765
-1.505635 0.241920 -1.687556
-1.505288 0.279449 -1.686709
-1.453308 0.262652 -1.708196
-1.487270 0.289232 -1.693565
-1.500871 0.343703 -1.686110
-1.743279 -0.630150 -1.597195
-1.686709 -0.629504 -1.617909
-1.702989 -0.577658 -1.612102
-1.678882 -0.567395 -1.620709
-1.668477 -0.521054 -1.624311
-1.759497 -0.511849 -1.592013
-1.685503 -0.502373 -1.618343
-1.661492 -0.469752 -1.626471
-1.737375 -0.432911 -1.600178
-1.738147 -0.394474 -1.599935
-1.716381 -0.437687 -1.607510
-1.668089 -0.426955 -1.624073
-1.766983 -0.340982 -1.590714
-1.744368 -0.335674 -1.598593
-1.693569 -0.328389 -1.616221
-1.695330 -0.374895 -1.614970
-1.730940 -0.290223 -1.604028
-1.751822 -0.282060 -1.596993
-1.706944 -0.287984 -1.612382
-1.695123 -0.306654 -1.616132
-1.733598 -0.228232 -1.603995
-1.770602 -0.257862 -1.590910
-1.705871 -0.227114 -1.613612
-1.686143 -0.230135 -1.620415
-1.758034 -0.171467 -1.596078
-1.743835 -0.148705 -1.600876
-1.711990 -0.154151 -1.611659
-1.684696 -0.175792 -1.621088
-1.651931 -0.594221 -1.630414
-1.610390 -0.606160 -1.645807
-1.642319 -0.547307 -1.633856
-1.605512 -0.569092 -1.647394
-1.645774 -0.475756 -1.632274
-1.619483 -0.494342 -1.642098
-1.651834 -0.448722 -1.629879
-1.608696 -0.430008 -1.645781
-1.655249 -0.341374 -1.629362
-1.617422 -0.361709 -1.642931
-1.653858 -0.276128 -1.631193
-1.606275 -0.302279 -1.648089
-1.647961 -0.253687 -1.633588
-1.615582 -0.219060 -1.645427
-1.634462 -0.151064 -1.638616
-1.626731 -0.181249 -1.641495
-1.774584 -0.114717 -1.591001
-1.743836 -0.105006 -1.601340
-1.710417 -0.139467 -1.612181
-1.680495 -0.114832 -1.622585
-1.756952 -0.079840 -1.597230
-1.736472 -0.041167 -1.604894
-1.754387 -0.023223 -1.599016
-1.717257 -0.068241 -1.610642
-1.664159 -0.058572 -1.628943
-1.754899 0.015779 -1.599079
-1.735461 0.004046 -1.605821
-1.705465 0.040797 -1.616389
-1.681320 -0.000965 -1.624196
-1.735247 0.049235 -1.606094
-1.724957 0.051906 -1.609658
-1.693123 0.080656 -1.620400
-1.661033 0.048372 -1.631394
-1.945165 0.113844 -1.530737
-1.919441 0.147783 -1.540522
-1.948788 0.165822 -1.528158
-1.930629 0.213727 -1.533325
-1.921791 0.242976 -1.535260
-1.908359 0.278539 -1.538685
-1.877909 0.156933 -1.555894
-1.852270 0.115742 -1.565312
-1.824517 0.122953 -1.574806
-1.808982 0.127886 -1.580103
-1.896514 0.195043 -1.548417
-1.865456 0.178247 -1.560003
-1.841070 0.196295 -1.568408
-1.783777 0.179846 -1.588266
-1.874699 0.273241 -1.553529
-1.862796 0.247050 -1.559483
-1.830637 0.272694 -1.570346
-1.839186 0.230045 -1.568513
-1.897841 0.315338 -1.540426
-1.854016 0.313399 -1.559818
-1.828609 0.346852 -1.568169
-1.802923 0.293047 -1.579467
-2.208941 0.137849 -1.407621
-2.158255 0.158038 -1.431549
-2.189594 0.202647 -1.410513
-2.155396 0.217371 -1.431909
-2.186489 0.283762 -1.405888
-2.157196 0.259022 -1.428143
-2.148774 -0.761333 -1.441510
-2.140220 -0.739468 -1.445447
-2.118397 -0.705201 -1.455042
-2.135342 -0.680269 -1.448620
-2.127187 -0.651325 -1.452681
-3.137573 -0.584950 -0.763877
-3.153041 -0.526825 -0.740545
-3.151603 -0.511795 -0.741825
-3.144308 -0.412682 -0.733441
-3.137043 -0.341720 -0.729018
-3.121670 -0.544443 -0.780418
-3.122198 -0.452708 -0.775262
-3.123639 -0.430393 -0.771729
-3.135586 -0.380658 -0.743152
-3.108849 -0.347369 -0.782161
-3.112058 -0.321623 -0.769920
-3.097968 -0.278578 -0.787285
-3.100302 -0.234629 -0.756460
-3.094728 -0.234450 -0.775411
-3.090649 -0.171710 -0.743511
-3.081372 -0.154892 -0.788072
-3.082467 -0.121653 -0.759077
-3.079221 -0.102596 -0.776573
-3.076923 -0.067174 -0.776139
-3.081246 -0.057976 -0.737757
-3.077075 0.003207 -0.728633
-3.074165 0.021443 -0.731824
-3.054874 0.096338 -0.730333
-3.054088 0.096927 -0.741064
-3.045272 0.118407 -0.732542
-3.045663 0.114795 -0.783367
-2.978952 0.233575 -0.758566
-2.960524 0.259975 -0.766259
-2.945215 0.266712 -0.737400
-2.943536 0.284050 -0.778993
-2.934188 0.292832 -0.776384
-2.895446 0.326373 -0.759316
-2.538151 0.614785 -0.534665
-2.521348 0.646425 -0.538042
-2.513452 0.655691 -0.531667
-2.499274 0.682822 -0.527165
-2.490527 0.716965 -0.540883
-2.487351 0.706288 -0.523471
-2.471166 0.749040 -0.513336
-2.457928 0.771475 -0.494277
-2.472598 0.781083 -0.530262
-2.471051 0.858355 -0.533720
-2.449680 0.852886 -0.488040
-2.458740 0.862043 -0.507917
-2.466316 0.932102 -0.523600
-2.463698 0.955670 -0.518542
-2.459243 0.912749 -0.509020
-2.446310 0.949171 -0.482645
-2.461572 0.989724 -0.515103
-2.473450 0.993378 -0.539988
-2.451201 1.014399 -0.490411
-2.462229 1.049734 -0.522528
-2.456895 1.032106 -0.506365
-2.447954 1.030220 -0.482897
-2.450641 1.097721 -0.494094
-2.446285 1.143493 -0.493844
-2.441965 1.154103 -0.482289
-2.440466 1.200413 -0.503205
-2.444108 1.232030 -0.534825
-2.435058 1.252650 -0.517570
-2.426665 1.274328 -0.503554
-2.418503 1.315927 -0.511923
-2.415740 1.349046 -0.535030
-2.396993 1.377910 -0.504388
-2.395938 1.396922 -0.522043
-2.376480 1.411752 -0.490711
-2.327998 1.486557 -0.502009
-2.299218 1.526469 -0.538801
-2.274938 1.529592 -0.492716
-2.256055 1.567508 -0.537619
-2.223713 1.581576 -0.492025
-2.218991 1.586390 -0.489400
-2.492801 0.582894 -0.432590
-2.510575 0.549965 -0.436186
-2.505695 0.596036 -0.460610
-2.489679 0.620352 -0.454763
-2.470045 0.661764 -0.455371
-2.463977 0.710618 -0.476589
-2.453634 0.661964 -0.431937
-2.447756 0.676159 -0.431848
-2.452020 0.736881 -0.468071
-2.439398 0.823487 -0.463374
-2.421677 0.808797 -0.422033
-2.425724 0.866021 -0.434453
-2.426379 0.897828 -0.437466
-2.438977 0.917818 -0.464120
-2.429752 0.953942 -0.440809
-2.428823 1.013364 -0.422337
-2.443429 1.006809 -0.469549
-2.435858 1.077909 -0.425071
-2.446585 1.067596 -0.475432
-2.440571 1.112117 -0.456246
-2.435306 1.122837 -0.433649
-2.438327 1.154891 -0.465972
-2.418910 1.208116 -0.423309
-2.417049 1.223156 -0.431914
-2.407556 1.268466 -0.440075
-2.408567 1.288896 -0.459452
-2.396372 1.315662 -0.447994
-2.381726 1.352387 -0.448762
-2.354663 1.394247 -0.438959
-2.339316 1.434873 -0.449537
-2.327491 1.434929 -0.436875
-2.283381 1.490556 -0.449442
-2.232147 1.511229 -0.420269
-2.273737 1.518735 -0.471230
-2.235290 1.548208 -0.460358
-2.202523 1.553581 -0.424314
-2.553941 0.363618 -0.353264
-2.509538 0.394706 -0.308182
-2.491840 0.434026 -0.320494
-2.483928 0.432770 -0.306629
-2.447298 0.350868 0.010148
-2.425117 0.383234 -0.032167
-2.439639 0.366057 -0.016101
-2.458083 0.355629 -0.032946
-2.387456 0.413776 -0.026199
-2.366436 0.443500 -0.045878
-2.335247 0.467634 -0.025583
-2.329795 0.400167 0.491656
-2.316492 0.422672 0.503219
-2.312250 0.442826 0.474055
-2.301778 0.484044 0.446840
-2.290079 0.511480 0.474062
-2.281499 0.549307 0.492976
-2.282074 0.560619 0.446275
-2.261028 0.619372 0.459525
-2.269451 0.606007 0.499748
-2.223920 0.684661 0.488043
-2.217843 0.689684 0.449134
-2.186884 0.742732 0.496389
-2.164275 0.779146 0.449781
-2.164681 0.781279 0.470523
-2.154068 0.813651 0.453157
-2.130786 0.872240 0.486486
-2.119272 0.892984 0.452957
-2.108660 0.914027 0.465270
-2.100568 0.929456 0.473679
-2.069928 0.992312 0.477579
-2.066630 1.002424 0.465780
-2.052661 1.031873 0.500661
-2.040654 1.076471 0.455645
-2.033643 1.093626 0.467118
-2.025288 1.119192 0.470264
-2.011567 1.155232 0.486306
-2.009351 1.171268 0.461014
-2.367183 0.370971 0.947832
-2.339955 0.405498 0.969617
-2.337919 0.411461 0.951392
-2.303585 0.459628 0.956091
-3.029831 -0.781719 1.247988
-3.020518 -0.757845 1.253731
-3.001326 -0.724939 1.295597
-2.992945 -0.706358 1.288645
-2.975310 -0.672867 1.257543
-2.963121 -0.652538 1.247613
-2.961580 -0.652519 1.286373
-2.930517 -0.595803 1.271183
-2.915937 -0.565079 1.253402
-2.898201 -0.526062 1.265354
-2.871609 -0.462297 1.274135
-2.882397 -0.482543 1.257234
-2.849604 -0.426274 1.301840
-2.844612 -0.391319 1.255979
-1.510799 1.561987 1.364124
-1.519966 1.554412 1.329829
-2.185215 0.353055 2.029704
-2.141089 0.390520 2.039625
-2.075330 0.443740 1.993299
-2.067911 0.456207 2.032094
-2.011756 0.508373 1.987730
-2.014093 0.512825 2.028321
-1.987981 0.542188 2.000782
-1.967188 0.573531 1.989916
-1.955551 0.598033 1.998719
-1.935144 0.651236 2.019304
-1.918462 0.685100 1.997779
-1.927712 0.683878 2.034336
-2.177306 0.350896 2.252583
-2.141795 0.378156 2.268472
-2.133790 0.398409 2.246038
-2.095676 0.434215 2.244753
-2.062528 0.470680 2.286841
-2.039811 0.516235 2.240723
-2.050134 0.495218 2.273662
-2.030980 0.533826 2.230904
-2.026606 0.550071 2.275419
-2.016414 0.579383 2.249141
-1.997104 0.648008 2.281355
-1.993396 0.652252 2.227746
-1.977013 0.704959 2.283130
-1.980999 0.693969 2.234537
-1.967078 0.740351 2.233088
-1.939436 0.802569 2.255262
-1.922516 0.837383 2.263726
-1.914542 0.850256 2.270011
-1.895461 0.894159 2.271960
-1.883627 0.917519 2.267504
-1.866128 0.948559 2.270601
-1.852730 0.970822 2.281061
-1.819059 1.021972 2.280427
-1.812470 1.041546 2.239496
-1.803377 1.052291 2.240537
-1.781608 1.070407 2.268512
-1.760556 1.089476 2.270150
-1.688866 1.146034 2.271888
-1.668576 1.180159 2.230460
-1.393756 0.759606 2.749529
-1.381991 0.782445 2.768931
-1.397285 0.836909 2.777303
-1.445079 0.861139 2.735533
-1.442437 0.916949 2.752968
-1.434476 0.949855 2.766423
-1.445325 0.930736 2.751666
-1.434593 0.976605 2.766089
-1.442426 1.004329 2.751675
-1.437128 1.059321 2.734049
-1.417318 1.051204 2.758043
-1.460168 1.039019 2.722587
-1.413003 0.890937 2.780222
-1.393396 1.060700 2.771490
-1.414399 1.109145 2.728216
-1.385292 1.106918 2.749920
-1.388931 1.124811 2.735840
-1.343140 1.123529 2.768823
-1.359090 1.164466 2.729975
-1.324396 1.155244 2.757879
-1.309974 1.205094 2.725139
-1.291338 1.159853 2.773795
-1.278053 1.190882 2.751432
-1.242797 1.197871 2.758847
-1.217066 1.192169 2.773466
-1.256900 1.224830 2.725738
-1.181771 1.226997 2.748952
-1.172725 1.253944 2.723925
-1.228013 1.235139 2.725494
-1.125686 1.244711 2.746408
-1.146751 1.266351 2.719203
-1.118150 1.248205 2.745137
-1.112348 1.241640 2.753058
-1.092671 1.263820 2.737214
-1.105781 1.245964 2.750242
-1.063857 1.247594 2.760343
-1.045235 1.295490 2.726412
-1.022822 1.251102 2.769302
-1.009619 1.244758 2.779149
-1.020720 1.288228 2.742758
-1.037748 1.285689 2.737495
-0.966001 1.280191 2.770859
-0.950284 1.323231 2.753403
-0.923322 1.320854 2.767619
-0.919569 1.301726 2.779592
-1.107506 -0.791845 2.938245
-1.152933 -0.800288 2.924702
-1.093241 -0.776037 2.938463
-1.113042 -0.709976 2.914751
-1.124286 -0.727734 2.915093
-1.056321 -0.707125 2.938953
-1.074627 -0.728751 2.934656
-1.067168 -0.643909 2.919906
-1.096887 -0.687399 2.916120
-1.103418 -0.648942 2.904088
-1.034551 -0.669994 2.942181
-1.039319 -0.637252 2.931895
-1.062866 -0.611785 2.912529
-0.983836 -0.633810 2.962350
-1.028451 -0.578188 2.919441
-0.987726 -0.549893 2.932378
-1.007720 -0.546538 2.921162
-1.025759 -0.559326 2.915380
-0.975221 -0.567983 2.944555
-0.957010 -0.527357 2.945035
-0.986134 -0.503679 2.920213
-0.940874 -0.471064 2.940662
-0.943204 -0.491109 2.944467
-0.928044 -0.423988 2.935218
-0.967415 -0.443304 2.914843
-0.940982 -0.439432 2.931271
-0.892614 -0.408554 2.960750
-0.927854 -0.339643 2.914904
-0.933442 -0.314658 2.911004
-0.620343 1.245457 3.003702
-0.662983 1.246625 2.975612
-0.607247 1.233478 3.019181
-0.564819 1.305996 3.006477
-0.586704 1.315497 2.989392
-0.570357 1.358792 2.988264
-0.599599 1.343966 2.972506
-0.552855 1.419830 2.991430
-0.598972 1.411967 2.965669
-0.511391 1.356316 3.023658
-0.513648 1.380093 3.017067
-0.529709 1.431082 3.004067
-0.496193 1.415328 3.023368
-0.565268 1.494111 2.983992
-0.596037 1.460177 2.967079
-0.491033 1.515043 3.025470
-0.513214 1.516753 3.013260
-0.539180 1.528716 2.997595
-0.546478 1.531976 2.993635
-0.483266 1.549370 3.026664
-0.572052 1.597263 2.975024
-0.527597 1.596251 2.998022
-0.588190 1.114146 3.099735
-0.601718 1.092452 3.103042
-0.544532 1.127020 3.116801
-0.530840 1.147176 3.114309
-0.487007 1.131676 3.145824
-0.492800 1.182366 3.117194
-0.529786 1.182354 3.097318
-0.485079 1.153189 3.136391
-0.460735 1.181736 3.137273
-0.449876 1.223673 3.121939
-0.439333 1.301177 3.091552
-0.385574 1.239959 3.147215
-0.371128 1.290135 3.133204
-0.394997 1.326014 3.108256
-0.342318 1.293865 3.148413
-0.371888 1.339996 3.118563
-0.327701 1.353833 3.145420
-0.372941 1.405160 3.110620
-0.329011 1.405136 3.142330
-0.336529 1.436148 3.138126
-0.397808 1.504226 3.096240
-0.396848 1.473947 3.094848
-0.356133 1.473471 3.126897
-0.361714 1.498563 3.125451
-0.373533 1.577824 3.122869
-0.395467 1.558057 3.099996
-0.397866 1.583922 3.099354
-0.683482 0.390691 -2.267445
-0.677957 0.381302 -2.274608
-0.680203 0.484793 -2.274345
-0.681892 0.510074 -2.275102
-0.692814 0.674670 -2.266545
-0.691930 0.822765 -2.270028
-0.645541 0.407620 -2.310433
-0.637649 0.381323 -2.318781
-0.672364 0.452632 -2.282553
-0.642051 0.440645 -2.318511
-0.650329 0.483037 -2.316019
-0.665428 0.529188 -2.299965
-0.801121 -0.760916 -2.097409
-0.793821 -0.767382 -2.103392
-0.758829 -0.781517 -2.133826
-0.804697 -0.722216 -2.095373
-0.801630 -0.669483 -2.099277
-0.766352 -0.742461 -2.128397
-0.764590 -0.736642 -2.130096
-0.780467 -0.690508 -2.117133
-0.789986 -0.643348 -2.110344
-0.813906 -0.576234 -2.092726
-0.801165 -0.565071 -2.104568
-0.815059 -0.538760 -2.093417
-0.787718 -0.621674 -2.113604
-0.776266 -0.575759 -2.126979
-0.785643 -0.562356 -2.119015
-0.890570 0.988888 -2.046893
-0.865024 0.972874 -2.067996
-0.881303 1.043055 -2.053158
-0.864745 1.067211 -2.065451
-0.858738 1.034034 -2.071064
-0.921702 1.139715 -2.019938
-0.891277 1.141396 -2.044232
-0.874513 1.112307 -2.057500
-0.861912 1.112483 -2.067303
-0.848045 1.097351 -2.077857
-0.851788 1.141544 -2.075625
-0.884770 1.156116 -2.049164
-0.868471 1.180964 -2.063414
-0.914997 1.206084 -2.023768
-0.856161 1.207407 -2.074719
-0.885633 1.219241 -2.048813
-0.876584 1.261948 -2.057435
-0.854344 1.219763 -2.076867
-0.885626 1.279200 -2.048820
-0.915412 1.284668 -2.020299
-0.862922 1.304373 -2.071164
-0.896991 1.354640 -2.034517
-0.901672 1.392430 -2.026474
-0.882678 1.395292 -2.048147
-0.866256 1.452542 -2.062548
-0.859456 1.401084 -2.074361
-0.891037 1.462227 -2.029696
-0.867694 1.516136 -2.054819
-0.850736 1.469768 -2.079942
-0.879755 1.523493 -2.037261
-0.878272 1.575559 -2.031427
-2.751947 0.402590 -1.100371
-2.711226 0.397971 -1.130449
-2.676662 0.399288 -1.152162
-2.678668 0.351132 -1.153339
-2.730658 0.421486 -1.113044
-2.671921 0.461120 -1.145422
-2.674933 0.532354 -1.108651
-2.646003 0.520776 -1.136437
-2.657115 0.474835 -1.151815
-2.644009 0.483492 -1.156637
-2.602332 0.579587 -1.121543
-2.600681 0.560483 -1.137464
-2.584785 0.584169 -1.129593
-2.550538 0.574158 -1.156845
-2.590393 0.595643 -1.115949
-2.571282 0.628037 -1.097744
-2.530663 0.599412 -1.149056
-2.543840 0.625733 -1.120291
-2.490742 0.620770 -1.158047
-2.519167 0.667091 -1.099942
-2.511029 0.662170 -1.111614
-2.452998 0.705371 -1.125155
-2.437412 0.682973 -1.152929
-2.427709 0.760008 -1.113079
-2.402326 0.731465 -1.150247
-2.419617 0.778959 -1.109437
-2.425137 0.791492 -1.097145
-2.386160 0.763619 -1.144865
-2.387847 0.803387 -1.121260
-2.381931 0.785293 -1.136100
-3.171590 -0.742559 -0.732824
-3.149129 -0.714356 -0.756168
-3.165033 -0.696566 -0.738631
-3.168250 -0.642895 -0.732917
-3.135614 -0.788567 -0.770322
-3.126574 -0.755329 -0.779725
-3.118692 -0.750006 -0.787402
-3.122895 -0.662595 -0.783032
-3.003586 -0.529035 0.195325
-2.998895 -0.512254 0.173614
-2.980210 -0.470314 0.161249
-2.964552 -0.442251 0.178396
-2.963364 -0.442302 0.185936
-2.949072 -0.408448 0.159339
-2.945998 -0.393780 0.137407
-2.929345 -0.376812 0.171196
-2.921813 -0.371662 0.186778
-2.900885 -0.320978 0.161255
-2.878348 -0.269264 0.161738
-2.863322 -0.259970 0.179355
-2.834136 -0.220886 0.195279
-2.832886 -0.164995 0.140242
-2.825655 -0.174910 0.165644
-2.792522 -0.121125 0.173855
-2.801620 -0.118172 0.140697
-2.737753 -0.042983 0.191261
-2.733064 -0.034209 0.174276
-2.705301 0.006622 0.191608
-2.678409 0.053467 0.189050
-2.659793 0.086022 0.136448
-2.615146 0.143390 0.191774
-2.617147 0.147339 0.151731
-2.592540 0.176671 0.154282
-2.557447 0.205638 0.162437
-2.539880 0.220870 0.164004
-2.509208 0.246577 0.160459
-2.503802 0.254478 0.145740
-2.490991 0.265974 0.137110
-2.455333 0.287262 0.157591
-2.441650 0.293210 0.184203
-2.446581 0.297993 0.149974
-2.147545 0.742868 0.745888
-2.131226 0.789466 0.710451
-2.118645 0.789814 0.747629
-2.114331 0.796441 0.749716
-2.100207 0.854600 0.704756
-2.088039 0.863677 0.726663
-2.080642 0.902177 0.695439
-2.076960 0.909692 0.694288
-2.058063 0.914434 0.745612
-2.001481 1.017304 0.744882
-1.992839 1.041519 0.724680
-1.988383 1.055879 0.711521
-1.975640 1.077888 0.714819
-1.957160 1.130347 0.705056
-1.934884 1.154161 0.739859
-1.904155 1.211809 0.731247
-1.882505 1.257178 0.706447
-1.867114 1.281391 0.697207
-1.823539 1.292914 0.737869
-1.784518 1.351563 0.713278
-1.769428 1.379647 0.700618
-1.731135 1.392104 0.742408
-1.722593 1.411415 0.736446
-1.703718 1.441533 0.740011
-1.711597 1.486489 0.694471
-1.685390 1.502279 0.727968
-1.672637 1.560163 0.713378
-1.697186 1.534229 0.688516
-1.656071 1.555135 0.744669
-2.801643 -0.260052 1.034235
-2.780182 -0.215564 1.027785
-2.778722 -0.197821 0.996082
-2.754129 -0.171895 1.055422
-2.723274 -0.092108 1.002047
-2.717880 -0.091146 1.026978
-2.714703 -0.081258 1.015565
-2.693701 -0.056590 1.044209
-2.692599 -0.039107 1.001051
-2.629871 0.029266 1.048345
-2.607711 0.061919 1.033905
-2.589035 0.081938 1.049203
-2.599486 0.080745 1.002482
-2.556065 0.132060 1.013664
-2.533397 0.153072 1.047952
-2.543060 0.144271 1.031742
-2.493836 0.202772 1.030285
-2.505987 0.187501 1.036876
-2.497402 0.203869 0.998693
-2.469640 0.227243 1.049931
-2.459561 0.242188 1.030861
-2.432637 0.281137 0.997766
-2.414551 0.297143 1.030689
-2.397355 0.321681 1.017275
-2.843180 -0.340740 1.064217
-2.841523 -0.336937 1.075546
-2.836047 -0.324922 1.077045
-2.820688 -0.302576 1.104234
-2.805053 -0.276414 1.075682
-2.772163 -0.225215 1.094121
-2.776471 -0.220639 1.061825
-2.754750 -0.199558 1.107362
-2.758200 -0.183306 1.060890
-2.727874 -0.146623 1.097806
-2.732249 -0.131643 1.061868
-2.712773 -0.120522 1.097489
-2.690120 -0.095602 1.117148
-2.695395 -0.068256 1.064714
-2.660630 -0.032380 1.090461
-2.637672 -0.006003 1.100129
-2.627256 0.017248 1.083944
-2.610035 0.046193 1.067839
-2.576296 0.094875 1.061367
-2.555984 0.114249 1.080903
-2.528999 0.154639 1.064153
-2.518333 0.164498 1.074877
-2.499740 0.176582 1.106285
-2.505630 0.180154 1.073354
-2.461621 0.222663 1.104406
-2.457866 0.227107 1.105075
-2.422188 0.277290 1.082515
-2.450666 0.238389 1.096795
-2.372206 0.343168 1.108712
-2.750029 -0.369559 1.552955
-2.721228 -0.329757 1.560322
-2.684015 -0.280602 1.558287
-2.684824 -0.270563 1.602299
-2.678456 -0.262999 1.592928
-2.658166 -0.237963 1.558634
-2.604827 -0.147979 1.585676
-2.614230 -0.160999 1.599595
-2.636138 -0.194667 1.584547
-2.594762 -0.134277 1.569642
-2.575243 -0.103017 1.610325
-2.562811 -0.080139 1.557716
-2.557054 -0.070568 1.608204
-2.530800 -0.012304 1.587455
-2.503428 0.032650 1.607460
-2.473307 0.072615 1.568643
-2.471129 0.068121 1.605352
-2.446265 0.091907 1.609950
-2.431916 0.107487 1.604014
-2.405112 0.137906 1.588009
-2.363775 0.184146 1.557606
-2.330309 0.212409 1.581116
-2.326003 0.222273 1.551437
-2.283132 0.268836 1.553374
-2.293427 0.249028 1.590323
-2.255993 0.298872 1.571935
-2.252965 0.305333 1.565116
-1.898763 0.419104 2.460668
-1.865208 0.451019 2.459931
-1.887120 0.471229 2.440809
-1.872765 0.484120 2.440679
-1.882669 0.480227 2.438134
-1.813028 0.504065 2.458173
-1.793792 0.545213 2.450403
-1.821047 0.562005 2.430242
-1.769245 0.545306 2.462038
-1.752272 0.573506 2.460705
-1.745166 0.590658 2.458701
-1.758667 0.635278 2.438995
-1.745251 0.602735 2.455270
-1.742238 0.671359 2.437927
-1.720125 0.659468 2.453819
-1.690879 0.704522 2.462241
-1.725119 0.766376 2.417778
-1.664181 0.756952 2.470639
-1.674113 0.760479 2.461349
-1.669432 0.775183 2.462065
-1.662194 0.800283 2.465200
-1.711421 0.815906 2.419195
-1.666817 0.874861 2.463354
-1.703554 0.860319 2.429780
-1.670834 0.841687 2.453287
-1.733477 0.948345 2.430896
-1.696815 0.925456 2.453127
-1.703297 0.962112 2.459749
-1.748998 1.012550 2.424444
-1.731289 0.976812 2.437587
-1.733580 1.033948 2.445117
-1.755048 1.038248 2.416513
-1.709810 1.062060 2.470484
-1.725693 1.094519 2.424611
-1.712694 1.107391 2.440130
-1.689121 1.141369 2.431133
-1.664202 1.173843 2.453148
-1.652257 0.845720 2.470788
-1.190905 -0.248115 2.799537
-1.191497 -0.219979 2.798521
-1.201437 -0.162915 2.796466
-1.223158 -0.187966 2.785792
-1.258757 -0.094387 2.784485
-1.192251 -0.113988 2.805370
-1.191261 -0.122564 2.804665
-1.230431 -0.033502 2.798020
-1.280649 -0.067955 2.782791
-1.174070 -0.058787 2.820014
-1.224889 -0.063126 2.797130
-1.301961 -0.017781 2.784264
-1.299338 0.067894 2.781173
-1.256143 -0.006938 2.793080
-1.264777 0.029691 2.789726
-1.170567 0.012570 2.823181
-1.213622 0.004182 2.804941
-1.252589 0.095422 2.788373
-1.284813 0.086079 2.782439
-1.217536 0.096759 2.798397
-1.182519 0.044439 2.816209
-1.242693 0.123110 2.792154
-1.281231 0.139550 2.782530
-1.223265 0.160565 2.802007
-1.215223 0.119571 2.801409
-1.239138 0.176082 2.796196
-1.279589 0.204592 2.782843
-1.192491 0.178889 2.821348
-1.203616 0.196866 2.816776
-1.279434 0.231853 2.783581
-1.252827 0.274872 2.793572
-1.195748 0.284423 2.823859
-1.179416 0.231640 2.832997
-1.269730 0.347703 2.782197
-1.265595 0.323564 2.784715
-1.169111 0.287962 2.838936
-1.217396 0.314609 2.813377
-1.193520 0.343751 2.829393
-1.161628 -0.464378 2.833570
-1.152484 -0.426442 2.829008
-1.144920 -0.407681 2.827443
-1.126726 -0.399573 2.832024
-1.154691 -0.377858 2.818886
-1.116076 -0.328507 2.829437
-1.125286 -0.308327 2.825636
-1.140699 -0.302487 2.820299
-1.080754 -0.315161 2.842022
-1.094018 -0.276020 2.839573
-1.130980 -0.216160 2.825154
-1.151868 -0.245891 2.815609
-1.123819 -0.194399 2.830647
-1.151180 -0.182413 2.818191
-1.160923 -0.144854 2.815779
-1.128890 -0.119982 2.838241
-1.154914 -0.093872 2.827202
-1.154728 -0.069691 2.830404
-1.167426 0.097480 2.823320
-1.127571 0.526276 2.907238
-1.072203 0.480928 2.940849
-1.084092 0.482581 2.931936
-1.127082 0.594005 2.917879
-1.134423 0.543907 2.904871
-1.089064 0.564093 2.944824
-1.101242 0.563790 2.934068
-1.120103 0.624824 2.924073
-1.115412 0.604608 2.927620
-1.094935 0.601345 2.946003
-1.135708 0.667051 2.910941
-1.088987 0.676004 2.956326
-1.089898 0.706953 2.954832
-1.108425 0.741703 2.936640
-1.125597 0.725467 2.918702
-1.094574 0.731942 2.949063
-1.104692 0.724056 2.939443
-1.113016 0.829138 2.939399
-1.116660 0.825971 2.936009
-1.109272 0.864780 2.946977
-1.160957 0.881284 2.919883
-1.124521 0.906250 2.942595
-1.143901 0.949276 2.930713
-1.076196 0.934319 2.962596
-1.094471 0.934231 2.954281
-1.150423 0.971888 2.925215
-1.114847 0.984093 2.935273
-1.136016 1.013983 2.918094
-1.070036 0.980168 2.952524
-1.105292 1.007399 2.930005
-1.110268 1.030602 2.918593
-1.164947 1.033257 2.905434
-1.046322 1.054900 2.916987
-1.083737 1.058570 2.906152
-1.035693 1.000352 2.955592
-1.006037 1.022392 2.953470
-0.994448 1.037504 2.947799
-0.947203 1.042267 2.962164
-0.921947 1.081742 2.947781
-0.923869 1.128616 2.915940
-0.954853 1.124486 2.906169
-0.871871 1.091480 2.959640
-0.903972 1.141180 2.915245
-0.854903 1.124361 2.944757
-0.817510 1.159913 2.934902
-0.850487 1.169134 2.914621
-0.772425 1.185537 2.940539
-0.748440 1.187545 2.953577
-0.743376 1.242665 2.920512
-0.716150 1.216864 2.957178
-0.681802 1.255886 2.957501
-0.711475 1.261612 2.931830
-0.683014 1.317640 2.925298
-0.724490 1.290452 2.906463
-0.704558 1.323224 2.906749
-0.858211 -0.346354 2.980106
-0.823459 -0.349505 3.022699
-0.822678 -0.326637 3.021070
-0.844241 -0.276080 2.996858
-0.832110 -0.259860 3.015243
-0.845879 -0.206882 3.015569
-0.897362 -0.148079 2.985451
-0.873898 -0.197833 2.988396
-0.848620 -0.196009 3.016266
-0.930327 -0.081932 2.987110
-0.947901 -0.054157 2.987463
-0.955617 -0.055210 2.981417
-0.942740 -0.073796 2.981944
-0.977200 -0.026607 2.978841
-0.990342 0.030081 2.987372
-0.994233 -0.018544 2.969246
-0.959860 0.004048 3.002105
-0.992842 0.080356 2.994522
-0.959927 0.049139 3.015384
-0.865135 -0.132653 3.021353
-0.918639 -0.087541 2.993774
-0.891212 -0.113601 3.006486
-0.877541 -0.086231 3.026864
-0.913035 -0.074129 3.004021
-0.890946 -0.061373 3.026752
-1.008142 0.160778 2.985705
-0.999434 0.117527 2.992290
-1.008819 0.184016 2.984061
-1.007818 0.210702 2.982722
-0.972887 0.175206 3.016830
-0.982855 0.253562 3.003633
-0.961217 0.231900 3.026238
-0.988829 0.303934 2.995160
-1.009851 0.323270 2.972789
-0.939502 0.385289 3.059471
-0.936123 0.351355 3.062234
-0.941196 0.414644 3.059033
-0.938184 0.442721 3.070252
-0.962205 0.447618 3.041303
-0.802212 -0.591641 3.102772
-0.797903 -0.598220 3.110470
-0.795284 -0.562964 3.098523
-0.745957 -0.547212 3.149855
-0.739654 -0.512271 3.145205
-0.773028 -0.456931 3.095571
-0.752075 -0.415512 3.108518
-0.743464 -0.392247 3.112714
-0.731930 -0.429911 3.135186
-0.763251 -0.386013 3.092042
-0.756180 -0.329555 3.091619
-0.732751 -0.351631 3.116746
-0.709331 -0.380692 3.148768
-0.737507 -0.321823 3.108246
-0.714681 -0.325059 3.134115
-0.738408 -0.238747 3.126261
-0.758987 -0.252546 3.099155
-0.766157 -0.203029 3.107981
-0.783436 -0.200303 3.089597
-0.799315 -0.101955 3.092583
-0.759373 -0.095456 3.137836
-0.785865 -0.109588 3.106537
-0.759334 -0.078851 3.139809
-0.767724 -0.021082 3.134764
-0.802765 -0.011010 3.099462
-0.842871 0.094437 3.095989
-0.821742 0.049823 3.097617
-0.757263 -0.020113 3.146441
-0.757319 -0.000500 3.149020
-0.766782 0.043262 3.144899
-0.770327 0.076035 3.148624
-0.815465 0.132497 3.123570
-0.845376 0.128643 3.102500
-0.819446 0.177071 3.131673
-0.837010 0.200917 3.125503
-0.791164 0.150566 3.145367
-0.867320 0.256525 3.118508
-0.851078 0.251623 3.131509
-0.876152 0.309119 3.127021
-0.895150 0.323579 3.109258
-0.905162 0.327358 3.098697
-0.869294 0.333774 3.139869
-0.626205 0.406247 3.350913
-0.625706 0.357216 3.337363
-0.556386 0.384673 3.387181
-0.609159 0.356354 3.347389
-0.614832 0.467627 3.370904
-0.628373 0.425436 3.352961
-0.582519 0.427994 3.380974
-0.549752 0.361671 3.386734
-0.629254 0.511795 3.362890
-0.654384 0.504636 3.343878
-0.615499 0.540937 3.374362
-0.658665 0.557338 3.338235
-0.601803 0.583079 3.379757
-0.635799 0.609023 3.348884
-0.647961 0.617057 3.336725
-0.591364 0.625789 3.379083
-0.568665 0.683181 3.379423
-0.572183 0.713602 3.368259
-0.555708 0.777581 3.363030
-0.590067 0.741903 3.348707
-0.584146 0.796305 3.338751
-0.516850 0.744088 3.391713
-0.532135 0.799436 3.369275
-0.525991 0.814684 3.368134
-0.486395 0.823086 3.385221
-0.526580 0.880017 3.337122
-0.469893 0.863914 3.374658
-0.431233 0.911367 3.363772
-0.424075 0.895675 3.377199
-0.409034 0.921330 3.366292
-0.405699 0.945451 3.349113
-0.345954 0.950344 3.371795
-0.310493 1.005033 3.346661
-0.348944 0.990129 3.340453
-0.260461 0.984089 3.383956
-0.298905 1.005733 3.351363
-0.206068 1.016947 3.385178
-0.244521 1.038991 3.351844
-0.191399 1.042081 3.376184
-0.221174 1.077904 3.339118
0.095784 1.147094 3.482627
0.106207 1.103147 3.512318
0.105610 1.149405 3.483364
-0.368361 -0.128253 3.549690
-0.376607 -0.141664 3.543985
-0.314982 -0.139749 3.574185
-0.364324 -0.123964 3.551759
-0.377334 -0.032279 3.546020
-0.392065 -0.073595 3.539057
-0.403034 -0.031558 3.531224
-0.323238 -0.023014 3.571215
-0.359138 -0.033594 3.555013
-0.386512 -0.017881 3.539851
-0.389209 0.031153 3.530697
-0.327209 0.012255 3.564900
-0.365907 0.039695 3.542949
-0.387961 0.055352 3.526036
-0.333072 0.064158 3.552180
-0.348297 0.066955 3.544188
-0.287501 0.031838 3.580120
-0.283124 0.058753 3.575512
-0.266448 0.100270 3.568291
-0.311921 0.139191 3.539252
-0.348647 0.136068 3.523905
-0.284878 0.123301 3.552884
-0.303244 0.140953 3.541823
-0.238409 0.159405 3.552598
-0.201794 0.144882 3.566401
-0.266331 0.184781 3.537690
-0.303262 0.208656 3.521456
-0.195232 0.188384 3.549613
-0.227203 0.193812 3.543001
-0.288306 0.231062 3.521365
-0.200605 0.279298 3.537517
-0.241008 0.244585 3.532189
-0.256105 0.326907 3.524701
-0.186437 0.292714 3.539562
-0.195417 0.298614 3.537720
-0.107764 0.846869 3.587877
-0.069034 0.859092 3.608189
-0.006832 0.893698 3.624552
-0.052528 0.861176 3.618575
-0.038774 0.874117 3.617957
-0.012005 0.881210 3.630573
0.005204 0.896938 3.629174
-0.002578 0.907151 3.616649
0.031771 0.919914 3.621550
0.055735 0.954074 3.603027
0.069135 0.924313 3.633385
0.071899 0.965225 3.599460
-0.081402 1.588152 -2.913182
-0.066083 1.592687 -2.936166
-0.325170 1.352367 -2.584741
-0.333606 1.388257 -2.584093
-0.306527 1.404040 -2.616740
-0.316998 1.450505 -2.614886
-0.303244 1.371531 -2.615137
-0.285231 1.350229 -2.633704
-0.319667 1.465605 -2.615824
-0.348983 1.500082 -2.595499
-0.321963 1.529091 -2.616676
-0.344743 1.558382 -2.598883
-0.355093 1.586218 -2.589963
-1.300667 -0.583809 -1.778509
-1.293215 -0.547028 -1.781880
-1.264277 -0.590376 -1.797030
-1.285090 -0.634681 -1.786714
-1.226799 -0.629435 -1.816081
-1.201458 -0.611382 -1.829167
-1.255371 -0.550256 -1.801306
-1.242717 -0.534259 -1.807525
-1.305183 -0.392494 -1.776828
-1.282809 -0.510880 -1.786878
-1.267664 -0.463486 -1.794517
-1.189680 -0.471507 -1.834280
-1.271031 -0.398152 -1.793470
-1.274725 -0.441618 -1.791050
-1.206397 -0.436640 -1.825608
-1.191927 -0.437671 -1.833236
-1.306080 -0.363158 -1.776658
-1.294454 -0.326593 -1.782622
-1.246460 -0.333233 -1.806639
-1.229852 -0.371806 -1.814351
-1.224009 -0.345098 -1.817837
-1.224122 -0.330611 -1.817988
-1.255893 -0.327408 -1.801957
-1.250432 -0.278855 -1.804454
-1.196708 -0.272942 -1.831959
-1.193156 -0.318997 -1.834165
-1.279505 -0.239178 -1.789638
-1.236094 -0.241331 -1.811335
-1.276166 -0.200555 -1.790982
-1.243021 -0.151305 -1.807667
-1.208428 -0.184809 -1.825112
-1.295288 -0.128677 -1.781682
-1.299936 -0.076167 -1.779437
-1.254878 -0.119493 -1.801788
-1.234613 -0.105639 -1.811603
-1.228578 -0.125256 -1.814744
-1.205417 -0.135308 -1.826554
-1.289412 -0.075019 -1.784497
-1.246561 -0.055647 -1.805119
-1.203080 -0.041207 -1.825835
-1.298482 0.019296 -1.779017
-1.307738 0.077347 -1.774263
-1.271822 -0.019775 -1.792212
-1.251678 -0.012307 -1.801548
-1.250256 0.007116 -1.801730
-1.225688 0.026800 -1.811840
-1.185705 0.001764 -1.832154
-1.279133 0.070587 -1.786854
-1.263526 0.089534 -1.793179
-1.220547 0.076066 -1.812299
-1.303831 0.141355 -1.775293
-1.276825 0.163876 -1.786378
-1.283957 0.106842 -1.783919
-1.180920 0.113829 -1.829267
-1.194480 0.163848 -1.825597
-1.289250 0.223601 -1.781739
-1.237609 0.205833 -1.805664
-1.223632 0.183064 -1.810988
-1.300772 0.329294 -1.774287
-1.256615 0.275446 -1.799137
-1.253792 0.257536 -1.800570
-1.225163 0.270930 -1.815321
-1.194198 0.274877 -1.832450
-1.268540 0.345100 -1.791808
-1.251833 0.288233 -1.801603
-1.192395 0.322744 -1.834340
-1.215762 1.338960 -1.733435
-1.177923 1.340648 -1.755157
-1.176741 1.384667 -1.724430
-1.145495 1.391438 -1.742570
-1.107240 1.395281 -1.771560
-1.133786 1.404315 -1.742828
-1.117140 1.411610 -1.751284
-1.076660 1.452594 -1.766170
-1.078938 1.468280 -1.751484
-1.057379 1.510785 -1.757925
-1.078378 1.516490 -1.715285
-1.050596 1.528974 -1.752174
-1.039802 1.538335 -1.771263
-1.027216 1.590273 -1.730171
-1.707776 0.487412 -1.602945
-1.697904 0.482559 -1.607040
-1.739990 0.591800 -1.590249
-1.689227 0.554589 -1.608048
-1.680936 0.557695 -1.611315
-1.736303 0.613999 -1.592728
-1.729764 0.636026 -1.596214
-1.703333 0.617219 -1.604344
-1.660893 0.631240 -1.619495
-1.741855 0.681356 -1.591471
-1.739156 0.714355 -1.591270
-1.698476 0.696454 -1.608216
-1.660244 0.678790 -1.621306
-1.696783 0.755585 -1.605787
-1.699185 0.727841 -1.606996
-1.660396 0.776507 -1.619507
-1.614423 0.355777 -1.643929
-1.603580 0.364258 -1.647473
-1.624530 0.462492 -1.635929
-1.630429 0.439216 -1.635102
-1.637364 0.522812 -1.628708
-1.657182 0.521057 -1.620777
-1.654262 0.472102 -1.624382
-1.631706 0.553246 -1.630249
-1.610488 0.584855 -1.638234
-1.585889 0.558107 -1.648020
-1.652709 0.629170 -1.622595
-1.646506 0.653579 -1.625707
-1.594657 0.622821 -1.644551
-1.591848 0.649923 -1.645945
-1.635210 0.716028 -1.631763
-1.629627 0.672402 -1.632531
-1.655100 0.747371 -1.623126
-1.607396 0.760586 -1.641993
-1.625444 0.834878 -1.628919
-1.648185 0.788515 -1.623884
-1.630083 0.873452 -1.621249
-1.624216 0.868216 -1.625206
-1.576674 0.885878 -1.647499
-1.579503 0.870458 -1.647681
-1.645549 0.915136 -1.597438
-1.605159 0.953726 -1.612713
-1.584671 0.926905 -1.635966
-1.569593 0.926001 -1.645269
-2.061199 -0.800232 -1.475823
-2.071366 -0.771777 -1.472597
-2.028266 -0.781033 -1.489107
-1.954729 -0.767022 -1.517370
-2.054921 -0.724917 -1.480221
-2.095767 -0.641051 -1.466054
-2.083570 -0.643160 -1.471072
-2.072714 -0.636421 -1.475545
-2.038199 -0.677864 -1.488130
-1.987132 -0.744547 -1.505841
-1.978271 -0.711574 -1.510116
-1.954950 -0.701908 -1.518956
-1.995398 -0.682527 -1.504391
-1.971459 -0.683835 -1.513410
-1.952556 -0.683109 -1.520252
-1.681935 1.341123 -1.429701
-1.683332 1.374506 -1.409759
-1.612849 1.388504 -1.461385
-1.617592 1.439590 -1.413358
-1.611603 1.440275 -1.417841
-1.588953 1.444896 -1.433075
-1.546517 1.472902 -1.437907
-1.568181 1.477357 -1.413012
-1.522303 1.497054 -1.426329
-1.488955 1.496321 -1.453939
-1.525358 1.508621 -1.408320
-1.497299 1.525005 -1.407422
-1.453263 1.536927 -1.422840
-1.423085 1.552722 -1.422089
-1.416861 1.530563 -1.461022
-1.412027 1.556649 -1.424734
-1.397387 1.542682 -1.457224
-1.351579 1.590673 -1.411674
-1.336587 1.588014 -1.429318
-1.300706 1.593666 -1.450986
-2.550212 -0.628381 -1.237062
-2.543630 -0.595269 -1.241419
-2.565739 -0.574007 -1.227749
-2.555214 -0.516672 -1.235005
-2.513161 -0.589829 -1.260267
-2.479602 -0.602373 -1.280239
-2.485911 -0.523237 -1.277424
-2.530474 -0.495431 -1.250945
-2.554417 -0.457788 -1.236400
-2.535817 -0.428217 -1.248477
-2.560032 -0.390567 -1.232813
-2.485254 -0.510455 -1.278024
-2.494635 -0.439242 -1.273590
-2.497924 -0.396175 -1.271965
-2.572019 -0.348223 -1.224181
-2.543575 -0.359707 -1.243056
-2.534037 -0.326447 -1.249784
-2.546884 -0.272208 -1.241764
-2.489407 -0.385739 -1.277172
-2.503529 -0.355626 -1.268891
-2.497397 -0.298795 -1.273383
-2.568934 -0.262049 -1.226695
-2.537085 -0.218272 -1.249600
-2.566898 -0.164761 -1.231241
-2.527442 -0.169362 -1.256065
-2.490033 -0.144239 -1.278164
-2.485234 -0.172249 -1.281166
-2.584306 -0.117270 -1.219893
-2.554447 -0.115811 -1.238593
-2.572953 -0.088571 -1.226502
-2.558922 -0.080472 -1.234720
-2.524002 -0.061895 -1.255132
-2.578499 -0.047991 -1.221032
-2.490585 -0.097164 -1.276354
-2.479698 -0.020447 -1.280093
-2.481709 -0.036744 -1.279503
-2.538310 0.012512 -1.245146
-2.576041 0.004797 -1.221104
-2.544243 0.058213 -1.242126
-2.538531 0.094226 -1.245709
-2.516034 0.016807 -1.258939
-2.488848 0.028318 -1.274908
-2.475928 0.089908 -1.279217
-2.523172 0.109617 -1.254109
-2.575244 0.136787 -1.220714
-2.551099 0.176238 -1.230386
-2.555957 0.208885 -1.224769
-2.485793 0.108860 -1.273052
-2.465657 0.142153 -1.278899
-2.509075 0.176886 -1.252593
-2.471255 0.206882 -1.266649
-2.552857 0.240033 -1.223441
-2.531648 0.284743 -1.229015
-2.528197 0.302959 -1.228397
-2.536261 0.894248 -0.793874
-2.525064 0.874423 -0.833120
-2.537993 0.922188 -0.793832
-2.524647 0.943506 -0.845487
-2.542210 0.990303 -0.794174
-2.526638 0.983410 -0.844303
-2.534871 1.041552 -0.812626
-2.534006 1.085534 -0.805391
-2.520201 1.077099 -0.838477
-2.529897 1.100685 -0.802798
-2.505782 1.133283 -0.814938
-2.518645 1.133412 -0.797153
-2.488416 1.176983 -0.798701
-2.481289 1.160745 -0.823482
-2.504234 1.163645 -0.789313
-2.433327 1.203236 -0.847417
-2.440572 1.234933 -0.804610
-2.421681 1.230849 -0.834501
-2.412830 1.278376 -0.794054
-2.383655 1.292882 -0.818158
-2.343908 1.319331 -0.841619
-2.346488 1.338016 -0.812182
-2.316471 1.372076 -0.816992
-2.305686 1.402589 -0.793969
-2.266389 1.419474 -0.848519
-2.237960 1.478916 -0.825937
-2.232398 1.494226 -0.817024
-2.213987 1.530546 -0.805854
-2.211261 1.542293 -0.795309
-2.170358 1.564663 -0.845895
-2.180648 1.563344 -0.827100
-3.176066 -0.624656 -0.260878
-3.168812 -0.600420 -0.286419
-3.145234 -0.552879 -0.267822
-3.132527 -0.525202 -0.275815
-3.123838 -0.510126 -0.269174
-3.109310 -0.466454 -0.276207
-3.088134 -0.433100 -0.251732
-3.073387 -0.385895 -0.262907
-3.028738 -0.325194 -0.237362
-3.030673 -0.307762 -0.267213
-3.002195 -0.259459 -0.276013
-2.966951 -0.226403 -0.237266
-2.959170 -0.195243 -0.268975
-2.949146 -0.189677 -0.250068
-2.913805 -0.137215 -0.239499
-2.910768 -0.112033 -0.285594
-2.893249 -0.080492 -0.294393
-2.872312 -0.071467 -0.257312
-2.834503 -0.027247 -0.249722
-2.831178 -0.000439 -0.274257
-2.818905 0.022942 -0.278525
-2.786848 0.036533 -0.241531
-2.809458 0.048091 -0.289124
-2.773787 0.092100 -0.284695
-2.786007 0.084675 -0.294287
-2.753740 0.074093 -0.235408
-2.732843 0.122533 -0.266413
-2.740540 0.137160 -0.296478
-2.715211 0.124073 -0.242976
-2.701516 0.135146 -0.237035
-2.665573 0.191647 -0.263967
-2.647589 0.215501 -0.271130
-2.633976 0.229222 -0.265497
-2.612221 0.243873 -0.244417
-2.541096 0.335211 -0.272478
-2.564787 0.314741 -0.291874
-2.530074 0.337848 -0.241215
-2.290628 0.506657 0.034825
-2.289787 0.513601 0.018425
-2.278574 0.524029 0.037676
-2.267969 0.545963 0.028305
-2.233170 0.588605 0.068538
-2.214978 0.649011 0.041171
-2.202600 0.670572 0.059389
-2.192033 0.702840 0.063143
-2.181472 0.737491 0.058801
-2.161105 0.777037 0.067432
-2.177890 0.782224 0.025052
-2.167386 0.791231 0.039454
-2.175288 0.785113 0.027968
-2.149843 0.805219 0.064809
-2.151455 0.847107 0.021859
-2.122033 0.886589 0.062345
-2.130031 0.888627 0.042643
-2.126492 0.953595 0.012643
-2.114537 0.958058 0.038583
-2.109093 0.979226 0.042581
-2.101117 1.015788 0.039327
-2.093847 1.050776 0.031274
-2.080977 1.063643 0.065894
-2.062230 1.124340 0.058875
-2.065675 1.145035 0.031624
-2.056593 1.150603 0.051893
-2.059623 1.194300 0.026601
-2.061325 1.249956 0.026345
-2.053202 1.249631 0.045803
-2.068666 1.281994 0.020347
-2.051758 1.291185 0.065510
-2.079382 1.335551 0.028438
-2.087288 1.360366 0.025195
-2.073514 1.382091 0.064135
-2.093882 1.399546 0.027997
-2.089223 1.395887 0.037941
-2.082369 1.451603 0.060689
-2.087811 1.456821 0.046881
-2.087654 1.477569 0.035911
-2.068230 1.538068 0.034458
-2.059075 1.539303 0.069804
-2.050082 1.558817 0.069176
-2.042888 1.580459 0.055558
-1.861751 1.322177 0.649389
-1.888219 1.301718 0.639959
-1.841514 1.327762 0.669949
-1.812199 1.353291 0.677292
-1.802389 1.376859 0.661281
-1.798338 1.406786 0.636759
-1.769622 1.401239 0.677387
-1.739652 1.448421 0.679159
-1.751019 1.445418 0.667353
-1.759846 1.470656 0.642193
-1.725351 1.501381 0.668226
-1.739138 1.544081 0.631530
-1.735264 1.561140 0.627660
-1.689663 1.568050 0.681860
-1.711424 1.586268 0.644042
-1.689799 1.594879 0.666863
-2.995255 -0.781826 0.809130
-2.982980 -0.747742 0.761949
-2.974554 -0.717149 0.771000
-2.958273 -0.658099 0.781270
-2.963838 -0.674660 0.757818
-2.942514 -0.595879 0.788252
-2.942645 -0.590254 0.754867
-2.933897 -0.560887 0.765805
-2.933093 -0.562805 0.808001
-2.910550 -0.487464 0.808962
-2.905920 -0.465115 0.757575
-2.900999 -0.447973 0.767958
-2.896456 -0.429113 0.772654
-2.886798 -0.396675 0.799749
-2.878022 -0.369397 0.788769
-2.868145 -0.342726 0.780174
-2.861409 -0.326855 0.780007
-1.585944 1.485285 0.992859
-1.565925 1.530930 0.978099
-1.547379 1.564350 0.972595
-1.533232 1.584522 0.984156
-2.364652 0.354367 1.106951
-2.359223 0.362486 1.106855
-2.288825 0.460917 1.108635
-2.310467 0.436469 1.076667
-2.228262 0.527944 1.117712
-2.244878 0.519739 1.061765
-2.226300 0.537079 1.081684
-2.211624 0.555498 1.073162
-2.169291 0.602237 1.078161
-2.159657 0.607002 1.115530
-2.299967 0.386279 1.256714
-2.289457 0.398369 1.265627
-2.268135 0.416811 1.293715
-2.273646 0.429926 1.255998
-2.253343 0.456445 1.263017
-2.240428 0.478491 1.250586
-2.220000 0.496833 1.268926
-2.211066 0.511656 1.266394
-2.174143 0.565207 1.258858
-2.158518 0.584419 1.270991
-3.007014 -0.795345 1.443533
-2.983349 -0.763361 1.468260
-2.958903 -0.729483 1.480911
-2.958583 -0.715920 1.460032
-2.965641 -0.707323 1.427689
-2.947765 -0.713706 1.486293
-2.940001 -0.676310 1.447885
-2.926251 -0.653909 1.449419
-2.928076 -0.674949 1.478721
-2.903786 -0.605869 1.435407
-2.873856 -0.578783 1.485358
-2.862166 -0.540581 1.461707
-2.870029 -0.545752 1.444264
-2.742445 -0.507555 1.906205
-2.745130 -0.473594 1.897818
-2.748592 -0.448631 1.881854
-2.747678 -0.354786 1.872181
-2.745149 -0.333177 1.898530
-2.728693 -0.289905 1.876413
-2.719574 -0.266889 1.873419
-2.697346 -0.234282 1.875102
-2.670336 -0.197067 1.913515
-2.650530 -0.173309 1.901754
-2.636157 -0.156281 1.888655
-2.619469 -0.134127 1.892939
-2.558716 -0.036952 1.889436
-2.574644 -0.068832 1.864763
-2.548180 -0.018400 1.876079
-2.504252 0.054570 1.897475
-2.461381 0.100589 1.874488
-2.425028 0.140575 1.919075
-2.419355 0.138532 1.863322
-2.380187 0.179073 1.915103
-2.361618 0.190471 1.894356
-2.359308 0.187896 1.863889
-2.316374 0.224948 1.883216
-2.307969 0.237082 1.914217
-2.277854 0.257273 1.885552
-2.258941 0.275470 1.897265
-2.218491 0.309831 1.903596
-2.184382 0.343583 1.892885
-2.745302 -0.378881 1.937551
-2.742322 -0.339740 1.952325
-2.725210 -0.277395 1.921329
-2.728639 -0.293390 1.965164
-2.710311 -0.251472 1.953937
-2.688924 -0.221176 1.969821
-2.687836 -0.219150 1.923095
-2.668083 -0.193211 1.971488
-2.614631 -0.122418 1.951260
-2.629522 -0.140542 1.978712
-2.556679 -0.027089 1.924781
-2.542210 0.006736 1.946387
-2.531449 0.020354 1.927322
-2.559442 -0.014031 1.978909
-2.497416 0.074904 1.976132
-2.475168 0.097014 1.958611
-2.482367 0.090292 1.968677
-2.502584 0.061279 1.928438
-2.453428 0.117092 1.940340
-2.459061 0.114667 1.960989
-2.412411 0.154745 1.936615
-2.418947 0.151428 1.955446
-2.369041 0.194880 1.957363
-2.344122 0.213708 1.951366
-2.309432 0.245342 1.967953
-2.290129 0.259505 1.956598
-2.257278 0.282405 1.932868
-2.252228 0.287230 1.936777
-2.241731 0.297416 1.948794
-2.245062 0.290094 1.919951
-2.193712 0.339744 1.955177
-2.726726 -0.762514 2.006321
