-4.261804 0.826457 5.406061
-4.284872 0.897187 5.392061
-4.253727 0.890821 5.383463
-4.203376 0.843283 5.378499
-4.228789 0.876586 5.379640
-4.263183 0.908862 5.380311
-5.722402 0.948371 5.515997
-5.699069 0.983972 5.524464
-5.733955 0.983819 5.531592
-5.671731 0.967420 5.511242
-5.705276 1.016310 5.537174
-5.735201 1.026411 5.544896
-5.655989 1.027238 5.529386
-5.689036 1.031636 5.538813
-5.710290 1.044556 5.546292
-5.732864 1.050891 5.551098
-5.668787 1.081461 5.549909
-5.665901 1.046735 5.538127
-5.607679 1.031547 5.515667
-5.628757 1.003580 5.513278
-5.622713 1.063762 5.531192
-5.603694 1.078450 5.529076
-5.660105 1.097930 5.554289
-5.607866 1.093089 5.535746
-5.568272 1.098055 5.522636
-5.570973 1.094247 5.522634
-5.561915 1.166297 5.539119
-5.602542 1.138518 5.549757
-5.540744 1.166721 5.529453
-5.559255 1.143064 5.530756
-4.561587 1.285361 5.234855
-4.526613 1.296852 5.215842
-4.504729 1.263074 5.239070
-4.498371 1.287298 5.215563
-4.583805 1.319662 5.213067
-4.546709 1.320849 5.202818
-4.462368 1.261189 5.224698
-4.430161 1.253222 5.220758
-4.384473 1.199157 5.243111
-4.380463 1.202603 5.239518
-4.374814 1.248974 5.207226
-4.374260 1.242751 5.211136
-4.398415 1.254842 5.210579
-4.342549 1.231818 5.209198
-4.345132 1.245892 5.201055
-4.492307 1.273675 5.225086
-4.448605 1.277496 5.207615
-4.411298 1.265327 5.206669
-4.860261 1.566367 5.217444
-4.891631 1.564772 5.234587
-4.872288 1.612792 5.236803
-4.870049 1.606944 5.234285
-4.894116 1.587006 5.241501
-4.857161 1.627747 5.232097
-4.861741 1.683369 5.239830
-4.815027 1.639573 5.218356
-4.812598 1.656074 5.221706
-4.779822 1.625220 5.202187
-4.835259 1.667063 5.231363
-4.850077 1.671149 5.236032
-4.771905 1.687940 5.210894
-4.794703 1.677300 5.217750
-4.743975 1.692587 5.201955
-4.851821 1.733747 5.226385
-4.811093 1.707306 5.223457
-4.835372 1.733118 5.223532
-4.781656 1.730704 5.212173
-4.749904 1.726895 5.203282
-4.755949 1.730381 5.204751
-4.416240 -0.764714 5.286643
-4.366035 -0.749370 5.278051
-4.380989 -0.747438 5.282506
-4.387522 -0.767871 5.278900
-4.337767 -0.769102 5.264529
-4.359607 -0.731978 5.280973
-4.331988 -0.691657 5.285308
-4.342188 -0.716152 5.280699
-4.366528 -0.292498 5.288781
-4.359207 -0.284485 5.288167
-4.289986 -0.769293 5.251677
-4.315281 -0.743840 5.266098
-4.238416 -0.744549 5.247479
-4.283717 -0.710424 5.270349
-4.267896 -0.692694 5.272786
-4.205859 -0.688542 5.257360
-4.248464 -0.630087 5.280051
-4.834512 -0.952451 5.375178
-4.809209 -0.995769 5.336598
-4.770190 -0.960273 5.337196
-4.809961 -0.910395 5.372160
-4.830097 -0.938411 5.376328
-4.766761 -0.914371 5.351749
-4.794535 -0.907773 5.365720
-4.793229 -0.901151 5.366524
-4.720923 -0.914778 5.334489
-4.741624 -0.928918 5.337111
-4.684229 -0.869052 5.334036
-4.769921 -0.830668 5.370041
-4.796456 -0.847437 5.376344
-4.764110 -0.797053 5.374845
-4.729371 -0.834794 5.355456
-4.754598 -0.830119 5.364941
-4.704467 -0.857205 5.343016
-4.693303 -0.834392 5.344185
-4.719312 -0.810085 5.356851
-4.745843 -0.797385 5.368555
-4.683515 -0.791538 5.349054
-4.706861 -0.794662 5.355915
-4.745139 -0.770138 5.373793
-4.690427 -0.738730 5.363391
-4.675669 -0.720770 5.362957
-4.678439 -0.727543 5.362334
-4.716092 -0.728304 5.374116
-4.674891 -0.654150 5.373947
-4.685821 -0.656784 5.376444
-4.671736 -0.850175 5.334429
-4.631605 -0.795887 5.334095
-4.662252 -0.788428 5.343332
-4.663338 -0.818482 5.338588
-4.855010 -0.971483 5.378439
-4.852232 -0.887051 5.397478
-4.880591 -0.826769 5.417346
-4.880011 -0.842361 5.414607
-4.861775 -0.818095 5.411352
-4.847291 -0.910334 5.391986
-4.849084 -0.951041 5.383595
-4.832332 -0.881560 5.387849
-4.846278 -0.875178 5.395813
-4.848876 -0.843436 5.401978
-4.838273 -0.784790 5.406457
-4.780267 -0.781794 5.383587
-4.793496 -0.804025 5.383691
-4.869318 -0.773124 5.419880
-4.863183 -0.630945 5.419272
-4.765232 -0.733234 5.389016
-4.799296 -0.740304 5.397806
-4.814899 -0.719520 5.405391
-4.848574 -0.689875 5.417646
-4.766214 -0.714673 5.391927
-4.755576 -0.741258 5.384016
-4.736656 -0.720290 5.382465
-4.779474 -0.641692 5.399991
-4.796496 -0.659740 5.403892
-4.843100 -0.618113 5.414071
-4.782313 -0.614880 5.399389
-4.733736 -0.642151 5.388770
-4.690480 -0.652517 5.378024
-4.762049 -0.597944 5.392834
-4.684137 -0.601420 5.377728
-4.989517 -0.525560 5.416646
-4.952286 -0.522418 5.411067
-4.941029 -0.515148 5.407170
-4.361467 -1.007313 5.233770
-4.370937 -0.991928 5.244536
-4.233863 -1.000353 5.215742
-4.276492 -0.987952 5.229154
-4.310806 -0.968833 5.237293
-4.266751 -0.959864 5.227050
-4.260158 -0.978753 5.225131
-4.221858 -1.002733 5.209653
-4.218448 -0.956879 5.213221
-4.204453 -0.976293 5.207324
-4.210307 -0.988074 5.209485
-4.330615 -0.925002 5.241241
-4.325981 -0.868966 5.240561
-4.332051 -0.854068 5.244115
-4.810456 -0.237208 5.336099
-4.769582 -0.240612 5.339932
-4.721760 -0.222165 5.336902
-4.711331 -0.216502 5.335097
-4.691135 -0.224944 5.336069
-4.721603 -0.110800 5.334299
-4.727264 -0.097596 5.335088
-4.711682 -0.071243 5.342455
-4.710314 -0.100149 5.338594
-5.018382 0.088639 5.338041
-4.901135 0.087482 5.337228
-4.922137 0.080703 5.335864
-4.873165 0.094488 5.339587
-4.731825 -0.047523 5.339570
-4.751188 -0.025122 5.337929
-4.689262 -0.045963 5.348255
-4.709075 -0.028304 5.344597
-4.740060 0.016117 5.344253
-4.837780 0.047839 5.336531
-4.775971 0.051873 5.345787
-4.791930 0.042813 5.342440
-4.839837 0.074861 5.340677
-4.778757 0.069353 5.348257
-4.750800 0.023969 5.344377
-4.757928 0.059327 5.349015
-4.700094 0.048951 5.351228
-4.724561 0.099421 5.355471
-4.682818 0.069456 5.354325
-4.648158 -0.241168 5.337059
-4.652301 -0.163988 5.333246
-4.609603 -0.187183 5.333441
-4.550609 -0.158054 5.336512
-4.571207 -0.162100 5.337122
-4.586195 -0.122574 5.349824
-4.606599 -0.113930 5.352241
-4.649236 -0.068829 5.357903
-4.620666 -0.104931 5.354350
-4.564409 -0.115259 5.350058
-4.572347 -0.135315 5.344863
-4.507549 -0.142087 5.335206
-4.530442 -0.117659 5.345047
-4.526177 -0.146694 5.336830
-4.574272 -0.076214 5.361345
-4.523357 -0.083451 5.352695
-4.536933 -0.110195 5.347969
-4.488163 -0.127399 5.336361
-4.462422 -0.086953 5.344303
-4.441803 -0.075218 5.346392
-4.400953 -0.105824 5.338633
-4.342937 -0.080232 5.343174
-4.345645 -0.108790 5.334754
-4.633193 -0.032280 5.358737
-4.656389 -0.041998 5.355009
-4.612048 -0.063831 5.363539
-4.637217 0.010665 5.352750
-4.614086 -0.013754 5.358594
-4.576429 -0.040349 5.363373
-4.518870 -0.062088 5.356766
-4.520126 -0.033231 5.360258
-4.558157 0.012424 5.358038
-4.568006 -0.007630 5.359901
-4.649669 0.045101 5.352715
-4.666300 0.048906 5.352718
-4.586555 0.064502 5.356256
-4.614947 0.049353 5.354477
-4.655457 0.104014 5.359583
-4.593024 0.079912 5.358239
-4.619131 0.077979 5.357169
-4.574368 0.033114 5.356256
-4.521275 0.039294 5.359195
-4.550362 0.086933 5.360801
-4.567221 0.092064 5.360980
-4.505177 0.102638 5.363707
-4.534716 0.098997 5.362999
-4.481642 -0.059341 5.352344
-4.460967 -0.026527 5.357095
-4.423170 -0.043785 5.353768
-4.441057 -0.049178 5.352233
-4.477560 -0.021473 5.358674
-4.463116 0.015375 5.360545
-4.416220 -0.005654 5.359369
-4.361259 -0.063963 5.352012
-4.347247 -0.031370 5.355004
-4.367764 -0.017961 5.358833
-4.347701 -0.009493 5.357536
-4.354946 0.000767 5.359162
-4.463067 0.059376 5.360749
-4.471162 0.027957 5.360599
-4.409997 0.065053 5.361479
-4.488275 0.080876 5.361918
-4.441717 0.109150 5.363238
-4.435184 0.082321 5.362145
-4.930960 -0.556721 5.419501
-4.861995 -0.578319 5.413023
-4.869358 -0.563197 5.412060
-4.908051 -0.528082 5.409371
-4.935997 -0.547632 5.417747
-4.872527 -0.544406 5.409524
-4.869351 -0.526073 5.405902
-5.011968 -0.493376 5.407649
-4.947141 -0.474500 5.391588
-4.961766 -0.501880 5.405021
-4.909212 -0.470425 5.389578
-4.902152 -0.506916 5.402328
-4.857315 -0.504800 5.399505
-4.939095 -0.445248 5.379572
-4.853034 -0.430341 5.384201
-4.827490 -0.578710 5.406687
-4.796322 -0.555699 5.396771
-4.795486 -0.579344 5.399583
-4.811677 -0.544926 5.399258
-4.772723 -0.539361 5.389319
-4.735773 -0.570785 5.384971
-4.752175 -0.577012 5.388534
-4.710868 -0.588410 5.381685
-4.741566 -0.524665 5.382490
-4.712346 -0.528148 5.378190
-4.833609 -0.506680 5.397671
-4.847971 -0.494911 5.397379
-4.800536 -0.490908 5.391190
-4.840857 -0.422178 5.382839
-4.780475 -0.455144 5.385335
-4.757359 -0.508054 5.384217
-4.713040 -0.468106 5.378012
-4.735551 -0.431977 5.379799
-5.021305 -0.407919 5.378032
-4.861405 -0.415364 5.380275
-5.110733 -0.568901 5.423855
-5.029684 -0.581008 5.434352
-5.057160 -0.580077 5.433290
-5.646424 1.728986 5.580508
-4.110256 -0.734641 5.213582
-4.108823 -0.700091 5.221592
-4.140777 -0.697729 5.234078
-4.088220 -0.686351 5.217672
-4.064275 -0.728994 5.201689
-4.121302 -0.649030 5.238526
-4.110981 -0.661525 5.231612
-4.135562 -0.672688 5.238331
-4.060899 -0.658914 5.215763
-4.095989 -0.660891 5.226268
-4.115945 -0.613537 5.241529
-4.099458 -0.618837 5.234985
-4.058783 -0.637687 5.219765
-4.086813 -0.603369 5.233212
-4.030279 -0.643834 5.211297
-4.029615 -0.666937 5.206252
-4.105538 -0.559269 5.239602
-4.059855 -0.588839 5.226261
-4.068903 -0.542969 5.229132
-4.096704 -0.534829 5.235952
-4.050210 -0.539430 5.224495
-4.114291 -0.478216 5.239967
-4.074886 -0.502228 5.230844
-4.100309 -0.444051 5.237598
-4.104998 -0.456129 5.238138
-4.054684 -0.461573 5.229821
-4.072233 -0.425887 5.233974
-4.049214 -0.508792 5.224995
-4.045779 -0.438971 5.229859
-4.154611 -0.304059 5.241497
-4.163666 -0.267082 5.243916
-4.119318 -0.384214 5.240866
-4.076519 -0.417809 5.234776
-4.134778 -0.346493 5.240405
-4.108136 -0.351730 5.236283
-4.068171 -0.356380 5.232570
-4.072492 -0.334424 5.231765
-4.034106 -0.377143 5.229547
-4.027208 -0.347320 5.230048
-4.139120 -0.325592 5.238977
-4.054064 -0.314511 5.231245
-4.121909 -0.250128 5.236342
-4.106578 -0.280630 5.233098
-4.065948 -0.267043 5.232788
-4.070388 -0.271430 5.232674
-4.038064 -0.314087 5.231142
-4.027277 -0.249240 5.232761
-4.209945 -0.659799 5.264177
-4.227417 -0.651789 5.270474
-4.176407 -0.650086 5.256314
-4.189049 -0.598608 5.266576
-4.216362 -0.619444 5.271928
-4.188112 -0.582380 5.266746
-4.212940 -0.575852 5.274514
-4.148139 -0.567726 5.254619
-4.159313 -0.593704 5.258029
-4.207840 -0.547229 5.273409
-4.147726 -0.511288 5.251167
-4.182094 -0.543277 5.264724
-4.243196 -0.470656 5.286437
-4.212279 -0.473000 5.273698
-4.196754 -0.499124 5.267967
-4.153589 -0.487334 5.252251
-4.168980 -0.483547 5.257303
-4.191550 -0.460669 5.264606
-4.207514 -0.420396 5.270356
-4.142917 -0.446173 5.247881
-4.137334 -0.553098 5.250875
-4.252029 -0.415678 5.288132
-4.233180 -0.347982 5.275323
-4.207558 -0.415975 5.270071
-4.213955 -0.380311 5.269490
-4.200895 -0.359855 5.263354
-4.208917 -0.357532 5.266473
-4.283223 -0.302839 5.286793
-4.236687 -0.321294 5.275451
-4.241776 -0.294854 5.275973
-4.300344 -0.272726 5.287868
-4.244805 -0.260821 5.277601
-4.258597 -0.264021 5.282199
-4.193913 -0.311417 5.256309
-4.209963 -0.323673 5.264344
-4.187774 -0.246845 5.253620
-4.204866 -0.252076 5.261216
-4.180731 -0.265501 5.250000
-4.942958 1.100266 5.332523
-4.989131 1.170928 5.332072
-4.948131 1.141788 5.326613
-4.900587 1.122580 5.317921
-4.901559 1.130294 5.316670
-4.915905 1.165293 5.312833
-4.859116 1.168502 5.301584
-4.860990 1.133730 5.310523
-4.816687 1.095599 5.323843
-4.826858 1.118391 5.315755
-4.819450 1.129920 5.313027
-4.823801 1.161198 5.302208
-4.763318 1.139265 5.322344
-4.744162 1.148710 5.324255
-4.716717 1.165542 5.324515
-4.655813 1.171793 5.331039
-4.509650 1.151526 5.328511
-4.324456 1.077935 5.296232
-4.473022 1.128923 5.331240
-4.428531 1.104419 5.332737
-4.481885 1.139397 5.327042
-4.470865 1.165672 5.302583
-4.445960 1.165496 5.292146
-4.401775 1.112586 5.313612
-4.807508 0.594700 5.360909
-4.845766 0.592185 5.360165
-4.801833 0.555496 5.363524
-4.768556 0.594373 5.362916
-4.825819 0.631722 5.363525
-4.845680 0.611798 5.361659
-4.797936 0.607829 5.361114
-4.731637 0.596198 5.361705
-4.744626 0.560615 5.366109
-4.685626 0.565006 5.358705
-4.693109 0.585470 5.357984
-4.728154 0.615190 5.360608
-4.710499 0.609381 5.358761
-4.887050 0.644116 5.369252
-4.874008 0.667152 5.370058
-4.895595 0.709674 5.375996
-4.867578 0.720272 5.373977
-4.886777 0.693669 5.373296
-5.018714 0.775019 5.375654
-4.985962 0.815004 5.370648
-4.973088 0.784329 5.376001
-4.900949 0.807589 5.376277
-4.825952 0.683858 5.368062
-4.845136 0.673242 5.368030
-4.798527 0.664567 5.365173
-4.813999 0.712495 5.369053
-4.841921 0.715308 5.371129
-4.779830 0.703795 5.365799
-4.798563 0.709985 5.367723
-4.696805 0.642751 5.354198
-4.694574 0.668553 5.355181
-4.720533 0.725318 5.361416
-4.685602 0.692889 5.355055
-4.714854 0.692393 5.357985
-4.827903 0.762903 5.372792
-4.830070 0.794348 5.373591
-4.763188 0.808439 5.369584
-4.801343 0.815989 5.371521
-4.736631 0.747007 5.364428
-4.684642 0.761613 5.362289
-4.717371 0.747681 5.362719
-4.751201 0.785978 5.368072
-4.678325 0.813091 5.367032
-4.698418 0.808641 5.366835
-4.661400 0.472312 5.361288
-4.613657 0.502581 5.348248
-4.606877 0.483964 5.350682
-4.639800 0.511354 5.352153
-4.652751 0.531372 5.353976
-4.618116 0.523401 5.346595
-4.569202 0.503317 5.341207
-4.502338 0.489334 5.342958
-4.540251 0.471739 5.346314
-4.543715 0.519661 5.335443
-4.504720 0.534686 5.336274
-4.633883 0.561845 5.347544
-4.653209 0.580643 5.351548
-4.610685 0.564240 5.343369
-4.619830 0.566127 5.345127
-4.642088 0.626186 5.348507
-4.641079 0.638107 5.348038
-4.597786 0.614924 5.343584
-4.620397 0.635963 5.346292
-4.556030 0.582043 5.335689
-4.555299 0.571829 5.334742
-4.496943 0.562874 5.337554
-4.531169 0.581482 5.335442
-4.570646 0.600860 5.339261
-4.582258 0.634473 5.344027
-4.498387 0.619755 5.345442
-4.531015 0.622695 5.342043
-4.457345 0.505064 5.349396
-4.482776 0.472652 5.349590
-4.416508 0.481362 5.361046
-4.433600 0.475603 5.358121
-4.454828 0.539592 5.348916
-4.481983 0.510195 5.342014
-4.420609 0.549124 5.357075
-4.337794 0.495577 5.377321
-4.354772 0.506956 5.373223
-4.365290 0.526325 5.369358
-4.394609 0.548387 5.362392
-4.330465 0.537409 5.374186
-4.480387 0.569312 5.342355
-4.493287 0.588150 5.341184
-4.410818 0.592136 5.360702
-4.375148 0.574261 5.365681
-4.398968 0.598137 5.362876
-4.327817 0.561835 5.372184
-4.392577 0.634261 5.368486
-4.323196 0.606781 5.374340
-4.642732 0.648189 5.348483
-4.613008 0.657055 5.348619
-4.611792 0.668275 5.349912
-4.591798 0.717238 5.357996
-4.619591 0.695724 5.352713
-4.547534 0.675736 5.352195
-4.579889 0.664994 5.348804
-4.567841 0.730789 5.363425
-4.554392 0.694571 5.355914
-4.506827 0.730753 5.370445
-4.664204 0.731846 5.358227
-4.653562 0.769496 5.362288
-4.606892 0.771357 5.364924
-4.626802 0.770656 5.362535
-4.650735 0.788070 5.364222
-4.602771 0.816650 5.372643
-4.620149 0.802954 5.368392
-4.567130 0.771259 5.370771
-4.564626 0.748926 5.366652
-4.533381 0.758835 5.374317
-4.484543 0.672430 5.358622
-4.448194 0.642708 5.359211
-4.449473 0.669680 5.363877
-4.461144 0.710711 5.370901
-4.479416 0.727463 5.372766
-4.450922 0.719875 5.374593
-4.362801 0.643784 5.375553
-5.014275 0.853421 5.364623
-5.012266 0.828754 5.368577
-4.975164 0.841677 5.367541
-5.005437 0.903334 5.360641
-4.944446 0.873892 5.364302
-4.962360 0.892211 5.361293
-4.911306 0.825640 5.372708
-4.883858 0.845139 5.369708
-4.902506 0.893253 5.361111
-4.933418 0.900919 5.360411
-4.989443 0.911224 5.360308
-4.943460 0.941351 5.355811
-4.991719 0.995195 5.352876
-4.942079 0.980113 5.351556
-4.972235 0.973750 5.353789
-4.895709 0.928364 5.355385
-4.933544 0.918872 5.357996
-4.863853 0.917477 5.357947
-4.905371 0.989283 5.347203
-4.915027 0.953699 5.352844
-4.862975 0.961971 5.350844
-4.880194 0.969363 5.349383
-4.835124 0.829142 5.371747
-4.835592 0.862261 5.367092
-4.788671 0.859642 5.367615
-4.822603 0.902305 5.361550
-4.776005 0.894714 5.364096
-4.724324 0.846623 5.368584
-4.754540 0.836120 5.369233
-4.678743 0.830231 5.368217
-4.741093 0.891902 5.366163
-4.748828 0.878579 5.366593
-4.711595 0.896800 5.369496
-5.009034 0.670902 5.382683
-4.917346 0.720905 5.379810
-4.993546 0.731318 5.380270
-4.948881 0.775054 5.379841
-4.973326 0.762604 5.378236
-4.898466 0.769952 5.380291
-4.880942 0.776644 5.378603
-4.328124 0.481868 5.379515
-4.559554 0.806771 5.377754
-4.532195 0.812802 5.382311
-4.344857 0.645725 5.379370
-4.370531 0.709065 5.388327
-4.385942 0.725871 5.389192
-4.338475 0.730180 5.401095
-4.462025 0.743915 5.378955
-4.450953 0.755714 5.382376
-4.455413 0.805685 5.390353
-4.430706 0.777369 5.390069
-4.439334 0.817251 5.394396
-4.369501 0.763689 5.398462
-4.387798 0.751908 5.392977
-4.340766 0.741213 5.401254
-4.345333 0.767377 5.402981
-4.368844 0.784251 5.400844
-4.325306 0.800205 5.406767
-5.238061 -0.922946 5.424002
-5.243987 -0.919542 5.423431
-5.259797 -0.872523 5.425961
-5.215034 -0.885312 5.432328
-5.210922 -0.863118 5.435180
-5.267998 -0.853622 5.425244
-5.231823 -0.822759 5.430515
-5.232512 -0.851278 5.431157
-5.254976 -0.817619 5.425772
-5.266139 -0.805323 5.421845
-5.227585 -0.806092 5.429842
-5.126389 -0.948359 5.445415
-5.163958 -0.886609 5.442984
-5.191379 -0.891115 5.436289
-5.117070 -0.866892 5.452146
-5.157800 -0.880073 5.444502
-5.114814 -0.919222 5.450923
-5.041006 -0.929350 5.449462
-5.083318 -0.896659 5.454136
-5.095063 -0.873515 5.453385
-5.046959 -0.906873 5.452080
-5.032815 -0.864677 5.450453
-5.161507 -0.823992 5.443747
-5.201584 -0.827096 5.436228
-5.160213 -0.853741 5.444551
-5.128736 -0.817033 5.450022
-5.155807 -0.782789 5.446003
-5.082550 -0.833768 5.454555
-5.113097 -0.859624 5.452438
-5.043735 -0.862012 5.451631
-5.077668 -0.800512 5.454434
-5.089174 -0.784547 5.453057
-5.050149 -0.808384 5.453313
-5.050578 -0.781499 5.452466
-5.214617 -0.767955 5.431818
-5.213341 -0.717576 5.428968
-5.168645 -0.772049 5.443766
-5.117239 -0.746675 5.451483
-5.136860 -0.733210 5.449311
-5.198518 -0.696954 5.431237
-5.117439 -0.712513 5.450112
-5.109409 -0.765664 5.451731
-5.049011 -0.765313 5.451787
-5.059144 -0.758978 5.452305
-5.079287 -0.700066 5.450578
-5.085466 -0.721874 5.451535
-5.036133 -0.707463 5.449175
-5.152422 -0.678926 5.441483
-5.180112 -0.634300 5.424877
-5.141428 -0.601615 5.425964
-5.143330 -0.625125 5.431681
-5.074347 -0.662286 5.447142
-5.110017 -0.654880 5.443740
-5.059192 -0.621194 5.441008
-5.564473 1.733237 5.515251
-5.599989 1.716072 5.544029
-5.734702 1.171714 5.608947
-5.916154 1.336175 5.618607
-5.876646 1.247074 5.602038
-5.911194 1.258130 5.604581
-5.828326 1.238065 5.605980
-5.833230 1.252233 5.609538
-5.836668 1.260234 5.611856
-5.789386 1.193831 5.606254
-5.744130 1.185009 5.612534
-5.756056 1.183947 5.609942
-5.811219 1.220744 5.606053
-5.816922 1.227721 5.605715
-5.767670 1.249980 5.624728
-5.773284 1.234628 5.620382
-5.886684 1.290806 5.615220
-5.906819 1.280544 5.610780
-5.884608 1.347743 5.626067
-5.903232 1.317138 5.618987
-5.831953 1.341719 5.632629
-5.824527 1.294806 5.624127
-5.754786 1.286058 5.634239
-5.769844 1.295928 5.633051
-5.783148 1.322649 5.634340
-5.819349 1.324400 5.630955
-5.775680 1.345534 5.637279
-5.917558 1.384603 5.621067
-5.936307 1.425506 5.611588
-5.931140 1.486753 5.609136
-5.912932 1.380873 5.622706
-5.834184 1.378362 5.637303
-5.859869 1.360774 5.631774
-5.871217 1.420375 5.635269
-5.851557 1.405895 5.638421
-5.866506 1.401222 5.635548
-5.816593 1.355472 5.635957
-5.817257 1.375890 5.638470
-5.888498 1.460995 5.628519
-5.863017 1.454097 5.637939
-5.862451 1.479231 5.637403
-5.895990 1.500681 5.623446
-5.885573 1.519986 5.626596
-5.830824 1.514409 5.642750
-5.744042 1.522415 5.641740
-5.918814 1.599928 5.614619
-4.302921 -0.208016 5.297795
-4.295504 -0.175798 5.303476
-4.314074 -0.170562 5.307966
-4.268734 -0.164758 5.297375
-4.312451 -0.142336 5.314911
-4.275184 -0.127323 5.307798
-4.309407 -0.087815 5.332414
-4.248152 -0.075057 5.315080
-4.259135 -0.109738 5.306946
-4.187156 -0.027497 5.306300
-4.172297 -0.047016 5.294806
-4.204344 -0.020273 5.315319
-4.181247 0.018826 5.316800
-4.191398 0.047837 5.326357
-4.203334 0.027312 5.327341
-4.180254 0.065371 5.325243
-4.190115 0.095312 5.332620
-4.172869 0.084206 5.325047
-4.132427 0.001703 5.290707
-4.109076 0.060605 5.296238
-4.116511 0.025146 5.290676
-4.121970 0.090888 5.306118
-4.121288 0.079868 5.304192
-4.087725 0.100940 5.295436
-4.090439 0.072290 5.291280
-4.113806 0.153076 5.315710
-4.063099 0.121530 5.294376
-4.098491 0.156248 5.311153
-4.133548 0.158667 5.323578
-4.061336 0.170005 5.306878
-4.082170 0.173388 5.312569
-4.034109 0.128854 5.294697
-4.028605 0.145670 5.299009
-4.108405 0.231875 5.331927
-4.053935 0.243308 5.325284
-4.094468 0.204514 5.323347
-4.083473 0.250720 5.331433
-4.393255 0.409305 5.369945
-4.401486 0.378849 5.374092
-4.346231 0.381340 5.376598
-4.346250 0.402912 5.375589
-4.372993 0.430107 5.370644
-4.341788 0.436750 5.376471
-4.281332 -0.026591 5.341256
-4.308331 -0.029220 5.347661
-4.299625 -0.056284 5.338402
-4.306474 -0.021166 5.349414
-4.283769 0.014815 5.348954
-4.251068 0.021207 5.341464
-4.276478 0.054807 5.350063
-4.248619 0.033295 5.342391
-4.269358 0.043357 5.348003
-4.283923 0.094631 5.351588
-4.308560 0.090434 5.354797
-4.265168 0.074336 5.349061
-4.257443 0.098869 5.348172
-4.292074 0.117569 5.352244
-4.316837 0.128032 5.355050
-4.246724 0.118368 5.347168
-4.247145 0.144998 5.348364
-4.288272 0.164373 5.353194
-4.238242 0.165650 5.349297
-4.181252 0.146788 5.336266
-4.191481 0.181640 5.344746
-4.222491 0.193731 5.351639
-4.168571 0.169201 5.336462
-4.313807 0.232707 5.363955
-4.270314 0.209335 5.357567
-4.296142 0.250352 5.366007
-4.299658 0.284981 5.372034
-4.259667 0.253703 5.365884
-4.261921 0.281206 5.371462
-4.198525 0.240253 5.357978
-4.181263 0.216481 5.349325
-4.220234 0.255086 5.364655
-4.143360 0.280403 5.350197
-4.176645 0.276288 5.359799
-4.140023 0.241954 5.341199
-4.135404 0.280584 5.348285
-4.082527 0.267030 5.334801
-5.386026 1.325068 5.418643
-5.383436 1.465948 5.405954
-5.395516 1.491293 5.412199
-5.328535 1.252384 5.407195
-5.313351 1.241646 5.404926
-5.275415 1.208179 5.402279
-5.229940 1.213643 5.380266
-5.223310 1.189651 5.387362
-5.206932 1.176973 5.386330
-5.268880 1.255743 5.381207
-5.252498 1.218924 5.387646
-5.285815 1.231581 5.397767
-5.342791 1.297558 5.398119
-5.315514 1.302922 5.384648
-5.307477 1.297750 5.382896
-5.341822 1.324851 5.392663
-5.372521 1.343139 5.408462
-5.322225 1.307693 5.386234
-5.916605 0.675573 5.440166
-5.915254 0.701453 5.452603
-5.886598 0.674356 5.434028
-5.883346 0.652998 5.422394
-5.838883 0.667563 5.424629
-5.874678 0.729893 5.457787
-5.877640 0.689810 5.440179
-5.829177 0.691115 5.436714
-5.850888 0.720633 5.451610
-5.815263 0.668390 5.422994
-5.794729 0.709876 5.445052
-5.801925 0.718489 5.449227
-5.763484 0.716276 5.443851
-5.748963 0.694018 5.429599
-5.882002 0.738401 5.463376
-5.795992 0.754358 5.463087
-5.815950 0.751458 5.463006
-5.757892 0.773738 5.465777
-5.480795 1.205885 5.500241
-5.460283 1.215343 5.490183
-5.460287 1.194096 5.491716
-5.412541 1.187260 5.472603
-5.444146 1.231512 5.481297
-5.475086 1.273322 5.494081
-5.501216 1.313738 5.508786
-5.478360 1.326139 5.488413
-5.454985 1.283601 5.477923
-5.467989 1.283730 5.487195
-5.455833 1.326133 5.471455
-5.467033 1.335274 5.477942
-5.512837 1.395072 5.501691
-5.520233 1.405606 5.507586
-5.503778 1.423980 5.496212
-5.465799 1.360171 5.472945
-5.466145 1.388816 5.469787
-5.472615 1.477431 5.469715
-5.498421 1.466884 5.493587
-5.522605 1.520601 5.506192
-5.510463 1.520422 5.495165
-5.467308 1.440824 5.468003
-5.521697 1.562552 5.494361
-5.494628 1.534865 5.478011
-5.514997 1.543395 5.493534
-5.550862 1.614174 5.508380
-5.524751 1.582661 5.492909
-5.494256 1.572570 5.469368
-5.511568 1.601992 5.480673
-5.932149 1.623213 5.609272
-5.874398 1.532045 5.629930
-5.906238 1.566485 5.618660
-5.835185 1.540522 5.637073
-5.845526 1.560570 5.631177
-5.878540 1.581707 5.624726
-5.907594 1.615601 5.617728
-5.848674 1.572711 5.629623
-5.851400 1.606133 5.625797
-5.812201 1.537878 5.641187
-5.790482 1.558900 5.636064
-5.745878 1.556887 5.631542
-5.746018 1.537048 5.638267
-5.793126 1.595401 5.628532
-5.825060 1.582139 5.630695
-5.756155 1.578341 5.626909
-5.768619 1.586714 5.627671
-5.888435 1.651902 5.621224
-5.845516 1.626295 5.624842
-5.896208 1.677496 5.619453
-5.830736 1.685642 5.621740
-5.855578 1.669247 5.623493
-5.802538 1.639174 5.624478
-5.822540 1.631019 5.625274
-5.765357 1.646758 5.621137
-5.792131 1.680742 5.620626
-5.800272 1.676643 5.621467
-5.745719 1.667771 5.617068
-5.912969 1.726621 5.617463
-5.752898 1.714077 5.613198
-5.757086 1.742391 5.610342
-5.701050 1.184926 5.611406
-5.706664 1.217844 5.624895
-5.658564 1.207805 5.608193
-5.667232 1.184290 5.601384
-5.693320 1.250910 5.635667
-5.668181 1.230957 5.621202
-5.661985 1.258413 5.628989
-5.619470 1.240870 5.599471
-5.645267 1.231410 5.612787
-5.717520 1.279619 5.640654
-5.665712 1.269218 5.633378
-5.715059 1.328976 5.642693
-5.665606 1.348411 5.629415
-5.667072 1.312537 5.639044
-5.641373 1.302423 5.625576
-5.645267 1.262861 5.624201
-5.628303 1.310080 5.615165
-5.633555 1.336285 5.614187
-5.699908 1.363887 5.637058
-5.732001 1.382674 5.637500
-5.679327 1.359008 5.631770
-5.709732 1.424147 5.630490
-5.718932 1.421393 5.634369
-5.658372 1.438134 5.605381
-5.679212 1.418667 5.619156
-5.638040 1.359402 5.612424
-5.641299 1.373027 5.611436
-5.644546 1.433300 5.599275
-5.712676 1.472055 5.630968
-5.734077 1.459952 5.640999
-5.691160 1.472995 5.619919
-5.730928 1.487790 5.641060
-5.664618 1.497874 5.601807
-5.697464 1.565822 5.611881
-5.733738 1.555929 5.629055
-5.688509 1.550487 5.610887
-5.701017 1.575670 5.610779
-5.730425 1.596422 5.618876
-5.682971 1.584217 5.601854
-5.688562 1.600820 5.602796
-5.700391 1.647333 5.606341
-5.720101 1.649716 5.612236
-5.709207 1.680076 5.608045
-5.689273 1.669326 5.602563
-4.453455 -0.774720 5.290503
-4.553976 -0.763094 5.318799
-4.502602 -0.763831 5.304635
-4.507815 -0.741249 5.314699
-4.516666 -0.703556 5.326966
-4.540133 -0.728113 5.325142
-4.470937 -0.739000 5.306680
-4.430945 -0.735816 5.298591
-4.437656 -0.745857 5.297130
-4.470475 -0.712875 5.314754
-4.484383 -0.704679 5.320315
-4.450512 -0.705412 5.312431
-4.393324 -0.692808 5.299934
-4.494574 -0.666018 5.332325
-4.412534 -0.654237 5.317075
-4.438097 -0.648000 5.325140
-4.366097 -0.649894 5.305277
-4.356816 -0.652396 5.302325
-4.359675 -0.685064 5.293101
-4.376218 -0.603700 5.323525
-4.398635 -0.620302 5.324824
-4.332494 -0.608840 5.308057
-4.977291 -0.310337 5.331195
-4.951377 -0.301362 5.332591
-4.993255 -0.249299 5.297370
-5.014692 -0.287401 5.311811
-4.953359 -0.245985 5.307863
-4.975692 -0.273348 5.311155
-4.932709 -0.253603 5.317760
-5.555221 -0.235895 5.338273
-5.535498 -0.148778 5.336399
-5.521587 -0.096580 5.341402
-5.540392 -0.084149 5.350647
-5.607970 -0.056242 5.375154
-5.569510 -0.027164 5.368638
-5.591758 -0.032502 5.373968
-5.561947 0.002948 5.370700
-5.563889 0.040921 5.374252
-5.568008 0.092555 5.370860
-5.542500 -0.058197 5.355926
-5.552070 -0.039822 5.361748
-5.484157 -0.058563 5.335055
-5.543087 0.018170 5.366048
-5.555950 0.018927 5.371058
-5.508196 -0.018741 5.349700
-5.469123 -0.013615 5.334958
-5.515491 0.026841 5.355665
-5.552164 0.049572 5.370050
-5.474029 0.035302 5.337979
-5.512494 0.040137 5.354048
-5.552724 0.074298 5.369147
-5.479730 0.077666 5.339640
-5.474566 0.110820 5.336807
-5.463784 0.103617 5.333568
-5.215909 0.072920 5.334105
-5.248446 0.092889 5.334621
-5.183368 0.052824 5.334871
-5.147262 0.061647 5.338155
-5.171998 0.081792 5.337939
-5.185735 0.106994 5.338460
-5.132743 0.085702 5.338647
-5.084114 0.106960 5.338573
-5.055657 0.072721 5.334486
-5.595784 0.132463 5.370239
-5.568783 0.150921 5.356264
-5.645999 0.189321 5.376350
-5.642452 0.183011 5.376272
-5.579993 0.157949 5.358047
-5.663086 0.227881 5.372927
-5.685872 0.266902 5.371419
-5.656987 0.268901 5.357740
-5.644358 0.224929 5.365696
-5.565731 0.234704 5.338250
-5.607685 0.264640 5.341474
-5.647346 0.268142 5.353767
-5.210671 0.854028 5.412134
-5.207755 0.947583 5.411984
-5.217131 0.988302 5.416588
-5.140573 0.829754 5.393134
-5.197024 0.900272 5.407301
-5.186390 0.871623 5.403842
-5.127576 0.877735 5.383510
-5.145057 0.872009 5.389556
-5.156447 0.916726 5.391297
-5.177363 0.996568 5.400877
-5.218091 1.031810 5.418344
-5.227040 0.998362 5.420742
-5.227573 1.129500 5.413100
-5.228199 1.103276 5.418119
-5.257339 1.163068 5.412466
-5.227532 1.153053 5.404345
-5.225585 1.143239 5.407296
-5.179264 1.002140 5.402043
-5.178462 1.044382 5.404351
-5.192237 1.083906 5.410357
-5.131798 1.049855 5.388248
-5.102180 1.058071 5.378438
-5.165455 1.102599 5.398475
-5.177372 1.093109 5.404351
-5.117042 1.103365 5.384500
-5.157862 1.094863 5.398078
-5.095265 1.097700 5.378037
-4.030542 -0.948376 5.126167
-4.044466 -0.922171 5.141171
-4.024444 -0.876419 5.145528
-4.055206 0.930088 5.195504
-4.059816 0.976371 5.181233
-4.048295 0.938423 5.187079
-4.036660 0.929393 5.183141
-5.334548 -0.227962 5.288308
-5.302982 -0.173081 5.285356
-5.330759 -0.181064 5.286899
-5.222211 -0.217434 5.286890
-5.263566 -0.170314 5.283964
-5.266796 -0.186419 5.284050
-5.219217 -0.157517 5.284361
-5.329656 -0.121834 5.288765
-5.314748 -0.126362 5.287781
-5.335815 -0.154412 5.288021
-5.260272 -0.141281 5.285306
-5.260277 -0.113148 5.288097
-5.217034 -0.153770 5.284476
-5.281084 -0.098300 5.288651
-5.201313 -0.208436 5.285662
-5.170930 -0.223105 5.285813
-5.165741 -0.240487 5.288379
-5.122960 -0.210210 5.280559
-5.197617 -0.193068 5.284271
-5.203670 -0.154871 5.284589
-5.122732 -0.176121 5.279463
-5.141803 -0.163174 5.280826
-5.079420 -0.241621 5.286210
-5.104233 -0.228330 5.283461
-5.052819 -0.223406 5.284279
-5.108446 -0.159740 5.279961
-5.037232 -0.182286 5.282857
-5.058437 -0.157771 5.283331
-5.198021 -0.117474 5.287360
-5.203837 -0.119942 5.287562
-5.191024 -0.107096 5.288001
-5.119876 -0.088966 5.288268
-5.113377 -0.137537 5.281816
-5.519961 0.128234 5.348038
-5.532677 0.146968 5.348591
-5.505320 0.119655 5.345766
-5.504268 0.151171 5.341298
-5.536928 0.167237 5.345443
-5.540570 0.189249 5.341854
-5.483927 0.175556 5.335644
-5.501524 0.197863 5.334586
-5.543171 0.205826 5.339287
-5.382579 0.200078 5.336695
-5.395508 0.263409 5.341134
-5.396497 0.286783 5.342494
-5.713314 0.331803 5.366253
-5.696009 0.323020 5.361395
-5.655686 0.302379 5.348083
-5.703335 0.363831 5.353363
-5.676840 0.342825 5.348313
-5.667053 0.345754 5.343594
-5.623789 0.322052 5.334126
-5.645300 0.335440 5.336725
-5.686467 0.379798 5.342746
-5.704750 0.430630 5.344634
-5.733606 0.437484 5.353212
-5.690167 0.462536 5.342169
-5.389806 0.326033 5.346373
-5.423615 0.322374 5.336640
-5.384059 0.350908 5.349708
-5.439314 0.398599 5.336529
-5.428888 0.436972 5.341882
-5.425232 0.465279 5.343800
-5.358568 0.163249 5.336481
-5.370108 0.198719 5.339159
-5.250849 0.125699 5.340753
-5.285004 0.145170 5.342432
-5.285410 0.178335 5.348407
-5.225505 0.191233 5.350292
-5.236001 0.168487 5.347717
-5.341045 0.233938 5.350160
-5.379696 0.238776 5.342064
-5.322008 0.211284 5.349389
-5.317643 0.222334 5.351216
-5.341774 0.250676 5.351923
-5.331247 0.276714 5.355031
-5.214695 0.224788 5.352898
-5.221546 0.213661 5.352473
-5.277196 0.249251 5.356806
-5.206646 0.286661 5.353209
-5.202500 0.128229 5.341267
-5.142531 0.128124 5.340219
-5.180767 0.188872 5.347697
-5.185448 0.162049 5.345036
-5.131337 0.190065 5.344790
-5.092529 0.113200 5.338600
-5.052681 0.147388 5.343608
-5.059295 0.139745 5.342221
-5.089592 0.166294 5.342476
-5.050174 0.191325 5.344526
-5.194560 0.200439 5.349682
-5.125395 0.220394 5.345229
-5.157434 0.225825 5.348053
-5.191151 0.256268 5.352016
-5.073623 0.238162 5.341967
-5.082357 0.202234 5.343811
-5.038685 0.204022 5.344834
-5.062726 0.210321 5.343062
-5.087052 0.285829 5.341371
-5.116506 0.254523 5.344248
-5.068369 0.272375 5.340613
-5.340775 0.296031 5.355276
-5.299124 0.317473 5.356774
-5.328875 0.302731 5.356004
-5.340224 0.342644 5.356855
-5.346571 0.373307 5.357320
-5.332068 0.376199 5.358788
-5.334570 0.356347 5.357895
-5.260487 0.313117 5.354926
-5.274283 0.291900 5.356938
-5.208937 0.304002 5.350888
-5.264025 0.365567 5.352439
-5.216716 0.369475 5.343001
-5.341538 0.409845 5.360417
-5.355538 0.391525 5.356865
-5.295988 0.415903 5.362476
-5.321301 0.396914 5.359986
-5.364516 0.454584 5.356954
-5.331954 0.462458 5.361866
-5.286630 0.378518 5.356966
-5.211499 0.411112 5.344653
-5.243767 0.381167 5.347839
-5.249594 0.454448 5.359850
-5.292569 0.441095 5.363910
-5.220518 0.445185 5.354450
-5.168433 0.290304 5.348915
-5.182091 0.312913 5.347965
-5.158597 0.288727 5.348070
-5.148599 0.305225 5.346547
-5.187119 0.354641 5.342250
-5.124003 0.343107 5.342736
-5.107530 0.288656 5.342931
-5.032975 0.329094 5.338718
-5.071603 0.318509 5.341027
-5.037098 0.363027 5.338141
-5.056101 0.342149 5.340204
-5.181193 0.414738 5.342656
-5.189475 0.401128 5.341927
-5.122668 0.382010 5.341890
-5.178482 0.464110 5.355194
-5.177204 0.427214 5.344676
-5.130166 0.440694 5.348090
-5.160696 0.429201 5.344408
-5.059247 0.379272 5.339775
-5.101489 0.458637 5.350274
-5.101009 0.438486 5.346297
-5.058904 0.463106 5.347709
-5.046100 0.437128 5.342609
-5.845971 -1.003492 5.407027
-5.890059 -0.995657 5.400734
-5.896201 -0.984617 5.419680
-5.868034 -0.992027 5.421082
-5.788031 -1.000121 5.419194
-5.753122 -1.002056 5.414359
-5.731525 -0.982748 5.421727
-5.628181 -0.996567 5.380665
-5.606133 -0.966128 5.382937
-5.645013 -0.970450 5.392675
-5.579564 -0.955967 5.382622
-5.603733 -0.973041 5.380798
-5.545766 -0.971831 5.377708
-5.512408 -0.954036 5.382064
-5.452918 -0.960404 5.385099
-5.387287 -0.953787 5.399211
-5.407213 -0.973325 5.389597
-5.376474 -0.955765 5.400725
-5.381158 -0.974907 5.394979
-5.334147 -0.977571 5.401208
-5.267199 -1.006327 5.391785
-5.227733 -1.000247 5.402584
-5.271671 -0.983254 5.404746
-5.239095 -0.995653 5.404620
-5.244377 -0.988070 5.405938
-5.247741 -0.967291 5.412516
-4.026628 1.008328 5.148726
-4.042081 1.083849 5.147590
-4.029107 1.061015 5.141377
-4.032808 1.045938 5.145259
-4.048089 1.117873 5.152136
-4.034372 1.099819 5.142067
-4.024149 1.165210 5.139610
-4.025696 1.130680 5.136157
-4.156074 -0.922320 5.190075
-4.157416 -0.935864 5.189490
-4.145453 -0.882862 5.190811
-4.162158 -0.863796 5.200356
-4.136863 -0.926728 5.180991
-4.085850 -0.907547 5.161209
-4.097632 -0.948943 5.157805
-4.129275 -0.906211 5.179833
-4.124753 -0.873774 5.184801
-4.066638 -0.894510 5.157509
-4.093451 -0.871369 5.173100
-4.133978 -0.828210 5.198071
-4.138107 -0.845737 5.195260
-4.090815 -0.820971 5.186564
-4.130035 -0.818685 5.199371
-4.087969 -0.801651 5.191264
-4.069573 -0.818591 5.178924
-4.041165 -0.780188 5.181073
-4.064449 -0.737060 5.200025
-4.036200 -0.730069 5.194428
-5.025473 -0.214989 5.285744
-5.017515 -0.197071 5.284717
-4.998100 -0.164088 5.287199
-4.060319 0.684384 5.327819
-4.079660 0.723907 5.320787
-4.050228 0.703897 5.305486
-4.106869 0.774707 5.315907
-4.084773 0.766838 5.298735
-4.072554 0.744722 5.300906
-4.109254 0.815086 5.295969
-4.131211 0.807338 5.324931
-4.090381 0.779032 5.296690
-4.143377 0.852158 5.311172
-4.155560 0.899922 5.299689
-4.160015 0.883346 5.313370
-4.235478 0.988922 5.316535
-4.206598 0.944450 5.324804
-4.167279 0.931518 5.297374
-4.182968 0.952277 5.302250
-4.224629 0.960094 5.328777
-4.111011 0.822526 5.293276
-4.287969 1.001191 5.331887
-4.251856 1.017928 5.305377
-4.254682 1.002846 5.316293
-4.299703 1.063608 5.295504
-4.214826 0.999377 5.298369
-5.011303 1.215327 5.320116
-4.972684 1.179203 5.324967
-4.980402 1.185569 5.324630
-5.017330 1.218859 5.320132
-5.021910 1.253547 5.305664
-4.948937 1.229096 5.301107
-4.960480 1.251473 5.295278
-4.924206 1.195592 5.307433
-4.885076 1.180058 5.302532
-4.902846 1.233828 5.291221
-5.018417 1.270370 5.297551
-4.944922 0.497948 5.351565
-4.977257 0.503728 5.352402
-4.974445 0.552021 5.367359
-4.972631 0.524507 5.358771
-4.920901 0.467324 5.348040
-4.931294 0.488377 5.350729
-4.861338 0.473287 5.356942
-4.893546 0.484197 5.353758
-4.895541 0.541349 5.361132
-4.932003 0.533622 5.359683
-4.868507 0.542863 5.360096
-4.980968 0.594995 5.377059
-4.970852 0.602623 5.377022
-4.903629 0.563718 5.364664
-4.923134 0.563238 5.365982
-4.859334 0.592613 5.361170
-4.878545 0.562630 5.362398
-4.904755 0.601963 5.367800
-4.923879 0.619687 5.372621
-4.820652 0.488106 5.364392
-4.794287 0.485968 5.368813
-4.832283 0.520585 5.363496
-4.805674 0.512062 5.367400
-4.718006 0.493597 5.373194
-4.726628 0.542128 5.367935
-4.755112 0.541622 5.368635
-4.240664 0.318003 5.377573
-4.310674 0.373877 5.379760
-4.258667 0.371661 5.383190
-4.274714 0.347135 5.380768
-4.214533 0.362367 5.381874
-4.181675 0.352473 5.378086
-4.277302 0.417485 5.385036
-4.318300 0.384285 5.379290
-4.238820 0.413019 5.386635
-4.256943 0.381034 5.384097
-4.295527 0.422150 5.382846
-4.297589 0.445135 5.383153
-4.242224 0.438974 5.386137
-4.271597 0.452057 5.386110
-4.201722 0.394154 5.384758
-4.224454 0.393226 5.385623
-4.159303 0.389910 5.379699
-4.193088 0.440332 5.384002
-4.168394 0.424139 5.381914
-5.923116 0.824372 5.516241
-5.926193 0.895177 5.549019
-5.887634 0.844303 5.519827
-5.913151 0.820483 5.513678
-5.844842 0.849109 5.513206
-5.870222 0.880392 5.529697
-5.902987 0.874260 5.535226
-5.851967 0.898166 5.531060
-5.843514 0.865765 5.518848
-5.806152 0.873571 5.512738
-5.758220 0.897904 5.510489
-5.864142 0.912292 5.538410
-5.863334 0.946382 5.547371
-5.874928 0.962581 5.553001
-5.852824 0.996260 5.553304
-5.844876 0.957885 5.546197
-5.803927 0.939236 5.532951
-5.810098 0.931084 5.531715
-5.756875 0.913522 5.514730
-5.756534 0.937279 5.520773
-5.798812 0.985460 5.544248
-5.749111 0.982394 5.534933
-5.772717 0.966527 5.534542
-5.788364 1.009748 5.547034
-5.823606 0.997512 5.549502
-5.824151 1.010548 5.551297
-5.754119 1.018143 5.545591
-5.764475 1.047289 5.553181
-5.773554 1.047119 5.553956
-5.883854 1.113179 5.573471
-5.906460 1.125662 5.574068
-5.834786 1.127429 5.575105
-5.862518 1.119234 5.571012
-5.898416 1.170151 5.578274
-5.905639 1.163194 5.576579
-5.864525 1.172614 5.582227
-5.862311 1.152057 5.577929
-5.772779 1.091775 5.566351
-5.745558 1.125444 5.579775
-5.792090 1.135498 5.582585
-5.811700 1.171282 5.593835
-5.742060 1.143377 5.590055
-5.778486 1.132537 5.582656
-5.704411 1.126110 5.576173
-5.727789 1.101392 5.567114
-5.653398 1.125098 5.564361
-5.688591 1.115456 5.569098
-5.663773 1.161233 5.588485
-5.688364 1.137398 5.580292
-5.615814 1.144120 5.558320
-5.593582 1.173778 5.558252
-5.931919 1.187879 5.578128
-5.928196 1.224958 5.589420
-5.906737 1.213145 5.588385
-5.896975 1.219620 5.590721
-5.867897 1.227960 5.595422
-5.822474 1.179546 5.593085
-4.269426 1.483228 5.109838
-4.240071 1.456105 5.109227
-4.257124 1.484418 5.108898
-4.218280 1.459709 5.109031
-4.198502 1.479606 5.109445
-4.194231 1.486779 5.109695
-4.226105 1.515778 5.108874
-4.243635 1.536719 5.111310
-4.210879 1.531362 5.110878
-4.384723 1.349768 5.148690
-4.343440 1.334364 5.147064
-4.321595 1.312872 5.155047
-4.439242 1.395080 5.152766
-4.430068 1.386690 5.152417
-4.465023 1.437410 5.154991
-4.435236 1.405770 5.151635
-4.364017 1.360872 5.140771
-4.348215 1.380289 5.134656
-4.405515 1.437160 5.144354
-4.359959 1.432840 5.132667
-4.462760 1.453286 5.154381
-4.429120 1.449202 5.148565
-4.415368 1.498884 5.146873
-4.444972 1.486335 5.151086
-4.372564 1.482167 5.136176
-4.360150 1.453050 5.132636
-4.364620 1.485058 5.134341
-4.402249 1.517653 5.145251
-4.329541 1.517686 5.125250
-4.428720 1.535346 5.151948
-4.336826 1.554582 5.129688
-4.396023 1.577422 5.147723
-4.388882 1.607618 5.146757
-4.325692 1.596108 5.129848
-4.357906 1.610544 5.138472
-4.422143 1.161069 5.285036
-4.335030 1.115465 5.278071
-4.399906 1.167333 5.270563
-4.322777 1.151127 5.251603
-4.054348 0.748816 5.281975
-4.072851 0.808182 5.266590
-4.094590 0.803414 5.287463
-4.044979 0.749546 5.273886
-4.155560 0.934469 5.284185
-4.157483 0.988331 5.262906
-4.103971 0.830665 5.281570
-4.068932 0.826630 5.253705
-4.094351 0.856398 5.259060
-4.101891 0.875681 5.256567
-4.058934 0.582713 5.360026
-4.092555 0.562607 5.372528
-4.071296 0.636410 5.359421
-4.090132 0.632821 5.373930
-4.143277 0.770369 5.359686
-4.169257 0.792412 5.375609
-4.068058 0.668895 5.343672
-4.096889 0.670557 5.365793
-4.124804 0.726380 5.364877
-4.073714 0.692960 5.335192
-4.118474 0.760440 5.337411
-4.135822 0.798347 5.334954
-4.186898 0.835001 5.369797
-4.164132 0.852243 5.335728
-4.206864 0.901628 5.348778
-4.255903 0.911013 5.375775
-4.243698 0.922262 5.362420
-4.300528 0.986356 5.347645
-4.301980 0.961832 5.364184
-4.258630 0.972596 5.337777
-4.214841 0.932754 5.337611
-5.366364 1.707742 5.409232
-5.321726 1.718925 5.382535
-5.012065 0.633514 5.381618
-4.980120 0.613940 5.378829
-5.869986 -0.214676 5.455706
-5.832817 -0.232819 5.428914
-5.863865 -0.231026 5.450324
-5.852073 -0.171340 5.449205
-5.831810 -0.184024 5.430743
-5.850968 -0.147195 5.455285
-5.837591 -0.099712 5.461591
-5.819627 -0.110857 5.442149
-5.785644 -0.084533 5.426426
-5.818226 -0.104059 5.443658
-5.807027 -0.102115 5.435850
-5.780787 -0.069244 5.428130
-5.790020 -0.056074 5.440811
-5.775354 -0.046213 5.433788
-5.788291 0.002047 5.462518
-5.770216 0.058062 5.462989
-5.740951 0.043853 5.442189
-5.738479 0.098474 5.446313
-5.924572 0.223800 5.458209
-5.918359 0.284030 5.441083
-5.861280 0.189774 5.463970
-5.855673 0.199317 5.459720
-5.786421 0.137144 5.459679
-5.776931 0.122274 5.459501
-5.813475 0.179077 5.457029
-5.801509 0.182846 5.451085
-5.740693 0.184333 5.423888
-5.767245 0.161502 5.444517
-5.882258 0.240451 5.449693
-5.901925 0.226645 5.456138
-5.835288 0.243016 5.440343
-5.890120 0.285565 5.438138
-5.912368 0.246216 5.450935
-5.833066 0.261486 5.434695
-5.864579 0.247752 5.445198
-5.812571 0.206827 5.447392
-5.803885 0.228672 5.436246
-5.758202 0.206102 5.424654
-5.792195 0.254864 5.423381
-5.818627 0.284041 5.424642
-5.920797 0.317994 5.430703
-5.913929 0.792318 5.498936
-5.883998 0.748476 5.468880
-5.829936 0.760249 5.467193
-5.895104 0.793940 5.496574
-5.844203 0.799796 5.490839
-5.790730 0.767911 5.467623
-5.788316 0.814215 5.487247
-5.797957 0.785863 5.476880
-5.753156 0.813371 5.480098
-5.840602 0.827876 5.503999
-5.785161 0.837511 5.495404
-5.773540 0.849634 5.497705
-5.740130 0.877145 5.501163
-5.759985 0.864322 5.500808
-4.052149 1.542304 5.156116
-4.302173 -0.943053 5.235540
-4.269045 -0.917199 5.224046
-4.285134 -0.905552 5.227431
-4.309297 -0.888814 5.235502
-4.260702 -0.901424 5.221384
-4.264433 -0.875603 5.223053
-4.203441 -0.885636 5.210159
-4.211768 -0.883978 5.212015
-4.186347 -0.868430 5.207525
-4.241024 -0.822503 5.224866
-4.277009 -0.814041 5.235591
-4.256984 -0.775554 5.241441
-4.163973 -0.849492 5.202758
-4.217937 -0.793810 5.226822
-4.175215 -0.813647 5.211348
-4.121430 -0.798625 5.201912
-4.203154 -0.750094 5.236459
-4.170025 -0.757275 5.225564
-5.052314 1.374635 5.287809
-5.034861 1.682888 5.287876
-5.044307 1.728019 5.278204
-5.041994 1.706237 5.284895
-4.783803 -0.999346 5.316908
-4.774303 -0.982315 5.325191
-4.744506 -1.001165 5.295436
-4.734895 -0.994956 5.297367
-4.714920 -0.981192 5.298050
-4.664740 -0.967811 5.289513
-4.691469 -0.922224 5.319785
-4.677411 -0.942370 5.305282
-4.679546 -0.902385 5.322435
-4.631292 -0.910225 5.301534
-4.669629 -0.930084 5.307423
-4.630754 -0.894792 5.306804
-4.650357 -0.867174 5.323052
-4.612193 -0.879700 5.305768
-4.569658 -0.887726 5.290114
-4.630116 -0.848102 5.321403
-4.657648 -0.854262 5.328966
-4.543716 -0.835968 5.298169
-4.546977 -0.799403 5.308300
-4.571420 -0.787124 5.318369
-4.497409 -0.777854 5.298207
-4.533194 -0.795409 5.305061
-4.651222 -0.741599 5.351297
-4.658105 -0.754297 5.350043
-4.629797 -0.707915 5.353352
-4.670172 -0.697263 5.366812
-4.585659 -0.692239 5.345293
-4.624600 -0.708514 5.351812
-4.575444 -0.711161 5.338025
-4.648733 -0.683043 5.364166
-4.673706 -0.648103 5.374312
-4.600912 -0.644870 5.358418
-4.668882 -0.612948 5.374862
-4.591796 -0.622555 5.359077
-4.561789 -0.669487 5.344901
-4.579874 -0.646741 5.353145
-4.518114 -0.654866 5.339062
-4.534194 -0.664721 5.339847
-4.556786 -0.613718 5.354501
-4.524602 -0.631600 5.345748
-4.536251 -0.619791 5.349601
-4.464419 -0.616676 5.340224
-4.490245 -0.618567 5.343013
-4.941134 -0.435323 5.376244
-4.682640 -0.528070 5.375622
-4.682800 -0.476365 5.375864
-4.706320 -0.495529 5.377130
-4.681123 -0.429078 5.375737
-5.018949 -0.385194 5.368804
-5.005349 -0.413037 5.376738
-4.952319 -0.379964 5.360003
-4.986097 -0.345629 5.348148
-5.005661 -0.347676 5.351341
-4.951345 -0.372622 5.357298
-4.922563 -0.377839 5.362231
-4.861000 -0.378548 5.372851
-4.924859 -0.349541 5.353779
-4.867263 -0.351869 5.365576
-4.948696 -0.317610 5.339788
-4.972228 -0.319537 5.337982
-4.899084 -0.300238 5.345287
-4.906188 -0.327423 5.352248
-4.885393 -0.267440 5.336563
-4.842428 -0.339599 5.365245
-4.820943 -0.374306 5.372802
-4.769333 -0.359918 5.370745
-4.742325 -0.378190 5.374072
-4.703782 -0.402852 5.374775
-4.724044 -0.357596 5.370102
-4.759044 -0.370218 5.372869
-4.674654 -0.363753 5.366670
-4.834797 -0.314692 5.358622
-4.777568 -0.311791 5.360109
-4.784955 -0.330243 5.364581
-4.831193 -0.263429 5.342830
-4.769878 -0.264841 5.347385
-4.802699 -0.284195 5.352151
-4.734774 -0.290724 5.354907
-4.740971 -0.330269 5.364806
-4.686789 -0.311519 5.356168
-4.744652 -0.249129 5.343188
-4.679731 -0.273124 5.346540
-4.634387 -0.573044 5.369482
-4.661263 -0.580853 5.374088
-4.623153 -0.592762 5.367381
-4.635329 -0.528251 5.370854
-4.643875 -0.509593 5.371902
-4.594922 -0.551551 5.365288
-4.619309 -0.511217 5.370162
-4.548787 -0.587137 5.357130
-4.502830 -0.557089 5.360719
-4.548078 -0.545572 5.363384
-4.530527 -0.541696 5.363499
-4.663918 -0.504993 5.373723
-4.668492 -0.472454 5.375299
-4.605370 -0.488084 5.371148
-4.636772 -0.445629 5.373593
-4.666434 -0.433725 5.375093
-4.624678 -0.440887 5.372558
-4.548211 -0.427982 5.365544
-4.535048 -0.450062 5.368340
-5.909359 0.595710 5.391341
-5.906641 0.629602 5.412706
-5.880010 0.629811 5.407212
-5.831298 0.610814 5.385651
-5.851026 0.630568 5.401786
-5.817462 0.601812 5.378124
-5.751584 0.657517 5.406168
-5.764660 0.643020 5.396918
-5.694215 0.638026 5.377519
-5.696215 0.740025 5.435802
-5.718300 0.774693 5.458172
-5.670619 0.751188 5.434802
-5.700191 0.780978 5.456328
-5.662719 0.799656 5.455385
-5.619684 0.749021 5.423920
-5.617673 0.808690 5.449421
-5.647070 0.804140 5.453849
-5.597675 0.818150 5.448260
-5.553628 0.791388 5.425994
-5.648802 0.834190 5.465271
-5.622723 0.830132 5.458447
-5.621811 0.845472 5.463874
-5.586357 0.848277 5.456904
-5.572536 0.848020 5.453283
-5.558888 0.838084 5.445110
-5.498232 0.824251 5.426145
-5.531318 0.896315 5.460690
-5.553938 0.877532 5.459295
-5.481965 0.898198 5.452297
-5.493260 0.867554 5.442999
-5.462594 0.853397 5.433666
-5.394609 0.843153 5.427559
-5.434078 0.871771 5.437456
-5.468033 0.900335 5.450833
-5.891742 -0.198787 5.470695
-5.877098 -0.114201 5.487865
-5.909058 -0.154297 5.491642
-5.889775 -0.110059 5.496901
-5.858047 -0.075923 5.487993
-5.876772 -0.038857 5.508647
-5.844810 -0.054626 5.485312
-5.839997 0.000427 5.495627
-5.855890 -0.005933 5.503015
-5.813973 -0.027827 5.471199
-5.809158 0.015200 5.480124
-5.828779 0.042120 5.493260
-5.889471 0.111110 5.499616
-5.893413 0.079914 5.509667
-5.826270 0.089836 5.486829
-5.862771 0.091047 5.499552
-5.786592 0.059162 5.471845
-5.820608 0.033817 5.489322
-5.790591 0.023135 5.470834
-5.795480 0.099873 5.472227
-5.919106 0.189266 5.469897
-5.922640 0.159137 5.481525
-5.912510 0.140051 5.489744
-5.830975 0.145232 5.474185
-5.907515 0.163547 5.479009
-5.811952 0.114409 5.475539
-5.825189 0.161125 5.467572
-4.189055 1.538769 5.113083
-4.160288 1.532380 5.120136
-4.208904 1.598244 5.117491
-4.153474 1.588635 5.127543
-4.279788 1.644144 5.124734
-4.307665 1.620189 5.128366
-4.265885 1.658933 5.122510
-4.315702 1.667390 5.134446
-4.252112 1.702083 5.122065
-4.270658 1.695137 5.125527
-4.205285 1.639558 5.117189
-4.184004 1.624064 5.120119
-4.189353 1.663942 5.116847
-4.215272 1.665591 5.116322
-4.173395 1.671090 5.122401
-4.160202 1.692294 5.128118
-4.100685 1.535178 5.144928
-4.117824 1.562836 5.137323
-4.087173 1.538241 5.150254
-4.084325 1.571638 5.147670
-4.106308 1.589652 5.144423
-4.108628 1.574157 5.141830
-4.073600 1.584105 5.150142
-4.089996 1.590036 5.148479
-4.052219 1.599280 5.153709
-4.112847 1.653548 5.148264
