2.472386 -1.038995 0.283145
2.569274 -1.094573 0.271046
2.552433 -1.087964 0.272833
2.545472 -1.086079 0.276401
2.598083 -1.100220 0.258595
2.618576 -1.109655 0.266315
2.629277 -1.115399 0.288390
2.656919 -1.114082 0.261362
2.694011 -1.116694 0.265507
2.683347 -1.116695 0.266486
2.746016 -1.117740 0.284858
2.734232 -1.117079 0.259852
2.466417 -1.093558 0.318921
2.496858 -1.080094 0.297133
2.513189 -1.097289 0.309726
2.468477 -1.074105 0.302919
2.434844 -1.012775 0.300915
2.419933 -1.022197 0.313410
2.436991 -1.008288 0.298403
2.473803 -1.072164 0.299485
2.598981 -1.114955 0.310944
2.548172 -1.101599 0.299141
2.630493 -1.118583 0.315988
2.678287 -1.118508 0.288610
2.653652 -1.117977 0.297721
2.707049 -1.119353 0.305957
2.688489 -1.119893 0.314899
2.737221 -1.118630 0.306731
2.715740 -1.118909 0.295977
2.381495 -1.114509 0.387232
2.361958 -1.106850 0.389368
2.362048 -1.083251 0.373226
2.383631 -1.099966 0.368982
2.389611 -1.097849 0.363365
2.326101 -1.048303 0.379860
2.294316 -1.018687 0.389253
2.301149 -1.035727 0.390870
2.307518 -1.031496 0.385259
2.326291 -1.017770 0.369989
2.341788 -1.046419 0.369189
2.348940 -1.050011 0.366287
2.354314 -1.044340 0.361120
2.350281 -1.034774 0.360623
2.422122 -1.113010 0.362216
2.435441 -1.126679 0.392527
2.468062 -1.122907 0.370137
2.322278 -1.088683 0.407302
2.326160 -1.079168 0.394458
2.364155 -1.117668 0.410868
2.341257 -1.113452 0.424352
2.396613 -1.126123 0.412885
2.370326 -1.120940 0.415278
2.280940 -1.065029 0.423357
2.286409 -1.045501 0.407070
2.272078 -1.042690 0.416588
2.299785 -1.068646 0.409881
2.304046 -1.046890 0.393723
2.264677 -1.022365 0.411918
2.280451 -1.034982 0.406054
2.288681 -1.035980 0.400118
2.431319 -1.128973 0.412003
2.402817 -1.129351 0.423931
2.466918 -1.129967 0.420836
2.446676 -1.130556 0.423834
2.488290 -1.129121 0.410973
2.472729 -1.129235 0.411318
2.510478 -1.129375 0.423853
2.538131 -1.127012 0.395042
2.545876 -1.126841 0.397395
2.547474 -1.127458 0.413363
2.603831 -1.125537 0.418539
2.594896 -1.125011 0.394343
2.619449 -1.125055 0.421711
2.620926 -1.124181 0.393950
2.712435 -1.120944 0.421770
2.686268 -1.122290 0.419410
2.737115 -1.119321 0.425586
2.741615 -1.119520 0.398072
2.782077 -1.116662 0.401716
2.757764 -1.118334 0.403861
2.811496 -1.114685 0.394564
2.805368 -1.114912 0.415414
2.850028 -1.111607 0.412788
2.832978 -1.112806 0.424406
2.870860 -1.110131 0.402466
2.880598 -1.109302 0.426250
2.920292 -1.106581 0.407647
2.914153 -1.106982 0.422765
2.943888 -1.104885 0.419065
2.933964 -1.105608 0.412254
2.991489 -1.101237 0.421534
2.998195 -1.100669 0.423582
3.051474 -1.095848 0.409987
3.094247 -1.091355 0.403860
3.130305 -1.086699 0.395308
3.103070 -1.090879 0.422404
3.149709 -1.084653 0.404317
3.190557 -1.078378 0.401914
3.173645 -1.082116 0.416913
3.221720 -1.075283 0.419941
2.253437 -1.074042 0.456625
2.258465 -1.063237 0.443093
2.221789 -1.031143 0.449988
2.244954 -1.032306 0.431960
1.701652 -1.078161 0.832011
1.687126 -1.071192 0.841195
1.684069 -1.054013 0.834607
1.674641 -1.034679 0.832579
1.679510 -1.012548 0.815566
1.700769 -1.130515 0.876552
1.699970 -1.104776 0.849551
1.686968 -1.089279 0.852668
1.653509 -1.043999 0.866399
1.669652 -1.064241 0.854697
1.649026 -1.022913 0.858969
1.642203 -1.019573 0.868593
1.701715 -1.144487 0.912408
1.695951 -1.139465 0.908650
1.674972 -1.117868 0.895606
1.665203 -1.098859 0.885476
1.644742 -1.080310 0.915749
1.630749 -1.013996 0.891274
1.635416 -1.044050 0.905759
1.638747 -1.039620 0.890767
1.661605 -1.120871 0.944297
1.682826 -1.135834 0.937430
1.678444 -1.135734 0.948296
1.643529 -1.088668 0.940632
1.632911 -1.057521 0.937970
1.628085 -1.033635 0.927150
1.621738 -1.010888 0.931937
1.659646 -1.114459 1.019021
1.692639 -1.137378 1.013143
1.695504 -1.140716 1.004080
1.679606 -1.135396 0.989877
1.643645 -1.095508 1.001150
1.641121 -1.090091 1.000580
1.631701 -1.066949 0.992269
1.626933 -1.041900 1.010026
1.625099 -1.030603 1.015825
1.620918 -1.008172 1.007662
1.677217 -1.121136 1.050723
1.677946 -1.127074 1.025304
1.649002 -1.088876 1.048220
1.640725 -1.078695 1.035331
1.630704 -1.044826 1.038671
1.625880 -1.019248 1.043745
1.626224 -1.035507 1.021804
1.635522 -1.069858 1.027492
1.702692 -1.135045 1.077967
1.672592 -1.114841 1.067093
1.645764 -1.076320 1.066902
1.662383 -1.102772 1.070437
1.632231 -1.035597 1.062664
1.632037 -1.013823 1.091529
1.645523 -1.065159 1.083704
1.634515 -1.028780 1.084333
1.678339 -1.115658 1.208908
1.686766 -1.118771 1.197541
1.674272 -1.118859 1.228987
1.655587 -1.077393 1.198245
1.669128 -1.105793 1.202822
1.629889 -1.018085 1.217741
1.649142 -1.065493 1.204451
1.642883 -1.067523 1.226843
1.633906 -1.018764 1.205417
1.656997 -1.112393 1.258074
1.680330 -1.123123 1.232904
1.675564 -1.122421 1.246085
1.659939 -1.107835 1.233360
1.640781 -1.079149 1.249035
1.621734 -1.034269 1.257318
1.633600 -1.041634 1.232386
1.624821 -1.075985 1.294750
1.662078 -1.122308 1.293097
1.660128 -1.118242 1.272869
1.668282 -1.127217 1.297035
1.632986 -1.092486 1.298313
1.626145 -1.069298 1.282124
1.619341 -1.066826 1.299103
1.620757 -1.085611 1.320487
1.616241 -1.085080 1.333641
1.658108 -1.123184 1.319785
1.642370 -1.112183 1.318062
1.700047 -1.137823 1.323203
1.610282 -1.065410 1.320605
1.594299 -1.035367 1.331522
1.597991 -1.036811 1.322319
1.623417 -1.112143 1.364961
1.617601 -1.104743 1.361539
1.605473 -1.081134 1.352207
1.659694 -1.129525 1.356205
1.656403 -1.124299 1.338124
1.693404 -1.136853 1.352021
1.685353 -1.135413 1.358183
1.583750 -1.048036 1.370726
1.592169 -1.061085 1.361718
1.590350 -1.028735 1.336695
1.578588 -1.012848 1.356546
1.619365 -1.118442 1.393875
1.591956 -1.077894 1.377771
1.602136 -1.092366 1.374518
1.633337 -1.128209 1.397295
1.683549 -1.136412 1.374853
1.683941 -1.136595 1.387286
1.580109 -1.070332 1.398925
1.575619 -1.051679 1.395257
1.568531 -1.013042 1.385196
1.556058 -1.048878 1.464491
1.557494 -1.043834 1.451308
1.619291 -1.128681 1.447905
1.598257 -1.120579 1.456367
1.564924 -1.077209 1.463727
1.573907 -1.085976 1.446763
1.641980 -1.135710 1.441091
1.648041 -1.136869 1.461638
1.669407 -1.139202 1.461303
1.567179 -1.073027 1.447063
1.555359 -1.074296 1.486308
1.549386 -1.071635 1.499135
1.542323 -1.042512 1.500258
1.545222 -1.039072 1.490592
1.536525 -1.018384 1.497905
1.583743 -1.116880 1.497080
1.585193 -1.113364 1.479306
1.612038 -1.127944 1.479177
1.606130 -1.127732 1.496699
1.565255 -1.093019 1.490232
1.656568 -1.138031 1.496328
1.657547 -1.138195 1.509188
1.689204 -1.139176 1.490654
1.672759 -1.139084 1.502899
1.557464 -1.099232 1.519012
1.536047 -1.082339 1.543018
1.537916 -1.071461 1.525654
1.534840 -1.045508 1.520268
1.514515 -1.011634 1.541830
1.583084 -1.120334 1.518312
1.586831 -1.126253 1.541010
1.632073 -1.136687 1.530096
1.625151 -1.135522 1.539752
1.633626 -1.136618 1.519701
1.693223 -1.138935 1.525919
1.672252 -1.139012 1.519695
1.545550 -1.111971 1.573552
1.556641 -1.114048 1.549402
1.532512 -1.092546 1.566292
1.521226 -1.068984 1.565454
1.517762 -1.053723 1.564199
1.498032 -1.013993 1.577812
1.596622 -1.132076 1.548764
1.587552 -1.130199 1.573691
1.599640 -1.132708 1.546650
1.598296 -1.134024 1.573264
1.650593 -1.138022 1.559655
1.674441 -1.138513 1.578147
1.694572 -1.138747 1.546827
1.561373 -1.125492 1.596242
1.522716 -1.098940 1.610289
1.513934 -1.080551 1.598900
1.528816 -1.101819 1.594765
1.486743 -1.025299 1.613425
1.489359 -1.026939 1.608999
1.507500 -1.070120 1.603926
1.505229 -1.050810 1.592080
1.496618 -1.031394 1.595814
1.580146 -1.129575 1.588143
1.588496 -1.133145 1.614380
1.605360 -1.135045 1.596355
1.651718 -1.137647 1.590510
1.646541 -1.136996 1.612119
1.479692 -1.077921 1.708397
1.513998 -1.113019 1.705173
1.540150 -1.123974 1.687847
1.476196 -1.065241 1.696998
1.454484 -1.023995 1.694908
1.579563 -1.132247 1.695469
1.571239 -1.131524 1.693680
1.619650 -1.133994 1.704033
1.642465 -1.134744 1.694774
1.672611 -1.133497 1.702404
1.465767 -1.094527 1.771300
1.466698 -1.100218 1.779765
1.526053 -1.126943 1.776375
1.494844 -1.119058 1.780217
1.559946 -1.130826 1.755044
1.534588 -1.127926 1.773035
1.443652 -1.053390 1.759120
1.438898 -1.065583 1.788841
1.434352 -1.032850 1.757082
1.575736 -1.131638 1.763732
1.573719 -1.131793 1.785864
1.609020 -1.132053 1.780804
1.616472 -1.132376 1.762710
1.645852 -1.131751 1.759272
1.694291 -1.128852 1.775481
1.674769 -1.130641 1.756888
1.736197 -1.117160 1.887370
1.703259 -1.120364 1.882985
1.763999 -1.113861 1.891956
1.804447 -1.109861 1.894211
1.776388 -1.114265 1.878337
1.829881 -1.110410 1.871848
1.856815 -1.109202 1.862227
1.859874 -1.108314 1.866978
1.848841 -1.106851 1.886515
1.899095 -1.101415 1.892381
1.899006 -1.105252 1.862948
1.928307 -1.098918 1.889222
1.925026 -1.102180 1.867941
1.973774 -1.093526 1.889385
1.952861 -1.097970 1.877517
2.016259 -1.092955 1.862035
1.993825 -1.092606 1.880195
2.030420 -1.087327 1.881339
2.019783 -1.091803 1.865518
2.086112 -1.075549 1.892810
2.056450 -1.084775 1.874478
2.116570 -1.072662 1.883262
2.144417 -1.063752 1.894270
2.184758 -1.060407 1.877916
2.164048 -1.062003 1.887269
2.201015 -1.051385 1.891118
2.194417 -1.064797 1.859944
2.254544 -1.040389 1.881392
2.243346 -1.048302 1.870219
2.295204 -1.032650 1.871635
2.266496 -1.033536 1.889021
2.309208 -1.031806 1.863453
2.299044 -1.034422 1.864695
2.356820 -1.006479 1.891299
2.348169 -1.015837 1.871634
2.367268 -1.008484 1.874941
1.417098 -1.065920 1.913756
1.411967 -1.047347 1.920376
1.407684 -1.035076 1.904749
1.455694 -1.115840 1.920592
1.482623 -1.123217 1.907201
1.458631 -1.117332 1.914651
1.437596 -1.098120 1.898112
1.437137 -1.099474 1.919690
1.526133 -1.128111 1.899539
1.505748 -1.126592 1.911234
1.551622 -1.127569 1.912947
1.529088 -1.127907 1.912381
1.596339 -1.126061 1.898322
1.581388 -1.127007 1.896883
1.632162 -1.123617 1.905536
1.601460 -1.125826 1.897776
1.654531 -1.122935 1.895806
1.635863 -1.120961 1.929129
1.694208 -1.117807 1.915295
1.697559 -1.119392 1.898046
1.736448 -1.109860 1.945113
1.747537 -1.109282 1.941031
1.729356 -1.108469 1.959827
1.757103 -1.109097 1.935176
1.798099 -1.102594 1.945986
1.779200 -1.104980 1.944441
1.836929 -1.096889 1.953490
1.813004 -1.101761 1.941301
1.872725 -1.093836 1.948699
1.852907 -1.095369 1.952676
1.922065 -1.085195 1.957932
1.916498 -1.091146 1.937533
1.949077 -1.081609 1.954481
1.991686 -1.076220 1.946686
2.009462 -1.072821 1.946193
2.046031 -1.059942 1.959599
2.021962 -1.070094 1.946206
2.080684 -1.061733 1.936876
2.077295 -1.065233 1.929577
2.120000 -1.054113 1.934397
2.096408 -1.059116 1.934864
2.130610 -1.041873 1.955322
2.180524 -1.035391 1.940328
2.196994 -1.035018 1.930437
2.192844 -1.032833 1.938352
2.245594 -1.018779 1.946685
2.237688 -1.015904 1.959423
2.284256 -1.012959 1.938491
2.274159 -1.009472 1.962579
2.307554 -1.008999 1.934843
2.311273 -1.008644 1.931875
2.325167 -1.004179 1.949642
2.362217 -0.996535 1.935972
2.337819 -1.001391 1.947993
2.379378 -0.985458 1.954056
2.372825 -0.991928 1.939010
1.416312 -1.063822 1.988110
1.412931 -1.047722 1.967185
1.408974 -1.030580 1.987577
1.406851 -1.018195 1.980047
1.451599 -1.110937 1.982745
1.488382 -1.120667 1.991032
1.471702 -1.117895 1.980022
1.443388 -1.104787 1.984666
1.505543 -1.121704 1.997975
1.505089 -1.123424 1.977604
1.579116 -1.120213 1.985742
1.564082 -1.120393 1.997963
1.627956 -1.116692 1.976217
1.598998 -1.119182 1.977030
1.661067 -1.110974 1.993179
1.670548 -1.113068 1.972026
1.410785 -1.050820 2.024610
1.415233 -1.063201 2.007614
1.401038 -1.016056 2.033583
1.456109 -1.109960 2.033099
1.478624 -1.116799 2.009342
1.445992 -1.104199 2.017221
1.509419 -1.119930 2.015323
1.517864 -1.118400 2.034296
1.558236 -1.117298 2.025293
1.537290 -1.121842 2.001556
1.588627 -1.114265 2.025370
1.573953 -1.118362 2.006133
1.638399 -1.110482 2.012351
1.702049 -1.101922 2.016196
1.422154 -1.084414 2.053051
1.405769 -1.051957 2.059126
1.409708 -1.049101 2.035866
1.398326 -1.009851 2.038253
1.471303 -1.112398 2.049901
1.444346 -1.100844 2.037612
1.441045 -1.099795 2.068852
1.520464 -1.115104 2.062081
1.511195 -1.117520 2.043673
1.548143 -1.114295 2.052884
1.541410 -1.116808 2.039483
1.565378 -1.114733 2.038389
1.597239 -1.106865 2.060755
1.627945 -1.105482 2.045553
1.602960 -1.104797 2.066379
1.643844 -1.098516 2.065816
1.646623 -1.104752 2.037549
1.696551 -1.096873 2.041797
1.677137 -1.098847 2.044172
1.728295 -1.074646 2.091490
1.766271 -1.066876 2.088338
1.803142 -1.062780 2.077902
1.798226 -1.067503 2.070479
1.832752 -1.047262 2.094214
1.826457 -1.054829 2.082105
1.867224 -1.042475 2.085446
1.851327 -1.037848 2.103587
1.903913 -1.030806 2.090384
1.889552 -1.028909 2.101878
1.931714 -1.016985 2.103139
1.934316 -1.030187 2.075439
1.972308 -1.007656 2.098467
1.963430 -1.023898 2.071853
2.027025 -1.005435 2.075921
2.043625 -1.001298 2.077356
2.025884 -0.999201 2.088349
2.082450 -0.992820 2.089417
2.055165 -0.997518 2.081597
2.098050 -0.995897 2.084284
1.414580 -1.088509 2.127958
1.403010 -1.075450 2.117474
1.387133 -1.042029 2.109806
1.398151 -1.062329 2.109019
1.378791 -1.030362 2.115808
1.377451 -1.020100 2.110696
1.430731 -1.098722 2.138762
1.427580 -1.096033 2.106847
1.441683 -1.102153 2.105685
1.459126 -1.107921 2.123339
1.502053 -1.107272 2.119001
1.531793 -1.099599 2.134413
1.566099 -1.092038 2.136364
1.602767 -1.084435 2.135275
1.604932 -1.087524 2.124998
1.647407 -1.082645 2.113477
1.681032 -1.077599 2.108949
1.698828 -1.071385 2.113853
1.672759 -1.072426 2.125802
1.405605 -1.081589 2.147637
1.390978 -1.076599 2.168523
1.351737 -1.022606 2.165741
1.367594 -1.044806 2.159121
1.366969 -1.049702 2.168578
1.361524 -1.037962 2.160908
1.357314 -1.034243 2.165576
1.433222 -1.098414 2.143440
1.429328 -1.096025 2.172562
1.489146 -1.096698 2.166469
1.464949 -1.102437 2.155258
1.514488 -1.096885 2.153026
1.494238 -1.100989 2.150148
1.560390 -1.089117 2.147529
1.540929 -1.095508 2.141458
1.592505 -1.080876 2.149991
1.580136 -1.087498 2.140375
1.610121 -1.077543 2.148574
1.624791 -1.072475 2.152352
1.663123 -1.057649 2.162469
1.662970 -1.052604 2.173112
1.633092 -1.072889 2.146910
1.696806 -1.056539 2.147138
1.700317 -1.043093 2.173008
1.402714 -1.082657 2.184299
1.398109 -1.084051 2.204377
1.345687 -1.030422 2.185094
1.361858 -1.067313 2.208089
1.367342 -1.062722 2.188173
1.445662 -1.092371 2.194712
1.429526 -1.093090 2.191148
1.481297 -1.084526 2.201066
1.481793 -1.094375 2.176781
1.499248 -1.089597 2.180774
1.559598 -1.067145 2.199458
1.589971 -1.068501 2.179859
1.583836 -1.060503 2.199944
1.619823 -1.059158 2.183761
1.655542 -1.040345 2.206042
1.646738 -1.046136 2.198069
1.683546 -1.046046 2.176016
1.671764 -1.044705 2.186257
1.687433 -1.038709 2.191568
1.394914 -1.075347 2.257143
1.317217 -1.042790 2.267645
1.345242 -1.061694 2.259722
1.325555 -1.046471 2.260516
1.310782 -1.024627 2.252057
1.299282 -1.010715 2.263724
1.309091 -1.035524 2.278127
1.379877 -1.071466 2.268113
1.397915 -1.069228 2.271396
1.392704 -1.072031 2.266284
1.442648 -1.071269 2.248142
1.434415 -1.073860 2.246411
1.436723 -1.061834 2.271626
1.486537 -1.053064 2.269398
1.471507 -1.061179 2.257229
1.525896 -1.054986 2.244074
1.505068 -1.052525 2.262427
1.529044 -1.053631 2.246092
1.573728 -1.043803 2.244394
1.585318 -1.037405 2.272081
1.591440 -1.036392 2.277900
1.630064 -1.035658 2.272656
1.643678 -1.033929 2.272972
1.653554 -1.032575 2.252889
1.682760 -1.023048 2.278358
1.673424 -1.029273 2.260357
1.342699 -1.046187 2.324460
1.322124 -1.041434 2.322440
1.291431 -1.015515 2.326989
1.300603 -1.023322 2.328836
1.312260 -1.035965 2.318878
1.388052 -1.046802 2.326815
1.367788 -1.048145 2.324881
1.421916 -1.042638 2.329574
1.391497 -1.049465 2.319483
1.485897 -1.037796 2.327172
1.505009 -1.037404 2.322327
1.502672 -1.037144 2.327824
1.559266 -1.031881 2.340007
1.531606 -1.037142 2.315851
1.572427 -1.025185 2.347232
1.566300 -1.037019 2.315687
1.610727 -1.018022 2.330102
1.629415 -1.024730 2.319237
1.599309 -1.024982 2.327883
1.662821 -1.004395 2.319356
1.638419 -1.007014 2.331218
1.617146 -0.997202 2.344666
1.626559 -0.935007 2.345752
1.662362 -0.998560 2.320893
1.632975 -0.979564 2.340396
1.673845 -0.992063 2.315353
1.665559 -0.954563 2.325586
1.642452 -0.958862 2.337341
1.628295 -0.926523 2.344980
1.645029 -0.932845 2.336576
1.668924 -0.929556 2.324373
1.315830 -1.009413 2.436486
1.349145 -1.016824 2.431746
1.330251 -1.009818 2.444487
1.375374 -1.014477 2.434208
1.409316 -1.005079 2.432879
1.402110 -1.010613 2.429582
1.301303 -0.996608 2.441606
1.295488 -0.994586 2.419589
1.404686 -0.982084 2.447994
1.399267 -0.999265 2.442354
1.423434 -0.953942 2.444233
1.455601 -0.969512 2.426417
1.437733 -0.994912 2.424260
1.448813 -0.946800 2.431562
1.429353 -0.946133 2.441980
1.436513 -0.919980 2.439536
1.317592 -0.974814 2.489182
1.303054 -0.938108 2.490667
1.340397 -0.940540 2.489359
1.327639 -0.953009 2.492179
1.311316 -0.921761 2.492636
1.337147 -0.933966 2.490507
3.111620 -1.070561 0.294136
3.142635 -1.062617 0.293906
3.140722 -1.064078 0.296662
3.180126 -1.053589 0.296080
3.235265 -1.042924 0.303651
3.227169 -1.044542 0.303215
3.269470 -1.041691 0.319507
3.245093 -1.047391 0.320263
3.244085 -1.036647 0.293289
2.961241 -1.100621 0.537369
3.009778 -1.097115 0.537324
3.031528 -1.095207 0.543811
3.095701 -1.089426 0.556501
3.081048 -1.091190 0.543640
3.112263 -1.087648 0.563500
3.121345 -1.087638 0.543082
3.135060 -1.085695 0.559715
3.174975 -1.081335 0.567104
3.170651 -1.083152 0.534276
3.228902 -1.075561 0.541948
3.209333 -1.078263 0.541058
3.254966 -1.071310 0.544872
3.297848 -1.063381 0.544191
3.284124 -1.065892 0.548128
3.321102 -1.057122 0.550088
3.367064 -1.041966 0.543031
3.347671 -1.047200 0.563336
3.383250 -1.032196 0.564025
3.379299 -1.036255 0.547924
1.813382 -1.044008 0.734642
1.784639 -1.013670 0.734691
1.820308 -1.038260 0.724271
1.909168 -1.122323 0.733163
1.847336 -1.081330 0.737792
1.882496 -1.093804 0.721177
1.925474 -1.133372 0.740008
1.929993 -1.119484 0.709310
1.975217 -1.142554 0.731234
1.980867 -1.139201 0.709341
1.957744 -1.136193 0.725004
1.844051 -1.060143 0.723055
2.048503 -1.144589 0.708397
2.070425 -1.145286 0.710468
2.052827 -1.145616 0.721536
2.120325 -1.144778 0.713786
2.105800 -1.145421 0.718964
2.017627 -1.143671 0.716107
2.164387 -1.143478 0.711810
2.205513 -1.142287 0.734431
2.221508 -1.141815 0.711193
2.244290 -1.140647 0.720654
1.750655 -1.147004 0.875468
1.756734 -1.149083 0.879041
1.788677 -1.150525 0.873813
1.841124 -1.149826 0.859151
1.813315 -1.149426 0.863955
1.874214 -1.151587 0.866788
1.867806 -1.152151 0.877337
1.883527 -1.152528 0.880666
1.885825 -1.151367 0.858243
1.927043 -1.151517 0.881359
1.913341 -1.151090 0.853121
1.962224 -1.150123 0.855950
1.711611 -1.139218 0.880359
1.715940 -1.125464 0.858645
2.001084 -1.148863 0.867070
1.991444 -1.149163 0.851149
2.050095 -1.146902 0.850746
2.042525 -1.147260 0.847831
2.060707 -1.145988 0.880325
2.055693 -1.146691 0.850151
2.106735 -1.144359 0.859041
2.108279 -1.143741 0.876831
2.129665 -1.143368 0.850553
2.124249 -1.142749 0.879741
2.180510 -1.139468 0.865793
2.157656 -1.141406 0.855073
2.215375 -1.137398 0.866488
2.213521 -1.137818 0.858822
2.246025 -1.135784 0.862704
2.227209 -1.136871 0.863042
1.768761 -1.153399 0.901042
1.741878 -1.149443 0.889285
1.794284 -1.153561 0.897724
1.789747 -1.154078 0.905234
1.831108 -1.153073 0.882737
1.868578 -1.153254 0.902494
1.851373 -1.153300 0.893534
1.902983 -1.152310 0.892439
1.885226 -1.152977 0.908830
1.943754 -1.151051 0.912015
1.938668 -1.151227 0.888601
1.972005 -1.149969 0.892267
1.958530 -1.150493 0.904157
1.712496 -1.143393 0.892451
2.011403 -1.147779 0.898796
1.984006 -1.148893 0.913283
2.049412 -1.145660 0.910520
2.018809 -1.146937 0.913448
2.055925 -1.146034 0.885581
2.084919 -1.144270 0.895755
2.055110 -1.145457 0.907083
2.116726 -1.142096 0.905395
2.138762 -1.141258 0.895528
2.137321 -1.141232 0.898611
2.167563 -1.138799 0.912444
2.222265 -1.135635 0.908431
2.254280 -1.134076 0.897304
2.228179 -1.135670 0.894723
1.553912 -1.016772 1.433615
1.560374 -1.012957 1.407330
1.588225 -1.100420 1.422383
1.657025 -1.135740 1.419576
1.633911 -1.133009 1.426355
1.677618 -1.137964 1.419124
1.566162 -1.063970 1.439692
1.571459 -1.061190 1.417081
2.425577 -1.091463 1.465952
2.411819 -1.093656 1.450595
2.466517 -1.087296 1.471609
2.459378 -1.090268 1.444168
2.491302 -1.086100 1.458121
2.477984 -1.086529 1.467952
2.515201 -1.082234 1.471704
2.542580 -1.081466 1.450457
2.589104 -1.076919 1.441913
2.642870 -1.069012 1.446011
2.634473 -1.069599 1.450486
2.666501 -1.062542 1.460447
2.666275 -1.065493 1.444812
2.706269 -1.052710 1.463906
2.684104 -1.061326 1.449368
2.782264 -1.028952 1.455544
2.779231 -1.025338 1.468197
2.818220 -1.007859 1.469166
2.786302 -1.020188 1.473888
2.831173 -1.013050 1.442551
2.878977 -0.985669 1.458619
2.869883 -0.990999 1.455667
2.904354 -0.974809 1.456325
1.702907 -1.138941 1.512417
1.757513 -1.136028 1.542163
1.740422 -1.137019 1.535931
1.775536 -1.136260 1.511645
1.837534 -1.132525 1.528195
1.834367 -1.133417 1.511608
1.870180 -1.130361 1.527402
1.865582 -1.130958 1.521563
1.905270 -1.127509 1.533534
1.916788 -1.127765 1.511281
1.932588 -1.125513 1.535301
1.954971 -1.124863 1.512076
1.963702 -1.123364 1.530666
2.000188 -1.120483 1.527634
2.001751 -1.119937 1.537364
2.040317 -1.117847 1.516998
2.076223 -1.114798 1.526143
2.082612 -1.115011 1.514575
2.110156 -1.112752 1.517620
2.095170 -1.113698 1.520911
2.152575 -1.109237 1.526278
2.151371 -1.109860 1.517273
2.132655 -1.109883 1.538810
2.185264 -1.107691 1.514748
2.218621 -1.104313 1.527434
2.207450 -1.105919 1.515792
2.230188 -1.102511 1.541246
2.289682 -1.098270 1.528804
2.293084 -1.099178 1.511905
2.323856 -1.094895 1.535703
2.304448 -1.096535 1.536125
2.362857 -1.092846 1.518541
2.350008 -1.094335 1.514159
2.391880 -1.089255 1.529131
2.378004 -1.090329 1.532117
2.421749 -1.084708 1.545017
2.404516 -1.087330 1.536773
2.453315 -1.084201 1.517418
2.497957 -1.077559 1.528666
2.473145 -1.080684 1.527875
2.527400 -1.075988 1.511593
2.535163 -1.072035 1.531419
2.573734 -1.063624 1.543669
2.564378 -1.069346 1.521566
2.602680 -1.058570 1.539042
2.582608 -1.063323 1.536909
1.314908 -0.990561 2.472469
1.311322 -0.994796 2.465153
1.303329 -0.980176 2.474908
1.353266 -0.974442 2.476269
1.338928 -0.989854 2.471030
1.322944 -0.991582 2.471668
1.291523 -0.967768 2.473159
1.342371 -0.963413 2.487289
1.384397 -0.971810 2.462138
1.360625 -1.002144 2.457252
1.378744 -0.953353 2.467747
1.357207 -0.953247 2.478876
1.403792 -0.961647 2.453812
1.289719 -0.913724 2.480685
1.366159 -0.931969 2.476095
3.223117 -1.072684 0.399131
3.260447 -1.067150 0.410529
3.251651 -1.069509 0.415672
3.296370 -1.059798 0.409840
3.276429 -1.062995 0.404091
3.322602 -1.052430 0.399309
3.333183 -1.053613 0.422223
3.368245 -1.043901 0.421982
3.365585 -1.043527 0.413767
3.349120 -1.047798 0.410892
3.406418 -1.029238 0.412751
3.394839 -1.034730 0.423968
3.433161 -1.020315 0.426884
3.421760 -1.022374 0.398157
3.510770 -0.994751 0.395322
3.496252 -0.999148 0.413530
3.533944 -0.989035 0.406751
3.524251 -0.991848 0.410566
2.423056 -1.132468 0.476610
2.435235 -1.132588 0.497385
2.467149 -1.131642 0.493835
2.439634 -1.132542 0.487959
2.499619 -1.130316 0.482566
2.498889 -1.130298 0.491711
2.531669 -1.129029 0.465562
2.528738 -1.129060 0.490769
2.572190 -1.127449 0.468526
2.543036 -1.128488 0.490914
2.582367 -1.126895 0.495181
2.585287 -1.126872 0.480802
2.625581 -1.124802 0.472009
2.614086 -1.125191 0.487527
2.679953 -1.121211 0.491299
2.660770 -1.122900 0.466327
2.702686 -1.119613 0.496379
2.691159 -1.120687 0.485044
2.746265 -1.117425 0.472775
2.724977 -1.119120 0.463687
2.769396 -1.115770 0.475195
2.753613 -1.117072 0.468304
2.816309 -1.112444 0.483017
2.813483 -1.113289 0.463530
2.830471 -1.112067 0.465618
2.860257 -1.109864 0.467719
2.885686 -1.107346 0.488325
2.907105 -1.105878 0.489303
2.957545 -1.102998 0.468039
2.925574 -1.104437 0.495488
2.993257 -1.099662 0.496279
2.982660 -1.100675 0.487102
3.011158 -1.098261 0.494637
3.051556 -1.095225 0.479290
3.036300 -1.096315 0.489106
3.097314 -1.091317 0.486679
3.085449 -1.092597 0.464470
3.133946 -1.088117 0.477474
3.104725 -1.090916 0.468649
3.147646 -1.086745 0.467059
3.197896 -1.080683 0.495674
3.184443 -1.082574 0.464192
3.237251 -1.075497 0.469722
3.225657 -1.077127 0.489960
3.251931 -1.073100 0.469517
3.253469 -1.072871 0.475726
3.281280 -1.068085 0.496408
3.276691 -1.068628 0.463236
3.321544 -1.059789 0.492584
3.340320 -1.055379 0.466389
3.373781 -1.044404 0.470880
3.355645 -1.050545 0.470345
3.396644 -1.034250 0.490436
3.436172 -1.016573 0.485625
3.438194 -1.017021 0.471352
1.689754 -1.025073 0.812033
2.269931 -1.132683 0.912019
2.319908 -1.129559 0.908090
2.341616 -1.128127 0.909840
2.353100 -1.128080 0.891577
2.388984 -1.124797 0.907957
2.377377 -1.126604 0.887023
2.430928 -1.121974 0.904052
2.416982 -1.122959 0.904535
2.465245 -1.119566 0.907634
2.502165 -1.118431 0.889957
2.536686 -1.116477 0.882641
2.511329 -1.116733 0.911145
2.571232 -1.113209 0.891212
2.608673 -1.109279 0.907388
2.636809 -1.107850 0.891716
2.628563 -1.107317 0.915313
2.668850 -1.105033 0.900055
2.647185 -1.107141 0.890729
2.730083 -1.100574 0.903770
2.730875 -1.100958 0.894485
2.783119 -1.097419 0.889007
2.769664 -1.098495 0.887857
2.807630 -1.094313 0.910027
2.799805 -1.096035 0.890535
2.853932 -1.091484 0.894501
2.825417 -1.093413 0.900687
2.877703 -1.089470 0.896143
2.855994 -1.090356 0.910739
2.936604 -1.083624 0.910308
2.946950 -1.083968 0.887565
2.963470 -1.082080 0.892994
3.022965 -1.075107 0.900860
3.034225 -1.074961 0.885483
3.063958 -1.069044 0.908398
3.037198 -1.073206 0.902497
3.072207 -1.067092 0.914991
3.103788 -1.062947 0.901920
3.139090 -1.055737 0.891476
3.171688 -1.045441 0.891054
3.229628 -1.019331 0.902162
3.211984 -1.027298 0.901566
3.251345 -1.010211 0.897142
3.241789 -1.016204 0.893132
1.796930 -1.151511 1.041535
1.779079 -1.152634 1.023459
1.831526 -1.151326 1.037837
1.845567 -1.151320 1.029972
1.905387 -1.148625 1.039890
1.885806 -1.149845 1.029732
1.939506 -1.147640 1.037351
1.914604 -1.147813 1.049051
1.959738 -1.146885 1.037269
1.989427 -1.145702 1.022825
2.047853 -1.141097 1.045079
2.063537 -1.139644 1.056135
2.053970 -1.141343 1.024258
2.110818 -1.137349 1.034046
2.094658 -1.138460 1.031868
2.141142 -1.134430 1.052537
2.174392 -1.132407 1.052618
2.208948 -1.131962 1.024344
2.198505 -1.130771 1.055213
2.260838 -1.128292 1.024903
2.291171 -1.125192 1.047677
2.267049 -1.126778 1.050624
2.321891 -1.124197 1.029069
2.339676 -1.123249 1.025606
2.336443 -1.123171 1.031640
2.387910 -1.119936 1.023600
2.377663 -1.120126 1.037370
2.418827 -1.116525 1.049595
2.417787 -1.117291 1.032954
2.460616 -1.114542 1.021891
2.486581 -1.111678 1.045418
2.525829 -1.108701 1.044435
2.567248 -1.105648 1.042468
2.556588 -1.106983 1.030435
2.596486 -1.103344 1.042539
2.584304 -1.104473 1.039201
2.636161 -1.100568 1.035940
2.621882 -1.101117 1.046861
2.648654 -1.099796 1.032304
2.709810 -1.095272 1.035515
2.744896 -1.092945 1.028826
2.728403 -1.094138 1.030146
2.708677 -1.087611 1.178330
2.690366 -1.089419 1.172483
2.738012 -1.085307 1.174491
2.737563 -1.085839 1.166331
2.773277 -1.080719 1.191800
2.772233 -1.082852 1.162273
2.814344 -1.076074 1.192270
2.786128 -1.080788 1.172111
2.834163 -1.075589 1.169507
2.820251 -1.075224 1.194168
2.848367 -1.071402 1.192905
2.882175 -1.067998 1.176852
2.862588 -1.070297 1.183966
2.910125 -1.062853 1.178657
2.918009 -1.063557 1.163990
2.949671 -1.052261 1.185827
2.932364 -1.059729 1.169066
2.964798 -1.053065 1.163679
3.010013 -1.031785 1.185122
3.007256 -1.031098 1.190842
3.062450 -1.015848 1.164421
3.039202 -1.023031 1.174111
3.067340 -1.005490 1.185217
3.086736 -1.003886 1.163958
3.065897 -1.003557 1.192144
2.529773 -1.085513 1.423103
2.515865 -1.088226 1.406721
2.553719 -1.081539 1.438160
2.555732 -1.084152 1.409840
2.594163 -1.078044 1.427448
2.593791 -1.078878 1.420790
2.612080 -1.074905 1.434455
2.640676 -1.073003 1.421131
2.656804 -1.071525 1.414719
2.647658 -1.072094 1.420437
2.713566 -1.061199 1.420720
2.686948 -1.064440 1.431367
2.741756 -1.052011 1.430313
2.718293 -1.059727 1.422861
2.774796 -1.045416 1.417005
2.802166 -1.031353 1.428145
2.844025 -1.013882 1.427638
2.830250 -1.026850 1.411669
2.858594 -1.003237 1.436779
2.907258 -0.988410 1.415953
2.909278 -0.982176 1.429748
2.426278 -1.089278 1.492582
2.422121 -1.090645 1.480378
2.460241 -1.085704 1.495255
2.437082 -1.087478 1.501372
2.488176 -1.082265 1.499362
2.478111 -1.083771 1.495589
2.530802 -1.076097 1.507375
2.517131 -1.079956 1.490250
2.553593 -1.076650 1.480639
2.560320 -1.072729 1.502885
2.606271 -1.065312 1.502624
2.596958 -1.066530 1.504825
2.641633 -1.058507 1.502419
2.620940 -1.066664 1.480944
2.670964 -1.055770 1.487214
2.669702 -1.057188 1.482358
2.711011 -1.040057 1.501862
2.698546 -1.042557 1.505738
2.718429 -1.039982 1.494924
2.738389 -1.028610 1.504046
2.781722 -1.008206 1.508054
2.764418 -1.020827 1.496305
2.800696 -1.004625 1.496090
2.847036 -0.988046 1.489273
2.836052 -0.990167 1.496351
2.873326 -0.974808 1.499179
1.728163 -1.115104 1.911505
1.708243 -1.118709 1.895735
1.756615 -1.113892 1.897910
1.738800 -1.112393 1.924688
1.775256 -1.110202 1.912429
1.799675 -1.105725 1.926361
1.832135 -1.107171 1.895537
1.812691 -1.106905 1.909079
1.873190 -1.101200 1.909260
1.855452 -1.103660 1.904450
1.908562 -1.097445 1.910651
1.947171 -1.093840 1.905706
1.931534 -1.096424 1.902269
1.978483 -1.085517 1.922667
1.971532 -1.091284 1.902808
2.014660 -1.078267 1.926605
2.009277 -1.086059 1.901131
2.043472 -1.074246 1.922765
2.019888 -1.079001 1.920314
2.063391 -1.070935 1.920896
2.061599 -1.070274 1.923885
2.113698 -1.064362 1.910724
2.095044 -1.073037 1.895897
2.145788 -1.059173 1.906178
2.134734 -1.059338 1.912264
2.166215 -1.057184 1.898148
2.213209 -1.042862 1.903016
2.217620 -1.037503 1.912404
2.259286 -1.023099 1.921314
2.231718 -1.032063 1.916032
2.232171 -1.033652 1.912050
2.284806 -1.024379 1.899601
2.266887 -1.027207 1.905347
2.331176 -1.010162 1.908202
2.310005 -1.012448 1.919006
2.336073 -1.007887 1.911840
1.368653 -1.074866 2.217866
1.413049 -1.079077 2.233315
1.352009 -1.062586 2.218085
1.316479 -1.020795 2.233115
1.325757 -1.017205 2.212117
1.365130 -1.071164 2.212743
1.426553 -1.087775 2.212541
1.477490 -1.081139 2.210582
1.465886 -1.082111 2.213651
1.482345 -1.070940 2.230377
1.525086 -1.064386 2.224214
1.523994 -1.055512 2.243772
1.504088 -1.071802 2.218536
1.551192 -1.061727 2.215909
1.541381 -1.055807 2.234404
1.570844 -1.055413 2.218627
1.605818 -1.046503 2.219040
1.622207 -1.038719 2.229655
1.642173 -1.037378 2.224956
1.637155 -1.035222 2.237787
1.690020 -1.028676 2.231016
1.683691 -1.031834 2.220229
3.342563 -1.015640 0.718771
3.318539 -1.029581 0.715503
3.349249 -1.009166 0.728433
2.295300 -1.130486 0.928232
2.287803 -1.131094 0.924986
2.303281 -1.129287 0.950927
2.302520 -1.129820 0.935908
2.361330 -1.124912 0.950982
2.335070 -1.127138 0.945648
2.399144 -1.122362 0.945669
2.433191 -1.119779 0.945467
2.415119 -1.122222 0.922804
2.457144 -1.119298 0.923358
2.440720 -1.120361 0.923429
2.475393 -1.116992 0.948415
2.471032 -1.117315 0.946707
2.529478 -1.113634 0.945935
2.508772 -1.115254 0.942316
2.572976 -1.111466 0.921155
2.565812 -1.110659 0.949402
2.586444 -1.110051 0.927703
2.575816 -1.110279 0.940463
2.644706 -1.105623 0.923414
2.613445 -1.107046 0.945171
2.712823 -1.100721 0.925124
2.697589 -1.101986 0.920438
2.749560 -1.097181 0.942120
2.741626 -1.098706 0.924636
2.777680 -1.094717 0.946738
2.774945 -1.096151 0.924318
2.791825 -1.095098 0.918867
2.849404 -1.089324 0.938011
2.847460 -1.090342 0.923096
2.866652 -1.087341 0.947825
2.868739 -1.088943 0.917540
2.914916 -1.083253 0.947055
2.895185 -1.086130 0.928843
2.958399 -1.079342 0.941132
2.970013 -1.078011 0.941971
2.975523 -1.078820 0.923282
3.000554 -1.076241 0.920781
3.020610 -1.072816 0.933641
3.045895 -1.070789 0.917367
3.072967 -1.063921 0.944044
3.078365 -1.065503 0.920189
3.101573 -1.061338 0.919835
3.148654 -1.047096 0.925755
3.202498 -1.023869 0.930114
3.174870 -1.035106 0.935321
3.206000 -1.024837 0.920707
1.700667 -1.146055 0.985258
1.667227 -1.129405 0.977215
1.680092 -1.137560 0.958800
1.641604 -1.092225 0.974583
1.635344 -1.078903 0.981657
1.632343 -1.066938 0.969682
1.624133 -1.031686 0.970760
1.620537 -1.013899 0.966099
1.729216 -1.137210 1.150451
1.710921 -1.129920 1.150653
1.755175 -1.143292 1.156616
1.940175 -1.143419 1.130955
1.979831 -1.140819 1.153890
1.958283 -1.141928 1.147734
2.014887 -1.139679 1.137244
1.993855 -1.140508 1.145049
2.048549 -1.136623 1.155401
2.042785 -1.138256 1.132451
2.057859 -1.136121 1.153100
2.120553 -1.132231 1.136745
2.106757 -1.132598 1.155780
2.170026 -1.128157 1.157868
2.181611 -1.128248 1.135199
2.217481 -1.125256 1.151076
2.192548 -1.126647 1.157212
2.326216 -1.118524 1.143294
2.300938 -1.120816 1.129362
2.359573 -1.116661 1.131550
2.344651 -1.117191 1.146118
2.387853 -1.113846 1.155172
2.370708 -1.116064 1.126676
2.421031 -1.112407 1.138263
2.410947 -1.112429 1.151664
2.453577 -1.110374 1.134510
2.465735 -1.109742 1.130737
2.547836 -1.103992 1.128719
2.610088 -1.097910 1.133822
2.577099 -1.100729 1.137147
2.636769 -1.095345 1.141438
2.667482 -1.092904 1.141683
2.654394 -1.094537 1.130025
2.699508 -1.089709 1.154172
2.699050 -1.091058 1.130649
2.733843 -1.086508 1.160624
2.717483 -1.088745 1.146444
2.774315 -1.084291 1.138156
2.751299 -1.086482 1.137225
2.803552 -1.080935 1.145922
2.791454 -1.081628 1.153066
2.704432 -1.084930 1.227493
2.685372 -1.086939 1.222482
2.717145 -1.084939 1.209692
2.776558 -1.078745 1.213353
2.806980 -1.075338 1.209731
2.829428 -1.072631 1.206202
2.832235 -1.071056 1.216397
2.875104 -1.063755 1.217914
2.905518 -1.054178 1.231198
2.905550 -1.058716 1.208479
2.926903 -1.055041 1.200114
2.945125 -1.047905 1.207747
2.962047 -1.041985 1.212208
2.992799 -1.032094 1.206176
2.999494 -1.020350 1.230798
3.006156 -1.027488 1.202854
3.041302 -1.007306 1.213066
3.076774 -0.991435 1.210919
2.636142 -1.089425 1.247410
2.619758 -1.090636 1.248884
2.679436 -1.086803 1.232898
2.651604 -1.087721 1.254030
2.701742 -1.083192 1.254589
2.682628 -1.085029 1.253878
2.727523 -1.080220 1.259718
2.720007 -1.081924 1.247995
2.779758 -1.074530 1.256513
2.768600 -1.077755 1.235695
2.760154 -1.076583 1.259989
2.801273 -1.072891 1.242880
2.804151 -1.070292 1.263525
2.853449 -1.063211 1.252114
2.821829 -1.069937 1.242889
2.858824 -1.060398 1.263531
2.920679 -1.046074 1.247730
2.904635 -1.053152 1.237675
2.954526 -1.028287 1.264617
2.983438 -1.015471 1.263175
2.970986 -1.031541 1.234055
3.004568 -1.008884 1.253862
3.010749 -1.003019 1.261199
3.034077 -0.997264 1.247079
1.726423 -1.140562 1.344622
1.706204 -1.139215 1.348888
1.768135 -1.140812 1.363683
1.767573 -1.141853 1.339024
1.791078 -1.140560 1.356625
1.797980 -1.141081 1.340658
1.836008 -1.138610 1.368164
1.861494 -1.138530 1.340699
1.894897 -1.136023 1.359856
1.894226 -1.136458 1.349296
1.924412 -1.134042 1.359612
1.919430 -1.134592 1.354287
1.977009 -1.130956 1.347633
1.947363 -1.132659 1.352064
1.994756 -1.130019 1.346772
2.004013 -1.128536 1.369140
2.039150 -1.127228 1.352270
2.017455 -1.128928 1.344721
2.084780 -1.123884 1.358711
2.055902 -1.126076 1.354067
2.120542 -1.121723 1.357102
2.155364 -1.120377 1.336868
2.142753 -1.119982 1.364434
2.168674 -1.118170 1.365383
2.177229 -1.118372 1.348512
2.223081 -1.113591 1.367783
2.289705 -1.109689 1.350084
2.264899 -1.110499 1.365487
2.326612 -1.106454 1.357755
2.322045 -1.106706 1.359288
2.303792 -1.107484 1.370589
2.346118 -1.104525 1.364360
2.351146 -1.105936 1.336027
2.381202 -1.101894 1.362713
2.368073 -1.104412 1.339721
2.416610 -1.099589 1.357929
2.413909 -1.101036 1.340156
2.466199 -1.096395 1.350543
2.443442 -1.098187 1.349202
2.505246 -1.093512 1.348740
2.491100 -1.094022 1.356911
2.539891 -1.089441 1.364390
2.509740 -1.092008 1.364251
2.553078 -1.088505 1.360565
2.551877 -1.089539 1.347566
2.579652 -1.085499 1.368397
2.601324 -1.085404 1.344304
2.078749 -1.002805 2.065971
2.094955 -1.003669 2.064123
2.221197 -0.995281 2.060071
2.248322 -0.969799 2.064746
2.259557 -0.988466 2.039874
2.235102 -0.997696 2.045691
2.288965 -0.945304 2.045023
2.278870 -0.968283 2.044529
2.262109 -0.964674 2.057353
3.256675 -1.070969 0.440421
3.307095 -1.060669 0.432950
3.276663 -1.067694 0.448727
3.334225 -1.055171 0.440242
3.335092 -1.054348 0.431717
3.365016 -1.046771 0.445713
3.364903 -1.045706 0.428300
3.402782 -1.032212 0.431740
3.433174 -1.020303 0.448258
3.436592 -1.019083 0.437027
3.464547 -1.008112 0.439528
1.707859 -1.145341 1.003768
1.729586 -1.151383 0.988543
1.770107 -1.153081 1.010950
1.754835 -1.153699 0.987911
1.795985 -1.154323 0.988018
1.773507 -1.153609 1.004909
1.831881 -1.152650 1.009939
1.807638 -1.153539 1.005295
1.846966 -1.152347 1.005521
1.909899 -1.149732 1.012385
1.882648 -1.150499 1.018079
1.946538 -1.148638 1.006348
1.965245 -1.148173 0.989799
1.974981 -1.146723 1.019594
2.011812 -1.144118 1.020003
1.989707 -1.146082 1.009692
2.002725 -1.145857 0.987144
2.022120 -1.144096 0.998683
2.030327 -1.143085 1.015317
2.069884 -1.140621 1.016422
2.073927 -1.141267 0.991228
2.112717 -1.138075 1.014877
2.107697 -1.139145 0.999201
2.156032 -1.136063 1.006662
2.153267 -1.137240 0.988271
2.176936 -1.135472 0.996839
2.166638 -1.134660 1.021347
2.224297 -1.131295 1.017659
2.215547 -1.133188 0.994903
2.255621 -1.130360 0.996422
2.233535 -1.131125 1.009642
2.292872 -1.127953 0.990753
2.267697 -1.129317 0.999097
2.309772 -1.126781 0.992714
2.307962 -1.126175 1.005815
2.363722 -1.121833 1.021574
2.397742 -1.119499 1.016409
2.368248 -1.121596 1.019672
2.432009 -1.117163 1.008956
2.414805 -1.118666 1.005338
2.443346 -1.115841 1.021462
2.437188 -1.116537 1.015111
2.493726 -1.113158 1.000028
2.472008 -1.114272 1.009450
2.517730 -1.110716 1.012152
1.721854 -1.139052 1.469239
1.731251 -1.139435 1.442171
1.759429 -1.138351 1.460938
1.739692 -1.138870 1.462175
1.783115 -1.137396 1.470053
1.790560 -1.137603 1.449805
1.874038 -1.132875 1.467544
1.848245 -1.134450 1.471157
1.893718 -1.131852 1.455402
1.885562 -1.132658 1.450418
1.929628 -1.129165 1.454867
1.970354 -1.125721 1.462760
1.968013 -1.126689 1.444868
2.007783 -1.123084 1.459474
1.998346 -1.124393 1.447932
2.024173 -1.122759 1.444095
2.062482 -1.119076 1.464282
2.116597 -1.116099 1.457852
2.094004 -1.116944 1.466603
2.154654 -1.112755 1.468965
2.129452 -1.115815 1.447704
2.181442 -1.111705 1.453588
2.158390 -1.112497 1.468708
2.203795 -1.110724 1.441654
2.219377 -1.107688 1.470803
2.231817 -1.106687 1.471416
2.233123 -1.107896 1.450234
2.304363 -1.100953 1.470653
2.364098 -1.097410 1.450185
2.331804 -1.100451 1.443794
2.377435 -1.096891 1.441677
1.708873 -1.136982 1.594272
1.754455 -1.134251 1.595727
1.753855 -1.134182 1.597820
1.798584 -1.131844 1.598003
1.824935 -1.130400 1.594662
1.865477 -1.127473 1.591579
1.855080 -1.128209 1.594073
1.900586 -1.124598 1.602482
1.896111 -1.124492 1.610500
1.938675 -1.121871 1.605742
1.927670 -1.123390 1.590909
1.967264 -1.120569 1.585232
1.950573 -1.122016 1.585547
2.004229 -1.117238 1.588252
1.989956 -1.117682 1.605150
2.040712 -1.113767 1.599634
2.025135 -1.114936 1.601193
2.059190 -1.112351 1.596865
2.078887 -1.111121 1.588603
2.112871 -1.108349 1.587552
2.146267 -1.106117 1.585742
2.137287 -1.105283 1.608032
2.184928 -1.101623 1.612894
2.177797 -1.103528 1.591373
2.225595 -1.100337 1.581640
2.222116 -1.100634 1.581583
2.249829 -1.096848 1.597566
2.230907 -1.098517 1.599637
2.277393 -1.094278 1.596179
2.309112 -1.090548 1.603144
2.296571 -1.093324 1.584609
2.353974 -1.086523 1.598130
2.343419 -1.087610 1.597919
2.372053 -1.083279 1.610170
2.375360 -1.084339 1.596717
2.430570 -1.075075 1.609599
2.426453 -1.079205 1.585439
2.407728 -1.079291 1.603708
2.493887 -1.066297 1.602602
2.471879 -1.073566 1.582031
2.513578 -1.065847 1.587033
1.727915 -1.127533 1.766462
1.704856 -1.128965 1.761664
1.761383 -1.124901 1.776644
1.744921 -1.126371 1.770530
1.795656 -1.123352 1.755564
1.773827 -1.124316 1.770203
1.818654 -1.120123 1.781130
1.810534 -1.121319 1.770632
1.876877 -1.116628 1.762414
1.849347 -1.118183 1.771409
1.899508 -1.113793 1.774456
1.894291 -1.114380 1.772574
1.935333 -1.111366 1.765337
1.931376 -1.110393 1.781806
1.972862 -1.108505 1.758873
1.994606 -1.104481 1.781626
2.012843 -1.104851 1.756623
2.048310 -1.099331 1.778953
2.031198 -1.101381 1.775458
2.064231 -1.097648 1.780213
2.084627 -1.097990 1.755805
2.115279 -1.093748 1.768113
2.088920 -1.096666 1.764794
2.137264 -1.088971 1.787940
2.149747 -1.091509 1.756513
2.161063 -1.085915 1.789627
2.174706 -1.087286 1.768232
2.214854 -1.083690 1.759979
2.246868 -1.075877 1.777479
2.291782 -1.068183 1.774950
2.318574 -1.061273 1.780219
2.315562 -1.066576 1.763867
2.345444 -1.051624 1.788484
2.337013 -1.061915 1.763698
2.390682 -1.043660 1.772078
2.397599 -1.046946 1.759204
2.405519 -1.044269 1.759755
2.456438 -1.020332 1.774677
2.439705 -1.032766 1.759591
2.493697 -1.007288 1.775270
1.414193 -1.081282 2.087808
1.415294 -1.081250 2.082589
1.406408 -1.066825 2.086631
1.393774 -1.046003 2.096830
1.389949 -1.033477 2.092978
1.489792 -1.112583 2.087352
1.475481 -1.110600 2.092238
1.447317 -1.103493 2.084344
1.442511 -1.101301 2.095747
1.508599 -1.111673 2.088475
1.536069 -1.109649 2.088172
1.553167 -1.104461 2.100873
1.546545 -1.108949 2.085032
1.590909 -1.102347 2.083210
1.620178 -1.097083 2.085639
1.609623 -1.097355 2.091431
1.666859 -1.088075 2.087285
1.638579 -1.093766 2.085530
1.692050 -1.082229 2.090692
1.671776 -1.085055 2.094117
1.929227 -0.991970 2.160774
1.960444 -0.983555 2.149993
1.952950 -0.972720 2.171758
1.978905 -0.950300 2.173632
1.984554 -0.980564 2.139963
2.000468 -0.944110 2.164448
2.003056 -0.965291 2.146994
2.045592 -0.937765 2.150026
2.045992 -0.954237 2.139354
2.058854 -0.942423 2.143412
2.091548 -0.935046 2.139402
2.292462 -1.088721 0.434237
2.317308 -1.103012 0.428684
2.362438 -1.125507 0.443970
2.348825 -1.122674 0.450946
2.381753 -1.126950 0.429574
2.381058 -1.130043 0.457981
2.278376 -1.068144 0.428196
2.427020 -1.131811 0.449601
2.406608 -1.131696 0.454228
2.438639 -1.131602 0.437464
2.486349 -1.131013 0.454264
2.479663 -1.130540 0.431164
2.529480 -1.128849 0.435537
2.528430 -1.129160 0.461946
2.572669 -1.127362 0.450613
2.567633 -1.127435 0.434222
2.581888 -1.126819 0.428261
2.586858 -1.126718 0.442993
2.643989 -1.123930 0.438623
2.627000 -1.124803 0.433774
2.663116 -1.122999 0.453681
2.650702 -1.123613 0.450044
2.689110 -1.122061 0.428749
2.743364 -1.118308 0.448834
2.746188 -1.117779 0.461657
2.819373 -1.113096 0.456610
2.797811 -1.114322 0.461325
2.855035 -1.110786 0.444200
2.822851 -1.113101 0.446529
2.855356 -1.110628 0.450957
2.921251 -1.106014 0.448832
2.892039 -1.107887 0.456608
2.958323 -1.103822 0.428411
2.937722 -1.104747 0.453486
2.984930 -1.101499 0.439936
2.963700 -1.102784 0.457718
3.014541 -1.099009 0.440353
3.004690 -1.099505 0.458651
3.064208 -1.094574 0.437995
3.039027 -1.096897 0.438960
3.080581 -1.093170 0.442174
3.066156 -1.094396 0.439714
3.123684 -1.088922 0.428312
3.102553 -1.091154 0.450132
3.149187 -1.086200 0.435741
3.145332 -1.086874 0.449579
3.202897 -1.080000 0.453109
3.180241 -1.082718 0.447689
3.229259 -1.076241 0.453462
3.216695 -1.078022 0.452982
3.270422 -1.064118 0.610305
3.239489 -1.068267 0.634494
3.282807 -1.058304 0.636502
3.285739 -1.060347 0.609903
3.323380 -1.044534 0.637074
3.314141 -1.048778 0.632802
3.345093 -1.041363 0.607870
3.376464 -1.023360 0.622126
3.347916 -1.038194 0.617617
3.358022 -1.029573 0.633913
3.401142 -1.012441 0.612576
1.780382 -1.148568 1.089059
1.773833 -1.149349 1.071526
1.834398 -1.149322 1.079603
1.845354 -1.148662 1.089063
1.853465 -1.149006 1.072742
1.896002 -1.147937 1.060455
1.895255 -1.146807 1.088730
1.914849 -1.147054 1.065508
1.975071 -1.144741 1.072148
1.729090 -1.144054 1.065294
1.720920 -1.141781 1.063889
1.995171 -1.144105 1.060730
2.024911 -1.142154 1.061748
2.036096 -1.140871 1.077633
2.081705 -1.137950 1.067404
2.062150 -1.139410 1.066482
2.107573 -1.136065 1.066314
2.137087 -1.132737 1.090801
2.134622 -1.134253 1.063662
2.188112 -1.130340 1.076377
2.162962 -1.132127 1.071352
2.196503 -1.129285 1.087550
2.211866 -1.129665 1.061236
2.253272 -1.126393 1.076752
2.230998 -1.127014 1.090761
2.289127 -1.124892 1.058403
2.275138 -1.125044 1.076255
2.313559 -1.122557 1.075078
2.312278 -1.122731 1.073022
2.353641 -1.119497 1.085020
2.345970 -1.120907 1.065722
2.371949 -1.118056 1.089248
2.378262 -1.119048 1.059496
2.413021 -1.116561 1.059311
2.414334 -1.114905 1.091421
2.441686 -1.114326 1.061516
2.442679 -1.114122 1.064757
2.488395 -1.110679 1.069714
2.526129 -1.107925 1.065095
2.562925 -1.104761 1.075194
2.550946 -1.106049 1.064636
2.597481 -1.101117 1.090263
2.582111 -1.102784 1.083334
2.636137 -1.098089 1.087859
2.619478 -1.100253 1.068936
2.678923 -1.095313 1.078942
2.712074 -1.092478 1.085392
2.700605 -1.094688 1.060004
2.745434 -1.089622 1.090723
2.732879 -1.091594 1.072008
1.725927 -1.139791 1.422985
1.752096 -1.139172 1.431735
1.828849 -1.136981 1.424272
1.836022 -1.136266 1.439742
1.867517 -1.135233 1.418483
1.849854 -1.136605 1.406022
1.892463 -1.132993 1.431246
1.938298 -1.129247 1.436958
1.928375 -1.131017 1.417995
1.952877 -1.129771 1.407848
1.950249 -1.128873 1.427730
1.989842 -1.125476 1.438160
1.988940 -1.126852 1.414672
2.023982 -1.124583 1.415977
2.054888 -1.123007 1.407423
2.120801 -1.117792 1.424613
2.090575 -1.119385 1.430172
2.146355 -1.115921 1.426879
2.135673 -1.117380 1.415094
2.177975 -1.113349 1.431806
2.168906 -1.114824 1.419341
2.204779 -1.110858 1.438505
2.210410 -1.111562 1.421791
2.233077 -1.110128 1.416043
2.254351 -1.107953 1.422694
2.284724 -1.104482 1.440328
2.268217 -1.107140 1.418933
2.323868 -1.102948 1.416201
2.309026 -1.103209 1.430491
2.364624 -1.098239 1.436160
2.354735 -1.098889 1.438714
2.400946 -1.095923 1.428857
2.415871 -1.094797 1.429020
2.456017 -1.091929 1.425136
2.457548 -1.092505 1.414833
1.731824 -1.138507 1.488753
1.709903 -1.138999 1.490872
1.764612 -1.137813 1.479025
1.786585 -1.136692 1.486866
1.777190 -1.136675 1.498249
1.812841 -1.135109 1.499993
1.856739 -1.132615 1.498720
1.847241 -1.133017 1.503539
1.909150 -1.129509 1.485028
1.899579 -1.129340 1.504533
1.925947 -1.128126 1.487845
1.913150 -1.128184 1.507920
1.969439 -1.124225 1.499763
1.947467 -1.126393 1.488062
2.008416 -1.121564 1.487195
1.999878 -1.122615 1.479328
2.041435 -1.118924 1.492522
2.036183 -1.119576 1.486425
2.115436 -1.113163 1.504777
2.088648 -1.116675 1.475861
2.139591 -1.112541 1.489485
2.128856 -1.112423 1.501667
2.183848 -1.109388 1.487732
2.165046 -1.111238 1.480947
2.190747 -1.108734 1.490231
2.218704 -1.107362 1.476935
2.242725 -1.103902 1.502431
2.237886 -1.104847 1.493633
2.281905 -1.101344 1.492251
2.264832 -1.102814 1.490760
2.312728 -1.097750 1.509995
2.310425 -1.099324 1.488593
2.365661 -1.094919 1.487189
2.336518 -1.097838 1.479851
2.397303 -1.090498 1.509249
2.371505 -1.094382 1.487779
1.727674 -1.129397 1.722807
1.722613 -1.128871 1.743127
1.755247 -1.127246 1.733188
1.800634 -1.123770 1.739406
1.786087 -1.125448 1.723577
1.871876 -1.118485 1.743323
1.852372 -1.120001 1.742865
1.908606 -1.115199 1.747084
1.882948 -1.119316 1.721368
1.937568 -1.113531 1.736792
1.922468 -1.113760 1.749836
1.964560 -1.110245 1.746922
2.013246 -1.107578 1.721328
1.991969 -1.108530 1.736138
2.037551 -1.104665 1.728219
2.073831 -1.100149 1.742641
2.066688 -1.101400 1.735526
2.110882 -1.096607 1.744329
2.152538 -1.093220 1.738503
2.136114 -1.095065 1.736511
2.186414 -1.090139 1.735069
2.224366 -1.084317 1.747450
2.194993 -1.088472 1.741301
2.233307 -1.082291 1.753904
2.253783 -1.084053 1.724532
2.275013 -1.079808 1.731885
2.278267 -1.080723 1.724214
2.261642 -1.079656 1.746120
2.314716 -1.074223 1.730810
2.363409 -1.062435 1.740126
2.344702 -1.067395 1.737084
2.396310 -1.054031 1.739811
2.378582 -1.058341 1.742106
2.412994 -1.053133 1.727611
2.413044 -1.047554 1.743488
2.456437 -1.040439 1.728084
2.445753 -1.037507 1.743686
2.485249 -1.029281 1.730597
2.497835 -1.017122 1.748093
2.518379 -1.020817 1.722963
1.723184 -1.053751 2.139029
1.759982 -1.056022 2.115000
1.739890 -1.051033 2.135926
1.810914 -1.045910 2.108819
1.821384 -1.037997 2.120615
1.877376 -1.020645 2.133833
1.884638 -1.018806 2.133621
