-2.037118 1.080785 2.049566
-2.040162 1.073339 2.049142
-2.012497 1.171885 2.069092
-2.015162 1.198567 2.074826
-2.018888 1.186662 2.069666
-2.030968 1.225077 2.073579
-2.015064 1.264244 2.088152
-2.029410 1.295619 2.081773
-2.031069 1.272582 2.079857
-2.014966 1.326863 2.092732
-2.035849 1.323391 2.078310
-2.012669 1.344548 2.094089
-2.036690 1.359198 2.076391
-2.035314 1.391436 2.073709
-2.040119 1.380822 2.071687
-2.030378 1.408279 2.074227
-2.011837 1.456325 2.073380
-1.988886 0.968039 2.078563
-1.958701 0.970255 2.089873
-1.968908 0.975464 2.085204
-1.957824 1.014365 2.083667
-1.968615 1.005197 2.081016
-1.940265 0.977922 2.096438
-1.935981 0.992816 2.096276
-1.932945 1.008808 2.095134
-1.980546 1.027866 2.072411
-1.973477 1.047731 2.071831
-1.954795 1.021214 2.083685
-1.952113 1.077308 2.078860
-1.978210 1.076525 2.068083
-1.923646 1.032233 2.095810
-1.939111 1.026346 2.089651
-1.922793 1.045181 2.094318
-1.914831 1.050361 2.097549
-1.921757 1.078013 2.092781
-1.935413 1.073594 2.086553
-1.914291 1.056091 2.097398
-1.980674 1.103177 2.068833
-1.948938 1.099208 2.082008
-1.963894 1.093083 2.074735
-1.949701 1.136690 2.089786
-1.975798 1.131985 2.076112
-1.932377 1.100334 2.089833
-1.941584 1.100019 2.085520
-1.935027 1.126655 2.093880
-1.992193 1.155940 2.074807
-1.980730 1.146900 2.077391
-1.997354 1.169032 2.076490
-1.983227 1.208836 2.095797
-2.009741 1.191905 2.075821
-1.858034 1.152876 2.137610
-1.858433 1.172675 2.147329
-1.844712 1.154008 2.144488
-1.853056 1.159954 2.143480
-1.871415 1.205685 2.157480
-1.852416 1.182796 2.155443
-1.746020 0.983951 2.144061
-1.743838 1.005505 2.150865
-1.731953 0.992651 2.149721
-1.749566 1.022768 2.154804
-1.752883 1.044399 2.159525
-1.920631 1.228860 2.138354
-1.892065 1.231492 2.155194
-1.901802 1.216851 2.145243
-1.917926 1.258801 2.146386
-1.941429 1.248193 2.130624
-1.946163 1.270651 2.131163
-1.916134 1.254990 2.146790
-1.920436 1.279396 2.147640
-1.934792 1.286965 2.139517
-1.901842 1.291205 2.159115
-1.938494 1.306337 2.138985
-1.932123 1.319503 2.142798
-1.912533 1.325003 2.154103
-1.948760 1.349930 2.132665
-1.930133 1.346392 2.143130
-1.929999 1.358705 2.142079
-1.939413 1.395607 2.130318
-1.908073 1.375810 2.150305
-1.904001 1.395196 2.146897
-1.926971 1.408154 2.131124
-1.899796 1.409518 2.142429
-1.909232 1.421532 2.133097
-1.911699 1.423048 2.131446
-1.885573 1.439075 2.135350
-1.856401 1.416670 2.160331
-1.854664 1.451212 2.146076
-1.877549 1.439979 2.139187
-1.871708 1.458301 2.134002
-1.847152 1.440190 2.154284
-3.737994 0.103468 0.792542
-3.746361 0.099576 0.782262
-3.731137 0.119460 0.793775
-3.731053 0.131697 0.787406
-3.721144 0.169156 0.787351
-3.723150 0.158428 0.787968
-3.713221 0.186370 0.794169
-3.722199 0.192289 0.781550
-3.710941 0.220332 0.794165
-3.712636 0.211133 0.791962
-3.713414 0.243987 0.791292
-3.701243 0.226000 0.807031
-3.708738 0.310999 0.797627
-3.710546 0.303628 0.795582
-3.698313 0.314214 0.807381
-3.704423 0.326492 0.801438
-3.715922 0.351185 0.792779
-3.714019 0.336768 0.793091
-3.728778 0.390316 0.785439
-3.714705 0.364031 0.794701
-3.701833 0.342872 0.804443
-3.701123 0.369605 0.806176
-3.695408 0.378438 0.810769
-3.720393 0.414703 0.792748
-3.721952 0.397970 0.791368
-3.714921 0.421128 0.796956
-3.709210 0.446326 0.799911
-3.716726 0.428618 0.795676
-3.690837 0.438511 0.811030
-3.696886 0.449451 0.806688
-3.595306 0.598857 0.853748
-3.608192 0.601933 0.847891
-3.622060 0.642236 0.847083
-3.625063 0.634465 0.844156
-3.593954 0.630157 0.859724
-3.610107 0.630647 0.851628
-3.558623 0.596463 0.872921
-3.569678 0.616239 0.869993
-3.616601 0.672453 0.852192
-3.627392 0.653468 0.844828
-3.595909 0.666290 0.863283
-3.609735 0.646440 0.854364
-3.621978 0.681374 0.849196
-3.628899 0.702243 0.844084
-3.603533 0.694711 0.860486
-3.593505 0.728215 0.870813
-3.607179 0.734424 0.859560
-3.621125 0.760912 0.845753
-3.610172 0.763175 0.855527
-3.622096 0.771287 0.843379
-3.599618 0.774504 0.865855
-3.605639 0.796335 0.857180
-3.591117 0.823455 0.873638
-3.596676 0.826382 0.865488
-3.603917 0.850125 0.846250
-3.583623 0.862924 0.871090
-3.580921 0.872020 0.869579
-3.580417 0.894931 0.855261
-3.574183 0.900325 0.861114
-3.566264 0.907792 0.867533
-3.563895 0.930622 0.856742
-3.563650 0.955621 0.844448
-3.559383 0.959051 0.848124
-3.535238 0.985235 0.865576
-3.546796 0.997889 0.845908
-3.524142 1.004500 0.872071
-3.529779 1.015023 0.861511
-3.538467 1.029996 0.847817
-3.524191 1.046985 0.864805
-3.519081 1.054601 0.871731
-3.532341 1.065319 0.856171
-3.543401 1.086260 0.845588
-3.530413 1.094559 0.865725
-3.554768 1.141986 0.853712
-3.536368 1.128554 0.871350
-3.570349 1.177403 0.845951
-3.545455 1.169468 0.874366
-3.570796 1.179748 0.846138
-3.569242 1.195054 0.852411
-3.587719 1.264399 0.847901
-3.655436 0.099245 0.900774
-3.658657 0.091605 0.899194
-3.669059 0.111840 0.880536
-3.671987 0.113963 0.876080
-3.647997 0.139172 0.895678
-3.649473 0.150140 0.889474
-3.647538 0.170760 0.883479
-3.645679 0.177104 0.883752
-3.649346 0.188447 0.874833
-3.633884 0.195557 0.894788
-3.637538 0.206119 0.886571
-3.624643 0.231271 0.897124
-3.632297 0.241541 0.884699
-3.637353 0.240046 0.879411
-3.618653 0.263958 0.894297
-3.627083 0.270960 0.883339
-3.607838 0.288462 0.895490
-3.602129 0.313424 0.890569
-3.586209 0.328220 0.896220
-3.613225 0.336374 0.874779
-3.599597 0.340318 0.882969
-3.597591 0.368349 0.875578
-3.570799 0.337016 0.902663
-3.572863 0.367433 0.889650
-3.573148 0.390682 0.882431
-3.546879 0.387355 0.895764
-3.559153 0.415092 0.882202
-3.578249 0.398353 0.877957
-3.544137 0.393588 0.894985
-3.525393 0.405791 0.900631
-3.538939 0.408321 0.893523
-3.554268 0.425085 0.881848
-3.523095 0.446821 0.891910
-3.532605 0.434768 0.889639
-3.666130 -0.809112 0.945923
-3.677849 -0.787145 0.937477
-3.671662 -0.772384 0.954327
-3.686287 -0.739612 0.948671
-3.708516 -0.677778 0.954757
-3.684247 -0.727931 0.957551
-3.698985 -0.712982 0.945109
-3.702336 -0.680504 0.961042
-3.709331 -0.672812 0.956969
-3.724087 -0.635541 0.957553
-3.722255 -0.611153 0.967122
-3.747226 -0.582856 0.942749
-3.740648 -0.608546 0.946460
-3.753674 -0.547976 0.937664
-3.746053 -0.575114 0.944675
-3.728728 -0.574179 0.964535
-3.449501 0.065346 1.119191
-3.458570 0.100065 1.098568
-3.442741 0.097827 1.115754
-3.442603 0.114881 1.111586
-3.432252 0.123894 1.120089
-3.442084 0.142445 1.104827
-3.447776 0.156347 1.094398
-3.417224 0.195999 1.110325
-3.401016 0.207105 1.123443
-3.399433 0.233263 1.120513
-3.399706 0.238332 1.119341
-3.415063 0.244035 1.101753
-3.393327 0.291720 1.111894
-3.396968 0.295319 1.105812
-3.399344 0.302061 1.098852
-3.385775 0.322055 1.105776
-3.384500 0.330257 1.102259
-3.383183 0.339990 1.097709
-3.372474 0.347555 1.109993
-3.367456 0.372852 1.103254
-3.355099 0.385309 1.119411
-3.357515 0.394594 1.107769
-3.347065 0.422542 1.107170
-3.340564 0.438054 1.106976
-3.330367 0.447346 1.119706
-3.542640 -0.784387 1.261408
-3.535936 -0.771213 1.278995
-3.552345 -0.740105 1.252264
-3.547883 -0.765514 1.253808
-3.548808 -0.711963 1.266271
-3.554417 -0.673744 1.259146
-3.544919 -0.692408 1.276138
-3.551597 -0.665435 1.263945
-3.541852 -0.659659 1.282259
-3.554873 -0.639554 1.253666
-3.553467 -0.627337 1.253242
-3.544386 -0.618582 1.269084
-3.537952 -0.608991 1.278888
-3.542547 -0.594832 1.264270
-3.528330 -0.575799 1.281023
-3.542064 -0.567391 1.252249
-3.012458 1.019147 1.325316
-2.999537 1.027359 1.335605
-3.000606 1.036636 1.331767
-2.993609 1.052005 1.335007
-3.003092 1.079489 1.318067
-2.984814 1.069694 1.340724
-2.992767 1.093432 1.326020
-2.979769 1.094314 1.339979
-2.991725 1.125254 1.319082
-2.992110 1.135216 1.316728
-2.976818 1.121686 1.334511
-2.980914 1.122003 1.330782
-2.979028 1.173480 1.322172
-2.954430 1.200677 1.334327
-2.972519 1.191928 1.323003
-2.973733 1.205102 1.319771
-2.959108 1.224223 1.325382
-2.974120 1.219551 1.316192
-2.956109 1.256795 1.319768
-2.961201 1.258115 1.316062
-2.945247 1.213518 1.337327
-2.936354 1.233362 1.338177
-2.941921 1.243101 1.332272
-2.948033 1.265056 1.323312
-2.915747 1.263856 1.344933
-2.937681 1.286910 1.324629
-2.943772 1.285085 1.321118
-2.917593 1.279285 1.339842
-2.897866 1.319387 1.339545
-2.910427 1.332230 1.328889
-2.884401 1.333783 1.342792
-2.927700 1.340187 1.317660
-2.891845 1.337987 1.338183
-2.920444 1.365277 1.320064
-2.889862 1.382542 1.335743
-2.915456 1.379347 1.323037
-2.926599 1.416347 1.320565
-2.890246 1.410690 1.336049
-2.919769 1.403448 1.322477
-2.933268 1.448503 1.319567
-2.941797 1.441902 1.315798
-2.897663 1.446522 1.334375
-2.919851 1.442335 1.324796
-2.884083 1.336485 1.342362
-2.867651 1.380851 1.344963
-2.885603 1.385729 1.337515
-2.875796 1.402460 1.341640
-2.882730 1.452672 1.340863
-3.438023 -0.781656 1.457546
-3.439306 -0.771249 1.455719
-3.438408 -0.761048 1.456135
-3.429125 -0.741480 1.466517
-3.435848 -0.729010 1.455724
-3.433894 -0.720033 1.456918
-3.427195 -0.709242 1.464178
-3.426276 -0.704376 1.464551
-3.436932 -0.679659 1.446812
-3.429558 -0.667921 1.454192
-3.435604 -0.662952 1.445273
-3.414467 -0.650433 1.469114
-3.427187 -0.615107 1.444775
-3.408875 -0.633998 1.470814
-3.421118 -0.637215 1.457326
-3.417783 -0.587352 1.447711
-3.398544 -0.588792 1.466730
-3.392244 -0.573842 1.468669
-3.416814 -0.578838 1.446129
-3.413558 -0.550526 1.442168
-3.385162 -0.549576 1.470412
-3.427330 -0.784083 1.471069
-3.411218 -0.793447 1.487156
-3.410872 -0.776877 1.488509
-3.422925 -0.744026 1.474539
-3.416462 -0.753645 1.481977
-3.409431 -0.751934 1.489035
-3.397998 -0.727249 1.501420
-3.420835 -0.710684 1.472734
-3.413605 -0.702648 1.480391
-3.409191 -0.684552 1.483278
-3.402220 -0.666999 1.489208
-3.392008 -0.623936 1.486408
-3.386760 -0.647327 1.501902
-3.376949 -0.620886 1.500980
-3.383430 -0.622350 1.494772
-3.364034 -0.583305 1.500267
-3.379158 -0.597965 1.489702
-3.373402 -0.577753 1.488835
-3.372164 -0.562839 1.486727
-3.374149 -0.572290 1.486823
-3.357833 -0.557112 1.500049
-2.865325 -0.802923 1.495658
-2.876836 -0.812293 1.479044
-2.854950 -0.790403 1.501567
-2.813625 -0.743487 1.524828
-2.824352 -0.747138 1.503172
-2.807769 -0.729562 1.511529
-3.331242 -0.522859 1.518283
-3.351498 -0.538900 1.502611
-3.333896 -0.500850 1.512011
-3.346527 -0.514591 1.502791
-3.323549 -0.503666 1.521902
-3.334702 -0.477280 1.507287
-3.323911 -0.481753 1.517850
-3.315031 -0.456097 1.521270
-3.307029 -0.450674 1.527571
-3.305165 -0.436780 1.526349
-3.305816 -0.428674 1.523933
-3.301916 -0.397105 1.520546
-3.307057 -0.398456 1.515750
-3.292374 -0.401066 1.531136
-3.298308 -0.374476 1.517150
-3.283673 -0.339935 1.523457
-3.285972 -0.323244 1.512630
-3.275417 -0.304682 1.521269
-3.274740 -0.290276 1.518552
-3.270661 -0.276013 1.521773
-3.266919 -0.251649 1.526563
-3.275000 -0.249383 1.509401
-3.272575 -0.783439 1.576054
-3.273067 -0.770037 1.575152
-3.284428 -0.760117 1.570715
-3.296940 -0.756965 1.566588
-3.277397 -0.736080 1.573467
-3.284160 -0.709497 1.572283
-3.267498 -0.701767 1.577385
-3.287775 -0.683631 1.571086
-3.299524 -0.658993 1.566027
-3.271380 -0.646568 1.578239
-3.270875 -0.672490 1.577521
-3.282257 -0.619393 1.571843
-3.293234 -0.632513 1.566687
-3.272091 -0.610123 1.579421
-3.284661 -0.594102 1.570611
-3.276448 -0.554937 1.574700
-3.240210 -0.795649 1.587613
-3.242732 -0.774901 1.585250
-3.216981 -0.791334 1.593926
-3.212349 -0.792524 1.595335
-3.245873 -0.749865 1.583140
-3.246747 -0.747927 1.582809
-3.207115 -0.766675 1.595163
-3.202995 -0.751703 1.595862
-3.244050 -0.716237 1.583916
-3.238347 -0.734058 1.585011
-3.215295 -0.731037 1.591932
-3.229447 -0.717247 1.588234
-3.218689 -0.705587 1.591949
-3.244172 -0.687157 1.585664
-3.254141 -0.697671 1.581668
-3.219866 -0.677482 1.595380
-3.234251 -0.700798 1.587696
-3.239558 -0.665503 1.589671
-3.248193 -0.618569 1.593469
-3.265202 -0.627749 1.582755
-3.250763 -0.585320 1.595561
-3.255795 -0.580040 1.592341
-3.265369 -0.575726 1.585032
-2.492916 1.479033 1.607313
-2.500887 1.472217 1.600101
-2.474846 1.474482 1.622391
-2.468755 1.476912 1.627622
-2.484060 1.510579 1.615137
-2.484324 1.522461 1.614672
-2.475599 1.495941 1.622486
-2.501587 1.551370 1.597410
-2.480101 1.542985 1.616944
-2.473125 1.549570 1.622679
-2.473090 1.582513 1.618935
-2.489183 1.591646 1.601719
-2.473362 1.595529 1.616596
-2.472445 1.600852 1.616576
-2.466234 1.627916 1.618467
-2.479550 1.620619 1.606034
-2.462715 1.643278 1.619473
-2.996943 0.210088 1.630927
-2.987559 0.236426 1.636829
-2.976141 0.234126 1.656153
-2.992115 0.238774 1.628215
-2.966174 0.289388 1.653594
-2.974317 0.297714 1.637796
-2.965723 0.302785 1.650240
-2.965360 0.328661 1.644090
-2.973003 0.342267 1.627957
-2.961670 0.349254 1.646119
-2.967735 0.383556 1.631293
-2.957353 0.399827 1.647351
-2.961777 0.418123 1.638478
-2.954207 0.429956 1.648978
-2.965508 0.433043 1.631329
-2.950347 0.446479 1.651786
-2.630191 -0.498857 1.755780
-2.628049 -0.476031 1.757717
-2.628290 -0.484645 1.757491
-2.632050 -0.446312 1.766624
-2.631064 -0.392352 1.769408
-2.633920 -0.406778 1.772373
-2.620640 -0.376540 1.754360
-2.638087 -0.372339 1.781241
-2.625367 -0.347636 1.762144
-2.636313 -0.358867 1.779486
-2.631911 -0.312522 1.777971
-2.627116 -0.323464 1.766032
-2.997139 -0.286886 1.758773
-2.953940 -0.294763 1.780440
-2.977142 -0.280575 1.768124
-2.972725 -0.237326 1.766090
-2.981779 -0.257654 1.763399
-2.959810 -0.216924 1.773025
-2.972255 -0.205220 1.764560
-2.969760 -0.178895 1.765785
-2.980495 -0.183719 1.759022
-2.941191 -0.197976 1.784044
-2.967502 -0.148824 1.766667
-2.957443 -0.171040 1.773678
-2.953987 -0.121345 1.773689
-2.976347 -0.128170 1.759777
-2.953198 -0.105308 1.772711
-2.973301 -0.083012 1.757031
-2.959228 -0.075453 1.765055
-2.968544 -0.056315 1.755575
-2.941015 -0.076074 1.777067
-2.935238 -0.057607 1.777845
-2.620527 -0.265976 1.761312
-2.624572 -0.290667 1.766990
-2.625185 -0.251968 1.777855
-2.620733 -0.254641 1.763464
-2.620520 -0.222987 1.779151
-2.605957 -0.199002 1.755781
-2.584326 -0.158283 1.782661
-2.698640 0.462206 1.869353
-2.690399 0.478562 1.867324
-2.677263 0.487310 1.869382
-2.679590 0.497279 1.863510
-2.686001 0.509768 1.855136
-2.668465 0.492966 1.870233
-2.663684 0.511620 1.862927
-2.649176 0.515710 1.866299
-2.651908 0.548325 1.849082
-2.663183 0.528478 1.854615
-2.664682 0.537781 1.849512
-2.616409 0.532419 1.871848
-2.613141 0.544522 1.867535
-2.631885 0.526313 1.867969
-2.601329 0.548375 1.871400
-2.638141 0.563447 1.847352
-2.634734 0.561342 1.849863
-2.601112 0.580740 1.855890
-2.560484 0.580325 1.877403
-2.592025 0.597137 1.851097
-2.568048 0.585051 1.870429
-2.571193 0.587555 1.867185
-2.557015 0.617265 1.856436
-2.539520 0.616249 1.865758
-2.526876 0.644336 1.852526
-2.511634 0.622102 1.875205
-2.499029 0.666321 1.848421
-2.456043 0.675285 1.857830
-2.454124 0.696864 1.848225
-2.440012 0.667342 1.871645
-2.420841 0.681420 1.873460
-2.432495 0.684491 1.865116
-2.443660 0.689360 1.856546
-2.430854 0.705225 1.855606
-2.409489 0.689852 1.875655
-2.255055 1.031401 1.906730
-2.332338 1.226326 1.883083
-2.317023 1.221809 1.897424
-2.300718 1.233114 1.908927
-2.298868 1.242096 1.908156
-2.322773 1.251973 1.882305
-2.300865 1.258611 1.900187
-2.285383 1.271068 1.908551
-2.298893 1.294735 1.881971
-2.302727 1.291196 1.880541
-2.288060 1.272760 1.905607
-2.280709 1.282745 1.905349
-2.273676 1.309432 1.894638
-2.260011 1.334405 1.891062
-2.247893 1.335323 1.901913
-2.232506 1.364996 1.905011
-2.232924 1.369633 1.903496
-2.244701 1.389172 1.887058
-2.240664 1.414906 1.886245
-2.216879 1.414882 1.909482
-2.219830 1.417542 1.905959
-2.232628 1.436471 1.889716
-2.233515 1.454247 1.883625
-2.203364 1.455613 1.909692
-2.225596 1.442828 1.894146
-2.173520 0.984482 1.963697
-2.180560 0.964984 1.952690
-2.172747 0.999042 1.967611
-2.187779 0.990335 1.950950
-2.193955 1.002303 1.948657
-2.184402 1.012511 1.960830
-2.200587 1.079542 1.964447
-2.208760 1.082966 1.959205
-2.197240 1.048233 1.958940
-2.186080 1.040514 1.966409
-2.198716 1.053888 1.959154
-2.145033 0.712954 2.012316
-2.153223 0.734512 2.011848
-2.136812 0.768829 2.026292
-2.161938 0.740123 2.008626
-2.176400 0.800350 2.005264
-2.150984 0.790820 2.020767
-2.167253 0.774254 2.010552
-2.138501 0.803875 2.030167
-2.155656 0.816568 2.017479
-2.114624 0.717477 2.026085
-2.113493 0.732113 2.028371
-2.129588 0.759322 2.027201
-2.120735 0.762388 2.031398
-2.133680 0.813995 2.032649
-2.140309 0.860131 2.020601
-2.137762 0.879403 2.015543
-2.127864 0.851483 2.030987
-2.132386 0.870980 2.022499
-2.116111 0.893036 2.028083
-2.123950 0.897824 2.020375
-2.115562 0.907505 2.024660
-2.125681 0.929172 2.011426
-2.112408 0.956821 2.022510
-2.100326 0.934169 2.034804
-2.064428 0.591710 2.062125
-2.055504 0.589478 2.066466
-2.045982 0.619398 2.063448
-2.070783 0.632627 2.049713
-2.035764 0.640744 2.065465
-2.080529 0.694870 2.040398
-2.054884 0.673769 2.053454
-2.068073 0.668906 2.046645
-2.059978 0.681976 2.050697
-2.054030 0.705313 2.054316
-2.075431 0.737613 2.046189
-2.078375 0.763067 2.049797
-2.100573 0.765201 2.040457
-2.059090 0.707678 2.051725
-2.050419 0.730448 2.057369
-2.028846 0.707701 2.066950
-2.056565 0.748485 2.056146
-2.059946 0.759112 2.056255
-2.125879 0.801139 2.036942
-2.106143 0.769916 2.039155
-2.086056 0.785661 2.050677
-2.082504 0.792797 2.053503
-2.120854 0.808692 2.039294
-2.116308 0.819299 2.041373
-2.089279 0.827718 2.053189
-2.098671 0.811267 2.048985
-2.053594 0.771707 2.060913
-2.069734 0.780876 2.056495
-2.050666 0.826098 2.066822
-2.071815 0.814901 2.059971
-2.112899 0.844679 2.041084
-2.108284 0.859905 2.041246
-2.073625 0.849502 2.059481
-2.100671 0.840298 2.047445
-2.111018 0.878070 2.036253
-2.078076 0.888212 2.054589
-2.100410 0.865023 2.044583
-2.061841 0.842464 2.063381
-2.063105 0.856310 2.062610
-2.067931 0.878008 2.060032
-2.052037 0.879191 2.065391
-2.073631 0.909788 2.055085
-2.088428 0.934452 2.042417
-2.087892 0.947899 2.041693
-2.056276 0.903459 2.062105
-2.062860 0.948477 2.054705
-2.063153 0.928142 2.056555
-2.035010 0.951543 2.064785
-1.982454 0.459381 2.047983
-1.953194 0.486606 2.055923
-1.960713 0.479169 2.054003
-1.975265 0.462526 2.037337
-1.951268 0.491010 2.063730
-1.999262 1.218130 2.088648
-2.010631 1.221760 2.083111
-2.000063 1.256657 2.095810
-2.010258 1.275308 2.092297
-2.005221 1.384275 2.095661
-2.004475 1.415164 2.090439
-1.995791 1.433992 2.091176
-1.993909 1.441758 2.089755
-2.000590 1.451069 2.082365
-3.570008 1.090807 0.813734
-3.575959 1.122678 0.817478
-3.567799 1.140789 0.836240
-3.584198 1.170550 0.825177
-3.586257 1.152146 0.815669
-3.590628 1.195791 0.825056
-3.593575 1.189776 0.819448
-3.571888 1.150528 0.834395
-3.644434 1.312179 0.816592
-3.657740 1.334090 0.828618
-3.583783 1.236842 0.842809
-3.593775 1.236545 0.830491
-3.607082 1.239114 0.814842
-3.598442 1.247379 0.827378
-3.607283 1.259102 0.819599
-3.623486 1.298191 0.826340
-3.605307 1.273792 0.827140
-3.641668 1.330425 0.842443
-3.705974 1.392771 0.828575
-3.674819 1.356249 0.830217
-3.665973 1.359357 0.842848
-3.673048 1.344847 0.821422
-3.679029 1.371420 0.838988
-3.701616 1.387793 0.829170
-3.706139 1.413865 0.840256
-3.714250 1.421171 0.837224
-3.721256 1.451547 0.842795
-3.263477 0.836759 1.128821
-3.225192 0.860494 1.145414
-3.237325 0.892944 1.132839
-3.203779 0.879195 1.153028
-3.222681 0.888869 1.141018
-3.211630 0.910695 1.142661
-3.225958 0.902613 1.136703
-3.219053 0.935899 1.134140
-3.209916 0.927084 1.140719
-3.219671 0.955894 1.129970
-3.194643 0.916545 1.151672
-3.195566 0.952179 1.145094
-3.203271 0.973153 1.136387
-3.205613 1.006245 1.129845
-3.179028 0.965909 1.153525
-3.180212 0.976562 1.150805
-3.179478 0.996716 1.146498
-3.190659 1.020315 1.135898
-3.161061 1.007588 1.155408
-3.162656 1.013208 1.153154
-3.171855 1.051797 1.141302
-3.190000 1.044052 1.133347
-3.162820 1.041897 1.147996
-3.200950 1.056316 1.127073
-3.198964 1.072389 1.127311
-3.169935 1.058773 1.142161
-3.157157 1.074102 1.149486
-3.187854 1.100062 1.133090
-3.189696 1.090887 1.131726
-3.191908 1.114187 1.132079
-3.157217 1.087053 1.150015
-3.156572 1.109017 1.153138
-3.172786 1.135903 1.143883
-3.194378 1.136259 1.131424
-3.169825 1.122771 1.144945
-3.178594 1.153354 1.140879
-3.191324 1.172721 1.132350
-3.169508 1.165300 1.146239
-3.196553 1.206153 1.125721
-3.171637 1.187536 1.143760
-3.156222 1.206641 1.154809
-3.259155 0.503166 1.187311
-3.263440 0.521076 1.168832
-3.257541 0.529630 1.171663
-3.248835 0.531370 1.182512
-3.235136 0.553633 1.187174
-3.236432 0.592115 1.162905
-3.219218 0.609489 1.182624
-3.222886 0.626890 1.171944
-3.225038 0.636247 1.166344
-3.211318 0.653193 1.186231
-3.217521 0.674651 1.175054
-3.209137 0.690546 1.185733
-3.215291 0.706038 1.175334
-3.210815 0.718707 1.178811
-3.203880 0.736313 1.183879
-3.211229 0.747145 1.172955
-3.222295 0.760405 1.159180
-3.207342 0.783286 1.171548
-3.213569 0.795373 1.163963
-3.205786 0.804216 1.169566
-3.201052 0.798870 1.175146
-3.181684 0.825644 1.183910
-3.178150 0.857264 1.175435
-3.179947 0.855842 1.174538
-3.178276 0.879797 1.169720
-3.176648 0.894027 1.167401
-3.171168 0.870164 1.177016
-3.171173 0.912303 1.168315
-3.157289 0.913607 1.181418
-3.175388 0.938803 1.160967
-3.176636 0.945592 1.158916
-3.147979 0.931033 1.188179
-3.160335 0.954233 1.171745
-3.158854 0.974317 1.167604
-3.161729 0.985154 1.161632
-3.155122 1.012289 1.158246
-3.142554 1.028420 1.162735
-3.135539 0.987846 1.183316
-3.127954 1.012891 1.179878
-3.178584 0.456300 1.356207
-3.168281 0.478523 1.356255
-3.167362 0.488084 1.351536
-3.153864 0.542516 1.352341
-3.153979 0.546166 1.350587
-3.149877 0.560701 1.353425
-3.148007 0.574754 1.350056
-3.147812 0.476153 1.388565
-3.152486 0.474137 1.383092
-3.141699 0.514255 1.386869
-3.137007 0.515573 1.393519
-3.455572 -0.787913 1.433364
-3.454941 -0.743833 1.430421
-3.451147 -0.749624 1.437504
-3.456185 -0.719701 1.424904
-3.447912 -0.715055 1.437028
-3.445334 -0.683108 1.436062
-3.455390 -0.657697 1.421234
-3.453279 -0.612128 1.418585
-3.456896 -0.596488 1.411640
-3.442704 -0.601312 1.426440
-3.449356 -0.592706 1.418241
-3.447679 -0.575947 1.415929
-3.423223 -0.566681 1.436819
-3.428071 -0.551343 1.428018
-2.862707 0.607368 1.670813
-2.864322 0.588595 1.680272
-2.876451 0.600992 1.664367
-2.885026 0.597846 1.659851
-2.849100 0.612594 1.678590
-2.829850 0.640554 1.679200
-2.839622 0.634696 1.674478
-2.816109 0.644041 1.688300
-2.827690 0.667372 1.668121
-2.810210 0.669347 1.680245
-2.810818 0.697527 1.667605
-2.804756 0.687225 1.676451
-2.822725 0.695846 1.660116
-2.783096 0.691978 1.689028
-2.808147 0.709146 1.665165
-2.784970 0.727270 1.672511
-2.774259 0.746384 1.671091
-2.751753 0.734511 1.690071
-2.763331 0.765432 1.668811
-2.751422 0.750511 1.682841
-2.731932 0.759006 1.689754
-2.734700 0.798395 1.669630
-2.711966 0.784047 1.687896
-2.732603 0.805519 1.667983
-2.705046 0.821419 1.674933
-2.729154 0.823138 1.663587
-2.687258 0.815486 1.685264
-2.707529 0.852730 1.664208
-2.715770 0.853674 1.660377
-2.682398 0.837900 1.678599
-2.700405 0.856469 1.666217
-2.665869 0.861335 1.678304
-2.644928 0.861365 1.686263
-2.669800 0.884227 1.672659
-2.662023 0.868219 1.678297
-2.674441 0.920655 1.665374
-2.681442 0.923692 1.661585
-2.646760 0.918317 1.677918
-2.665433 0.897108 1.672382
-2.672899 0.942438 1.660796
-2.638794 0.945758 1.676768
-2.663616 0.933852 1.667776
-2.637701 0.889496 1.684910
-2.920741 -0.557337 1.754969
-2.900809 -0.555515 1.761706
-2.863446 -0.556028 1.770673
-2.827503 -0.566528 1.769905
-2.846599 -0.562197 1.769443
-2.797845 -0.590602 1.757905
-2.774404 -0.587693 1.762822
-2.813550 -0.565742 1.772486
-2.782510 -0.565615 1.777473
-2.756734 -0.593930 1.758621
-2.708662 -0.580225 1.763850
-2.701622 -0.574144 1.768061
-2.706116 -0.559482 1.783644
-2.676211 -0.564047 1.763860
-2.687267 -0.561734 1.772763
-2.663050 -0.563312 1.753447
-2.077009 1.137645 2.035660
-2.043615 1.109400 2.047361
-2.069646 1.090370 2.038494
-2.016333 1.110860 2.056704
-2.029621 1.100354 2.051560
-2.057759 1.145896 2.044178
-2.071570 1.127501 2.037468
-2.016551 1.125471 2.058154
-2.040313 1.129377 2.049890
-2.078388 1.205277 2.045593
-2.082589 1.187321 2.039342
-2.044143 1.167971 2.053725
-2.072397 1.151820 2.038788
-2.036848 1.152316 2.054221
-2.014657 1.166022 2.066589
-2.063152 1.207195 2.053617
-2.059216 1.188479 2.050989
-2.038056 1.181883 2.059286
-2.082571 1.223329 2.045720
-2.079649 1.252054 2.050577
-2.086251 1.270551 2.046116
-2.065659 1.252158 2.059117
-2.073525 1.271152 2.054691
-2.077734 1.287742 2.051244
-2.097851 1.293613 2.036784
-2.087148 1.316746 2.042788
-2.088939 1.317791 2.041360
-2.065641 1.276103 2.059178
-2.053468 1.296803 2.066613
-2.061841 1.305283 2.061023
-2.071022 1.331972 2.053166
-2.089468 1.339703 2.038806
-2.077629 1.361909 2.045588
-2.069963 1.352137 2.052222
-2.065106 1.359309 2.055188
-2.063251 1.377060 2.054585
-2.071660 1.396945 2.045515
-2.056098 1.423599 2.051553
-2.036059 1.425743 2.066468
-2.058942 1.451475 2.039896
-2.072028 1.429032 2.037859
-2.032174 1.458772 2.057936
-2.005210 1.018835 2.065826
-2.001780 1.064956 2.060867
-2.003637 1.076098 2.059695
-1.991598 1.105196 2.065174
-2.004655 1.095018 2.059968
-1.994200 1.117219 2.065352
-2.009024 1.151472 2.065857
-1.893203 1.315744 2.164333
-1.856223 1.214141 2.168826
-1.869696 1.216002 2.162292
-1.837952 1.226234 2.183162
-1.856356 1.267568 2.183039
-1.882582 1.268559 2.168258
-1.844854 1.256353 2.187274
-1.815057 1.218733 2.192077
-1.856779 1.278708 2.183730
-1.882432 1.302562 2.170588
-1.846731 1.294514 2.189501
-1.862931 1.307658 2.180827
-1.880682 1.314240 2.171057
-1.844846 1.308929 2.190078
-1.851832 1.317777 2.185925
-1.892159 1.344647 2.163371
-1.864947 1.348572 2.175862
-1.874315 1.353482 2.170698
-1.835666 1.346676 2.189851
-1.857353 1.390145 2.169796
-1.872308 1.386760 2.164214
-1.877174 1.366634 2.167632
-1.823297 1.395819 2.182093
-1.842146 1.383239 2.178095
-1.821428 1.393624 2.183481
-1.834277 1.409289 2.172429
-1.832378 1.433229 2.163910
-1.813089 1.421001 2.176517
-1.783486 1.423279 2.187036
-1.794049 1.453354 2.171494
-1.765439 1.429461 2.191733
-1.790887 1.448868 2.174458
-1.750628 1.451861 2.190100
-1.732122 1.208717 2.225638
-1.703753 1.195693 2.235029
-1.705414 1.206716 2.238688
-1.693541 1.167954 2.228382
-1.647034 1.146826 2.236619
-1.684455 1.198701 2.245619
-1.639680 1.179437 2.254809
-1.629345 1.124349 2.227555
-1.625682 1.151395 2.243920
-1.766169 1.258932 2.224279
-1.728674 1.219328 2.230922
-1.715267 1.218391 2.237067
-1.732031 1.250562 2.237715
-1.754256 1.253400 2.228525
-1.710926 1.251673 2.246317
-1.712875 1.267825 2.246981
-1.688883 1.221799 2.251253
-1.695961 1.246466 2.253127
-1.749114 1.276004 2.233235
-1.752015 1.299778 2.231575
-1.712925 1.275183 2.246941
-1.720963 1.280120 2.243268
-1.733180 1.303773 2.237616
-1.754391 1.321078 2.227434
-1.714385 1.308419 2.242103
-1.720844 1.316408 2.238578
-1.683516 1.283346 2.255134
-1.678538 1.295344 2.254193
-1.692789 1.312260 2.247244
-1.658512 1.319979 2.254405
-1.728890 1.363471 2.225695
-1.709801 1.358754 2.232375
-1.721121 1.342749 2.232787
-1.701084 1.385228 2.229919
-1.720847 1.377095 2.225147
-1.726695 1.369876 2.224833
-3.709685 0.461164 0.798240
-3.732593 0.460188 0.782601
-3.720860 0.512432 0.785332
-3.698896 0.486770 0.801270
-3.677330 0.494327 0.811373
-3.685261 0.506945 0.806368
-3.711136 0.525648 0.790560
-3.707293 0.548141 0.791846
-3.706089 0.566953 0.792233
-3.680678 0.549147 0.807364
-3.680141 0.521372 0.808034
-3.700209 0.553612 0.796056
-3.717215 -0.810886 0.854188
-3.783683 -0.705503 0.851484
-3.777320 -0.709465 0.855794
-3.769912 -0.699068 0.872974
-3.798067 -0.691827 0.845272
-3.796373 -0.687795 0.850253
-3.833155 -0.623594 0.856779
-3.838414 -0.635696 0.844468
-3.821631 -0.654396 0.848436
-3.818766 -0.639095 0.860999
-3.862143 -0.580683 0.854598
-3.840634 -0.598450 0.863133
-3.852387 -0.583896 0.860929
-3.876761 -0.551833 0.848963
-3.858256 -0.567959 0.861382
-3.846159 -0.553861 0.872574
-3.722926 -0.794392 0.857269
-3.727757 -0.778091 0.863476
-3.743788 -0.747805 0.865836
-3.750785 -0.742983 0.860661
-3.735529 -0.765947 0.861827
-3.762805 -0.735318 0.851685
-3.832031 -0.510199 0.877279
-3.825197 -0.545773 0.884630
-3.829972 -0.532383 0.880927
-3.807818 -0.500493 0.887068
-3.819470 -0.501902 0.881916
-3.792738 -0.499641 0.895373
-3.793012 -0.493548 0.893715
-3.778166 -0.462687 0.893910
-3.769989 -0.446973 0.893327
-3.791604 -0.452092 0.880052
-3.768292 -0.359599 0.877117
-3.767133 -0.470966 0.905557
-3.757181 -0.449526 0.905522
-3.747188 -0.417372 0.901095
-3.767235 -0.396953 0.878833
-3.740481 -0.397932 0.901633
-3.740409 -0.372142 0.897192
-3.746438 -0.369278 0.891803
-3.730596 -0.360380 0.903452
-3.755635 -0.357281 0.885647
-3.760143 -0.341909 0.882957
-3.755970 -0.299725 0.887461
-3.757552 -0.315894 0.885689
-3.732900 -0.312141 0.901797
-3.509310 0.313626 0.962995
-3.492115 0.340898 0.958469
-3.478855 0.356919 0.959409
-3.471112 0.371896 0.957248
-3.474565 0.380165 0.947652
-3.402523 1.481478 1.064106
-3.392087 1.506111 1.074554
-3.416234 1.509338 1.065433
-3.435242 1.539041 1.066052
-3.392036 1.541848 1.082652
-3.416236 1.536493 1.072600
-3.435511 1.560156 1.071812
-3.443532 1.573343 1.072520
-3.417058 1.558674 1.078027
-3.409068 1.568263 1.082589
-3.372009 1.463948 1.074135
-3.366104 1.485752 1.081119
-3.351952 1.482731 1.087734
-3.347581 1.490945 1.090029
-3.365053 1.512462 1.086006
-3.385674 1.501521 1.075774
-3.356922 1.511867 1.089343
-3.354336 1.521276 1.091333
-3.370438 1.529572 1.087034
-3.382847 1.534225 1.083587
-3.371463 1.568147 1.093587
-3.464976 1.595677 1.070493
-3.485767 1.619102 1.066822
-3.491402 1.623846 1.064646
-3.457814 1.622180 1.078762
-3.478401 1.646987 1.073110
-3.437665 1.596483 1.080350
-3.452569 1.607379 1.078084
-3.419219 1.602855 1.087496
-3.387211 1.591660 1.093624
-3.515889 -0.095747 1.112582
-3.509937 -0.094340 1.117590
-3.516794 -0.073698 1.104798
-3.502080 -0.064100 1.116423
-3.496365 -0.045112 1.117666
-3.509870 -0.017747 1.095560
-3.489051 -0.019081 1.117144
-3.489489 -0.004751 1.110631
-3.473163 0.014928 1.117836
-3.469945 0.022007 1.117757
-3.471895 0.038021 1.108075
-3.470379 0.049391 1.104254
-3.389652 -0.054577 1.245735
-3.393256 -0.022000 1.234776
-3.392562 -0.013065 1.234709
-3.395510 0.000922 1.221218
-3.386614 0.017453 1.236073
-3.385715 0.030908 1.229156
-3.381764 0.037719 1.234668
-3.378301 0.048661 1.236192
-3.373825 0.078526 1.224810
-3.362934 0.099381 1.236498
-3.369751 0.095110 1.223552
-3.356320 0.112419 1.242918
-3.358553 0.116661 1.235343
-3.340806 0.153540 1.250432
-3.350863 0.166096 1.221036
-3.338889 0.181520 1.236188
-3.337923 0.198728 1.229781
-3.509146 -0.539141 1.296903
-3.505133 -0.532614 1.300730
-3.500276 -0.510360 1.297438
-3.488695 -0.454852 1.293098
-3.485600 -0.450104 1.298534
-3.480510 -0.430153 1.306478
-3.489285 -0.402848 1.293312
-3.490866 -0.420326 1.288357
-3.485430 -0.394872 1.300021
-3.478500 -0.391025 1.310409
-3.470179 -0.342810 1.308545
-3.481747 -0.340798 1.293311
-3.457185 -0.320724 1.313939
-3.471441 -0.309043 1.290765
-3.470299 -0.298004 1.286282
-3.462173 -0.287228 1.287193
-3.432795 -0.271544 1.303107
-3.432419 -0.254377 1.289642
-3.423814 -0.239073 1.284339
-3.422424 -0.260348 1.303520
-3.414912 -0.245078 1.298031
-3.394491 -0.206374 1.289792
-3.382133 -0.210340 1.308602
-3.370319 -0.177812 1.308849
-3.381674 -0.165921 1.284026
-3.366452 -0.164517 1.310323
-3.369414 -0.137181 1.297624
-3.366273 -0.120680 1.303430
-3.099790 0.462990 1.447573
-3.090034 0.470721 1.458020
-3.088871 0.499442 1.459695
-3.082464 0.517958 1.469300
-3.093035 0.503786 1.454690
-3.082853 0.533688 1.470162
-3.094933 0.535098 1.454292
-3.084087 0.561382 1.470642
-3.105453 0.565490 1.439795
-3.098306 0.591046 1.449261
-3.093397 0.606923 1.456523
-3.099390 0.629495 1.444212
-3.088489 0.632136 1.462777
-3.095406 0.668838 1.444575
-3.087340 0.672857 1.458261
-3.080244 0.688470 1.467057
-3.092335 0.680421 1.447554
-3.089132 0.704362 1.448159
-3.087006 0.723077 1.445718
-3.057185 0.756535 1.470085
-3.076926 0.753713 1.449692
-3.076068 0.770392 1.443327
-3.066482 0.773455 1.451731
-3.052438 0.785174 1.459300
-3.051331 0.798608 1.452049
-3.044905 0.788870 1.465506
-3.047530 0.811291 1.447204
-3.019901 0.827573 1.465890
-3.021201 0.843207 1.451350
-3.062510 0.213896 1.546172
-3.031507 0.274631 1.560314
-3.039833 0.291480 1.545896
-3.036661 0.301654 1.546790
-3.015330 0.326830 1.564450
-3.022837 0.323078 1.556778
-3.018545 0.329739 1.559928
-3.017302 0.358694 1.556904
-3.039621 0.333004 1.534366
-3.026661 0.403087 1.540994
-3.027837 0.415445 1.537857
-3.028578 0.451868 1.536765
-3.025371 0.428263 1.540681
-3.014119 0.334953 1.564358
-3.205101 -0.777092 1.596408
-3.177100 -0.781695 1.604196
-3.183354 -0.792720 1.602801
-3.168044 -0.768234 1.606532
-3.153984 -0.796519 1.610476
-3.140385 -0.739204 1.614215
-3.159580 -0.752039 1.608626
-3.140858 -0.727780 1.614488
-3.155387 -0.705439 1.611427
-3.198664 -0.676342 1.602884
-3.191327 -0.690957 1.602793
-3.140486 -0.699862 1.616664
-3.149924 -0.698987 1.614078
-3.125633 -0.780785 1.618374
-3.094102 -0.789340 1.626599
-3.107975 -0.789075 1.623332
-3.114197 -0.751054 1.621899
-3.125490 -0.738435 1.618488
-3.102456 -0.758869 1.625063
-3.108418 -0.737938 1.623374
-3.116484 -0.724986 1.621579
-3.131070 -0.717288 1.617799
-3.091277 -0.730168 1.627537
-3.113685 -0.689804 1.625708
-3.112881 -0.680930 1.627652
-3.108268 -0.699725 1.625651
-3.213466 -0.658858 1.600936
-3.220040 -0.621380 1.606319
-3.228645 -0.630930 1.600628
-3.180399 -0.647960 1.615607
-3.187203 -0.658231 1.610686
-3.144896 -0.653888 1.625131
-3.170557 -0.658100 1.616471
-3.181232 -0.630576 1.619653
-3.176547 -0.640350 1.618839
-3.168865 -0.623889 1.625901
-3.246921 -0.598964 1.596384
-3.207477 -0.597142 1.617852
-3.233991 -0.605420 1.603280
-3.239522 -0.568940 1.604194
-3.248578 -0.559363 1.598250
-3.212196 -0.574354 1.621058
-3.209754 -0.567079 1.623753
-3.195549 -0.590870 1.625078
-3.126101 -0.666154 1.627417
-2.963928 -0.812599 1.620939
-2.980016 -0.803601 1.626373
-2.943924 -0.818517 1.616837
-2.906018 -0.817138 1.604813
-2.889969 -0.797971 1.612061
-2.917890 -0.785424 1.627640
-2.874547 -0.775961 1.619887
-2.860307 -0.782260 1.604479
-2.886474 -0.775017 1.625086
-2.841410 -0.773217 1.597113
-2.832916 -0.738634 1.627548
-2.829261 -0.747987 1.614102
-2.927290 0.460660 1.678889
-2.934070 0.489564 1.664753
-2.901878 0.513099 1.688906
-2.918561 0.508587 1.675541
-2.924798 0.523113 1.664749
-2.917591 0.531026 1.667872
-2.891836 0.564535 1.672789
-2.878121 0.568281 1.681298
-2.611820 0.901920 1.696003
-2.616067 0.915550 1.693229
-2.592938 0.906345 1.705704
-2.599264 0.912982 1.701938
-2.579720 0.957506 1.707582
-2.605137 0.930774 1.697619
-2.569191 0.907615 1.718704
-2.558188 0.947014 1.719481
-2.569300 0.939196 1.715257
-2.594456 0.970633 1.696688
-2.584724 1.007671 1.692516
-2.551548 0.961243 1.720491
-2.570260 0.970724 1.709510
-2.552909 1.008374 1.709432
-2.573013 1.017306 1.696387
-2.539041 1.011322 1.716478
-2.547556 1.048080 1.703946
-2.567816 1.029356 1.696108
-2.531943 1.045087 1.714267
-2.548533 1.061793 1.700643
-2.522379 1.074877 1.716661
-2.516166 1.084799 1.720383
-2.544058 1.092979 1.697682
-2.528699 1.113907 1.707315
-2.520117 1.142752 1.712003
-2.541151 1.128180 1.693823
-2.529347 1.145282 1.702444
-2.529422 1.156854 1.698038
-2.538802 1.150468 1.691319
-2.513589 1.196614 1.693941
-3.002065 -0.553573 1.727036
-2.961590 -0.548418 1.745414
-2.976814 -0.554941 1.735542
-2.942670 -0.580379 1.730697
-2.890036 -0.597434 1.733481
-2.902799 -0.603973 1.723986
-2.909367 -0.584726 1.738279
-2.938875 -0.563293 1.743809
-2.951147 -0.566862 1.736922
-2.910132 -0.570304 1.749202
-2.826737 -0.621581 1.725446
-2.797905 -0.617793 1.730410
-2.819504 -0.617100 1.729958
-2.773561 -0.620258 1.725691
-2.788306 -0.617865 1.730545
-2.871408 -0.605021 1.732039
-2.880585 -0.582376 1.748512
-2.834814 -0.600801 1.743110
-2.830664 -0.609167 1.736978
-2.807542 -0.595329 1.752491
-2.816783 -0.600000 1.746379
-2.775864 -0.603291 1.747419
-2.746810 -0.614579 1.727458
-2.741994 -0.605450 1.740744
-2.750260 -0.599807 1.751243
-2.714348 -0.603297 1.731015
-2.727011 -0.601290 1.741245
-2.684080 -0.583839 1.742780
-2.684771 -0.594200 1.722156
-2.699888 -0.589279 1.747276
-2.641820 -0.548119 1.739685
-2.646466 -0.556570 1.732793
-2.647899 -0.561374 1.727421
-2.658458 -0.560360 1.750471
-3.016455 -0.526295 1.733699
-3.020072 -0.524688 1.732822
-3.024223 -0.496510 1.738858
-3.024155 -0.487646 1.741006
-3.062226 -0.467856 1.727624
-3.016864 -0.467459 1.746943
-3.030772 -0.466514 1.741230
-3.052801 -0.438427 1.734105
-3.056634 -0.425133 1.732960
-3.025078 -0.442155 1.745383
-3.029292 -0.425236 1.744050
-3.067237 -0.418515 1.728575
-3.073983 -0.416915 1.725715
-3.028347 -0.421799 1.744498
-3.037375 -0.401367 1.740849
-3.066285 -0.367943 1.729188
-3.056181 -0.390982 1.733531
-3.016469 -0.372974 1.749176
-3.036520 -0.374017 1.741384
-3.082670 -0.358505 1.722059
-2.561195 -0.143012 1.761218
-2.545295 -0.130057 1.758190
-2.549076 -0.133201 1.758380
-2.524608 -0.110084 1.765178
-2.514230 -0.105134 1.754836
-2.922668 -0.045476 1.784210
-2.944031 -0.043741 1.769631
-2.942867 -0.027912 1.766827
-2.929448 0.008860 1.766923
-2.915822 -0.008973 1.780046
-2.900280 0.013757 1.783228
-2.937912 0.016893 1.759188
-2.917963 0.018910 1.771821
-2.922238 0.072853 1.756446
-2.916879 0.076359 1.758708
-2.917246 0.074271 1.758955
-2.888435 0.034873 1.783373
-2.881160 0.052955 1.782121
-2.871151 0.076074 1.782880
-2.896226 0.095092 1.767604
-2.912314 0.084293 1.759718
-2.889975 0.136328 1.765262
-2.894910 0.162751 1.755014
-2.881259 0.086006 1.776602
-2.865648 0.103753 1.784355
-2.888642 0.115814 1.769636
-2.867136 0.127726 1.780727
-2.882639 0.170486 1.760674
-2.877270 0.148821 1.770289
-2.878709 0.147148 1.769876
-2.858917 0.190093 1.772005
-2.885429 0.190733 1.754100
-2.853068 0.176485 1.778005
-2.851589 0.204284 1.774463
-2.860029 0.214098 1.768542
-2.879431 0.213555 1.754710
-2.848124 0.217897 1.777549
-2.849572 0.227036 1.776695
-2.864628 0.249667 1.765526
-2.878488 0.257498 1.754369
-2.852322 0.264820 1.778118
-2.870084 0.285704 1.763122
-2.877635 0.270755 1.755787
-2.850316 0.273627 1.780600
-2.849352 0.296232 1.783040
-2.859702 0.330175 1.775290
-2.876298 0.321496 1.758378
-2.775414 -0.235625 1.848060
-2.798685 -0.218309 1.847514
-2.764270 -0.225986 1.855259
-2.776688 -0.203964 1.861270
-2.805427 -0.199341 1.850833
-2.804032 -0.180140 1.858019
-2.767558 -0.187967 1.872191
-2.777159 -0.196235 1.863874
-2.838968 -0.109516 1.848266
-2.804626 -0.143798 1.867426
-2.812486 -0.158027 1.858928
-2.787938 -0.165858 1.871264
-2.807497 -0.126965 1.867196
-2.826518 -0.111429 1.856037
-2.830441 -0.095448 1.852025
-2.821550 -0.105807 1.858922
-2.819146 -0.086913 1.857952
-2.805700 -0.057897 1.859429
-2.797386 -0.076751 1.869981
-2.778882 -0.047562 1.872070
-2.742729 -0.238698 1.851685
-2.726845 -0.243074 1.850315
-2.742889 -0.222546 1.859748
-2.761132 -0.206173 1.865481
-2.724138 -0.232948 1.855233
-2.723610 -0.216399 1.865472
-2.747431 -0.188449 1.878107
-2.762160 -0.190852 1.873129
-2.677937 -0.215103 1.855531
-2.663422 -0.203202 1.854160
-2.671013 -0.183662 1.875203
-2.651102 -0.174247 1.868240
-2.665804 -0.201353 1.857572
-2.640431 -0.163255 1.870275
-2.367877 0.139712 1.893518
-2.377620 0.134131 1.904120
-2.333914 0.162668 1.883869
-2.354141 0.148227 1.890847
-2.297152 0.190795 1.887284
-2.285906 0.199422 1.889454
-2.264396 0.215307 1.894127
-2.241673 0.231528 1.900528
-2.256871 0.220851 1.891402
-2.202796 0.258630 1.902136
-2.224046 0.244138 1.889329
-2.179505 0.276946 1.899222
-2.524395 0.469173 1.945391
-2.506730 0.465154 1.956177
-2.495556 0.473921 1.959133
-2.484647 0.495628 1.956921
-2.505437 0.489345 1.947525
-2.472898 0.504806 1.960402
-2.457206 0.521661 1.962226
-2.460034 0.540752 1.950599
-2.431350 0.548732 1.960601
-2.422087 0.539322 1.969742
-2.421609 0.559745 1.958192
-2.394831 0.576374 1.960779
-2.402895 0.592534 1.946274
-2.359151 0.605242 1.959111
-2.383502 0.598526 1.951931
-2.348854 0.607453 1.962065
-2.365964 0.617350 1.948122
-2.334289 0.634608 1.952857
-2.332080 0.637330 1.952241
-2.312886 0.616060 1.971574
-2.313343 0.642289 1.957436
-2.336864 0.651753 1.941845
-2.304159 0.662320 1.952656
-2.304440 0.666807 1.950415
-2.270702 0.653442 1.970299
-2.281009 0.675464 1.957222
-2.267429 0.685411 1.960459
-2.287969 0.683972 1.951316
-2.261148 0.680007 1.964841
-2.244670 0.699298 1.967455
-2.047987 1.475897 2.037610
-2.015777 1.483131 2.059694
-2.020597 1.484728 2.055183
-2.016772 1.504994 2.047112
-2.008281 1.492557 2.061019
-1.993586 1.502391 2.066962
-1.979744 1.529929 2.062292
-2.001207 1.542008 2.037457
-1.976488 1.538566 2.059491
-1.951061 1.567191 2.061647
-1.942765 1.577482 2.062437
-1.955474 1.594191 2.046026
-1.947318 1.589285 2.054250
-1.922178 1.613690 2.060943
-1.915362 1.610634 2.066706
-1.939459 1.633852 2.041150
-1.940080 1.624603 2.044372
-1.941399 1.640851 2.037306
-1.913800 1.626176 2.061826
-1.919798 1.651330 2.048086
-1.892543 1.651609 2.066179
-1.766773 1.106184 2.168701
-1.762536 1.142380 2.181650
-1.776634 1.137104 2.172122
-1.824903 1.192824 2.174528
-1.833504 1.198491 2.173366
-1.832508 1.205583 2.177711
-1.807939 1.161968 2.166474
-1.764890 1.166936 2.191074
-1.811468 1.181543 2.175179
-1.804015 1.201450 2.189567
-1.728801 1.028226 2.161186
-1.713971 1.030450 2.164624
-1.728079 1.043750 2.166367
-1.742125 1.071384 2.170173
-1.751548 1.055261 2.162836
-1.698842 1.060707 2.180454
-1.726815 1.052698 2.169583
-1.679657 1.070957 2.189205
-1.736548 1.099910 2.180873
-1.703934 1.093972 2.192240
-1.743259 1.120246 2.184241
-3.827940 -0.802431 0.605752
-3.828595 -0.796309 0.610000
-3.829214 -0.789662 0.600849
-3.776963 0.153597 0.717597
-3.773480 0.175700 0.717637
-3.826576 -0.003053 0.743164
-3.816308 0.029626 0.730842
-3.811571 0.041258 0.728883
-3.796058 0.053328 0.741983
-3.786264 0.096893 0.726726
-3.776597 0.083307 0.747690
-3.775180 0.125688 0.727499
-3.779851 0.135622 0.718496
-3.768518 0.142825 0.730076
-3.760499 0.119883 0.748699
-3.759865 0.143350 0.741092
-3.751848 0.168113 0.745804
-3.751373 0.174504 0.745189
-3.765814 0.181545 0.726600
-3.769396 0.384209 0.741445
-3.771039 0.408106 0.743605
-3.767542 0.205953 0.722910
-3.759705 0.243583 0.733624
-3.758073 0.265825 0.736502
-3.749717 0.290721 0.748468
-3.764733 0.283008 0.729160
-3.753553 0.300435 0.744334
-3.865527 -0.082822 0.760028
-3.856210 -0.089607 0.772835
-3.858381 -0.065207 0.756410
-3.841535 -0.072571 0.778937
-3.831256 -0.055830 0.779746
-3.827665 -0.049466 0.779448
-3.843527 -0.036370 0.751238
-3.810209 -0.023050 0.780056
-3.825734 -0.032755 0.769151
-3.809748 -0.012044 0.771847
-3.823858 -0.011953 0.753977
-3.815790 -0.003224 0.757251
-3.788059 0.014877 0.780506
-3.789446 0.018709 0.775779
-3.791869 0.032344 0.762925
-3.771933 0.060096 0.771923
-3.779063 0.067609 0.755939
-3.756561 0.089111 0.773493
-3.767114 0.099108 0.749856
-3.752716 0.117307 0.761447
-3.756763 0.119993 0.754215
-3.743906 0.138718 0.765394
-3.728416 0.163566 0.779231
-3.727631 0.171446 0.777844
-3.740820 0.180352 0.758225
-3.741431 0.195454 0.755525
-3.729974 0.185712 0.771946
-3.724872 0.202615 0.776385
-3.745872 0.212671 0.749205
-3.725051 0.209849 0.775886
-3.731510 0.255014 0.768584
-3.737501 0.291105 0.763400
-3.747581 0.280483 0.750307
-3.724907 0.296569 0.778670
-3.737244 0.314028 0.766447
-3.728441 0.309825 0.776139
-3.756395 0.358504 0.752142
-3.758003 0.358786 0.750326
-3.731266 0.333603 0.775666
-3.756637 0.391663 0.757582
-3.750824 0.369469 0.760452
-3.457682 1.473444 1.036773
-3.473870 1.481023 1.031983
-3.458385 1.518255 1.049981
-3.485219 1.500057 1.032778
-3.424183 1.467820 1.050166
-3.449375 1.468355 1.038907
-3.412626 1.475528 1.057890
-3.437203 1.510099 1.056757
-3.415548 1.494738 1.061801
-3.486019 1.549709 1.047631
-3.498506 1.544971 1.040073
-3.454215 1.536164 1.057350
-3.505591 1.578838 1.046166
-3.498759 1.566405 1.045993
-3.471729 1.558598 1.056709
-3.447186 1.540010 1.061535
-3.489374 1.590493 1.058369
-3.509370 1.599132 1.049690
-3.500379 1.621637 1.059609
-3.647532 -0.507231 1.071363
-3.652309 -0.509783 1.064556
-3.635458 -0.484805 1.085460
-3.629343 -0.467763 1.088350
-3.633617 -0.445011 1.072872
-3.620375 -0.423202 1.085364
-3.620031 -0.421684 1.085391
-3.615185 -0.394907 1.091370
-3.622573 -0.388566 1.072901
-3.616169 -0.383303 1.087970
-3.616862 -0.345149 1.086391
-3.622116 -0.338462 1.070939
-3.620658 -0.320441 1.072327
-3.616377 -0.306389 1.080862
-3.620567 -0.296236 1.067406
-3.603917 -0.266871 1.094105
-3.616249 -0.265440 1.066563
-3.608861 -0.236995 1.070201
-3.607055 -0.222753 1.067353
-3.591878 -0.207730 1.084649
-3.590283 -0.186270 1.075881
-3.580593 -0.169192 1.080270
-3.577385 -0.152835 1.076229
-3.560316 -0.133240 1.085037
-3.557119 -0.116016 1.080971
-3.566878 -0.115686 1.071382
-3.607078 -0.532325 1.135806
-3.594741 -0.533665 1.155027
-3.603792 -0.497613 1.128082
-3.583144 -0.497062 1.154714
-3.581547 -0.480056 1.151236
-3.581459 -0.433494 1.146827
-3.586810 -0.439415 1.137818
-3.586895 -0.400932 1.142441
-3.584796 -0.390175 1.148232
-3.589881 -0.361749 1.144477
-3.597666 -0.355957 1.130491
-3.584015 -0.333274 1.155119
-3.583894 -0.310951 1.149955
-3.580292 -0.306517 1.155002
-3.579894 -0.296381 1.151623
-3.580385 -0.258175 1.130746
-3.567544 -0.269675 1.155817
-3.565850 -0.250723 1.146571
-3.555759 -0.222928 1.140588
-3.546525 -0.227322 1.154424
-3.543819 -0.186948 1.130851
-3.530294 -0.185685 1.142928
-3.278892 0.478063 1.178217
-3.270603 0.498326 1.174699
-3.196361 0.457635 1.327825
-3.200695 0.461333 1.316908
-3.185671 0.465069 1.338921
-3.176559 0.508529 1.322387
-3.169381 0.501631 1.341023
-3.165634 0.520520 1.338333
-3.155791 0.558029 1.340458
-3.166790 0.555049 1.315198
-3.261329 0.163135 1.370796
-3.262519 0.186622 1.361150
-3.256066 0.187890 1.367218
-3.263376 0.206298 1.353792
-3.256778 0.226401 1.357510
-3.255937 0.231861 1.357276
-3.237651 0.258524 1.376370
-3.246537 0.261593 1.362134
-3.238847 0.275606 1.369544
-3.244459 0.301216 1.355065
-3.238480 0.329860 1.358380
-3.241624 0.332449 1.353345
-3.231406 0.349452 1.363119
-3.223079 0.389837 1.359654
-3.221088 0.415290 1.345857
-3.178732 0.443023 1.366733
-3.195102 0.446432 1.346145
-3.173494 0.453753 1.364816
-3.332653 -0.032266 1.383941
-3.333118 -0.020379 1.380381
-3.326104 -0.023679 1.392072
-3.324095 -0.009928 1.391755
-3.312306 0.012941 1.402426
-3.315612 0.037842 1.379936
-3.311929 0.046339 1.379732
-3.303630 0.054776 1.384907
-3.277283 0.072356 1.405646
-3.295822 0.069507 1.382649
-3.275840 0.102222 1.383849
-3.266299 0.107636 1.392630
-3.258436 0.112693 1.398543
-3.250482 0.135089 1.393913
-3.235922 0.141132 1.406146
-3.253672 0.140004 1.387805
-3.298610 -0.101490 1.444637
-3.301893 -0.102637 1.439854
-3.295238 -0.104792 1.449960
-3.292124 -0.072768 1.448077
-3.285783 -0.057671 1.452432
-3.270290 -0.040802 1.467734
-3.281963 -0.026267 1.451864
-3.279638 -0.020465 1.453795
-3.280709 -0.005755 1.449369
-3.269985 0.039718 1.441970
-3.047007 0.473230 1.513488
-3.054728 0.468170 1.502699
-3.040766 0.469562 1.521643
-3.052624 0.507342 1.508905
-3.050482 0.498257 1.511245
-3.040890 0.498002 1.524574
-3.052397 0.548184 1.511571
-3.053494 0.525365 1.508949
-3.047803 0.576437 1.519747
-3.051915 0.559662 1.513307
-3.037111 0.565515 1.533211
-3.046224 0.600233 1.522486
-3.040922 0.596007 1.528636
-3.057845 0.616413 1.508505
-3.060948 0.619450 1.504633
-3.053502 0.646189 1.511927
-3.036919 0.667830 1.523526
-3.048359 0.677605 1.511231
-3.038705 0.694858 1.514093
-3.020764 0.718889 1.520753
-3.029588 0.707897 1.517187
-3.016444 0.761921 1.509187
-3.022402 0.761307 1.504152
-3.019892 0.470033 1.551746
-3.017546 0.510557 1.556956
-3.027901 0.497033 1.542395
-3.022433 0.531951 1.551100
-3.030889 0.523992 1.539435
-3.020596 0.577140 1.553507
-3.025311 0.582691 1.547694
-3.036880 0.598146 1.533813
-3.029643 0.617260 1.539814
-3.029584 0.636560 1.537090
-2.875087 -0.807040 1.588998
-2.865605 -0.796529 1.592773
-2.845507 -0.778587 1.592983
-2.848391 -0.782207 1.590036
-2.828459 -0.770856 1.568862
-2.801846 -0.737906 1.581038
-2.814273 -0.754646 1.572107
-2.816837 -0.753400 1.588766
-2.798781 -0.732675 1.583272
-2.783116 -0.707257 1.577770
