-4.698858 -1.033428 2.420080
-4.682379 -1.034245 2.454368
-4.665074 -1.033863 2.416439
-4.623240 -1.034349 2.418181
-4.552636 -1.035513 2.481598
-4.527328 -1.035874 2.498667
-4.514251 -1.035468 2.456043
-4.470853 -1.036154 2.496399
-4.444825 -1.036278 2.498201
-4.384139 -1.036267 2.464091
-4.380358 -1.036463 2.487138
-4.320645 -1.036859 2.488871
-4.354928 -1.036682 2.497314
-4.279618 -1.036976 2.475321
-4.297117 -1.036894 2.472667
-4.213444 -1.037224 2.486477
-4.230684 -1.037226 2.491526
-4.156565 -1.037608 2.493289
-4.110454 -1.037895 2.470095
-4.137801 -1.037791 2.493157
-4.072291 -1.038239 2.462332
-4.031551 -1.038812 2.488278
-4.040146 -1.038477 2.459199
-3.970510 -1.038953 2.474986
-3.991736 -1.038759 2.464517
-3.935809 -1.039237 2.480901
-3.964749 -1.039171 2.490789
-3.878093 -1.039681 2.488296
-3.839866 -1.039673 2.464154
-3.867972 -1.039739 2.487309
-3.818886 -1.040096 2.484387
-3.744972 -1.040720 2.472565
-3.784259 -1.040666 2.498673
-3.705218 -1.041229 2.490102
-3.683269 -1.041128 2.466218
-3.669559 -1.041512 2.492283
-3.625139 -1.041681 2.470870
-3.535360 -1.042449 2.462900
-3.564866 -1.042422 2.491140
-3.478364 -1.043129 2.481782
-3.503637 -1.042952 2.484142
-3.440465 -1.043078 2.460961
-3.465583 -1.043053 2.469134
-3.413835 -1.043185 2.455248
-3.331002 -1.043823 2.469021
-3.327042 -1.043890 2.474031
-3.276808 -1.044168 2.478528
-3.245356 -1.044208 2.456097
-3.193851 -1.044368 2.486531
-3.081005 -1.043501 2.464361
-3.107884 -1.043813 2.476988
-4.564002 -1.037685 2.721979
-4.528003 -1.038217 2.757554
-4.462071 -1.038885 2.755332
-4.496198 -1.038238 2.722173
-4.417781 -1.039065 2.741430
-4.451479 -1.038925 2.748134
-4.378908 -1.039245 2.736572
-4.400885 -1.039066 2.732553
-4.358156 -1.039227 2.725375
-4.339645 -1.039640 2.745452
-4.205272 -1.040221 2.738441
-4.148940 -1.040741 2.753310
-4.166002 -1.040526 2.743464
-4.317244 -1.039587 2.734111
-4.099081 -1.041127 2.762945
-4.045296 -1.041501 2.761081
-4.043203 -1.041349 2.730971
-3.994094 -1.041893 2.756094
-3.987992 -1.041680 2.727047
-3.939288 -1.042117 2.741234
-3.951897 -1.042013 2.737972
-3.916364 -1.042355 2.746884
-3.792537 -1.042757 2.745713
-3.720258 -1.043304 2.764375
-3.735496 -1.042862 2.736771
-3.692562 -1.043148 2.722368
-3.631603 -1.043827 2.731849
-3.644717 -1.044046 2.755958
-3.598078 -1.044338 2.756895
-3.538292 -1.044502 2.722842
-3.505332 -1.044922 2.739088
-3.452168 -1.045339 2.759117
-3.392848 -1.045426 2.738751
-3.357688 -1.045555 2.749242
-3.376260 -1.045531 2.722020
-3.323426 -1.045715 2.740494
-3.282944 -1.045826 2.736309
-3.283401 -1.045852 2.751093
-3.213867 -1.045341 2.748793
-3.181775 -1.044948 2.734361
-3.134285 -1.043372 2.757988
-3.137657 -1.043994 2.733168
-4.574712 -1.038505 2.806884
-4.530183 -1.038626 2.799260
-4.535246 -1.038478 2.790440
-4.343915 -1.040398 2.806002
-4.454817 -1.039237 2.776540
-4.425042 -1.039777 2.797610
-4.434855 -1.039576 2.789131
-4.407557 -1.039517 2.769739
-4.301690 -1.040418 2.801344
-4.316147 -1.040256 2.784992
-4.236449 -1.040366 2.771208
-4.256338 -1.040313 2.777457
-4.200059 -1.040811 2.789852
-4.196211 -1.040953 2.801983
-4.182662 -1.040942 2.790323
-4.120123 -1.041341 2.797451
-4.011360 -1.041882 2.770631
-3.993220 -1.042010 2.765334
-3.946481 -1.042591 2.788752
-3.900213 -1.043160 2.803705
-3.838860 -1.043242 2.788086
-3.808857 -1.043250 2.795710
-3.823044 -1.043306 2.795321
-3.772284 -1.043396 2.808903
-3.772161 -1.043051 2.778474
-3.706099 -1.043776 2.787663
-3.714475 -1.043847 2.800930
-3.691243 -1.043665 2.765042
-3.695740 -1.044073 2.801752
-3.616179 -1.044441 2.780873
-3.593240 -1.044587 2.792866
-3.539262 -1.044890 2.769334
-3.546365 -1.044883 2.802745
-3.483539 -1.045318 2.770214
-3.500151 -1.045207 2.772554
-3.446796 -1.045393 2.791583
-3.474424 -1.045410 2.800228
-3.395700 -1.045359 2.779769
-3.431042 -1.045385 2.775181
-3.367776 -1.045438 2.784954
-3.382217 -1.045379 2.775496
-3.315006 -1.045780 2.783474
-3.312320 -1.045826 2.769941
-3.259425 -1.045739 2.784913
-3.288621 -1.045871 2.778716
-3.234094 -1.045549 2.766252
-3.208793 -1.044815 2.808513
-3.196825 -1.044787 2.765925
-3.154007 -1.043058 2.791576
-5.001324 -1.036835 2.844773
-5.018581 -1.036630 2.839369
-4.942458 -1.036932 2.828422
-4.973299 -1.036613 2.821865
-4.899128 -1.037337 2.839422
-4.924048 -1.037200 2.840200
-4.871696 -1.037269 2.829059
-4.870396 -1.037472 2.847936
-4.837356 -1.037423 2.820918
-4.802833 -1.037795 2.833324
-4.730361 -1.037748 2.819791
-4.746228 -1.038072 2.852896
-4.676676 -1.038266 2.819927
-4.693731 -1.037993 2.812868
-4.646578 -1.038591 2.827161
-4.541131 -1.038796 2.819144
-4.507795 -1.039122 2.811213
-4.540798 -1.038824 2.820550
-4.409604 -1.040501 2.843180
-4.381901 -1.040492 2.826546
-4.342930 -1.040584 2.823412
-4.342197 -1.040817 2.844722
-4.473635 -1.039720 2.827585
-4.494729 -1.039305 2.811796
-4.429011 -1.040130 2.827331
-6.253159 -1.033758 3.083438
-6.264941 -1.033855 3.105134
-6.216470 -1.034174 3.115155
-6.181874 -1.034083 3.076901
-6.119704 -1.034109 3.101695
-6.061528 -1.034273 3.087895
-6.037998 -1.034755 3.115592
-5.975721 -1.034954 3.084040
-5.973068 -1.035175 3.108555
-5.919616 -1.035455 3.113492
-5.933290 -1.035211 3.088753
-5.888625 -1.035518 3.113227
-5.842948 -1.035656 3.099245
-5.843958 -1.035580 3.087877
-5.784418 -1.035953 3.082060
-5.737331 -1.036128 3.098024
-5.776075 -1.036071 3.100686
-5.735646 -1.035917 3.075232
-5.644480 -1.036400 3.097040
-5.575365 -1.036734 3.092502
-5.600613 -1.036662 3.105767
-5.542354 -1.036895 3.088970
-5.472340 -1.037120 3.090596
-5.439720 -1.037499 3.110289
-5.386050 -1.037719 3.094512
-5.406017 -1.037485 3.087005
-5.338261 -1.038197 3.118756
-5.376686 -1.037715 3.089774
-5.319283 -1.038173 3.104055
-5.264881 -1.038582 3.112369
-5.239216 -1.038583 3.075188
-5.152614 -1.038992 3.085485
-5.098048 -1.039455 3.101795
-4.553547 -1.045565 3.468975
-4.577735 -1.045280 3.464155
-4.500191 -1.045824 3.465482
-4.525947 -1.045286 3.429728
-4.471767 -1.045773 3.455553
-4.414007 -1.045743 3.430758
-4.429679 -1.046061 3.468762
-4.388429 -1.046137 3.457050
-4.326321 -1.046098 3.429355
-4.301847 -1.046661 3.460365
-4.246096 -1.046589 3.435409
-4.239770 -1.047091 3.471186
-4.201880 -1.047046 3.471412
-4.225889 -1.046558 3.429202
-4.176603 -1.046658 3.429134
-4.058437 -1.048116 3.464511
-4.093348 -1.047470 3.459643
-4.021215 -1.048618 3.468644
-4.038756 -1.048109 3.438338
-3.973692 -1.048545 3.452537
-3.962524 -1.048714 3.463475
-3.915671 -1.049243 3.467335
-3.839911 -1.049966 3.458274
-3.860401 -1.049834 3.463267
-3.817229 -1.050144 3.466919
-3.830943 -1.050045 3.459338
-3.756377 -1.050149 3.463957
-3.700963 -1.049702 3.467215
-3.735547 -1.049769 3.439009
-3.660555 -1.048474 3.442731
-3.636218 -1.047453 3.442630
-3.647725 -1.048170 3.459569
-3.567625 -1.042289 3.445370
-3.584674 -1.043789 3.432631
-3.529082 -1.036872 3.446497
-3.534120 -1.037721 3.446196
-3.516182 -1.034362 3.460505
-3.470130 -1.021106 3.472164
-3.466243 -1.022934 3.447320
-5.024144 -1.045287 3.778742
-4.953945 -1.045551 3.744163
-4.977832 -1.045635 3.776318
-4.927626 -1.045928 3.741964
-4.938213 -1.046103 3.781724
-4.865711 -1.046441 3.749506
-4.843415 -1.046822 3.780898
-4.780857 -1.046651 3.743737
-4.805120 -1.046534 3.750890
-4.737092 -1.047159 3.777443
-4.706002 -1.047401 3.775512
-4.704063 -1.047344 3.755512
-4.630889 -1.047701 3.758812
-4.659558 -1.047556 3.754145
-4.588368 -1.047984 3.768738
-4.599837 -1.047555 3.740376
-4.545123 -1.047890 3.746834
-4.556062 -1.047910 3.752254
-4.538608 -1.048345 3.776135
-4.483649 -1.048266 3.742736
-4.470752 -1.048584 3.767619
-4.437522 -1.048423 3.741068
-4.443030 -1.048606 3.758317
-4.365576 -1.048706 3.747112
-4.398632 -1.048449 3.743742
-4.336139 -1.048957 3.739035
-4.356233 -1.049017 3.764211
-4.214807 -1.049468 3.754421
-4.209030 -1.049533 3.764254
-4.810151 -1.047979 3.936137
-4.765950 -1.048252 3.936920
-4.721429 -1.048651 3.933396
-4.740640 -1.048320 3.922148
-4.680932 -1.049027 3.942751
-4.682508 -1.049099 3.953185
-4.662499 -1.049151 3.951188
-4.637444 -1.048903 3.920036
-4.545465 -1.049497 3.950612
-4.578173 -1.049133 3.941474
-4.526922 -1.049684 3.947053
-4.526234 -1.049631 3.934726
-4.492478 -1.050146 3.950577
-4.424881 -1.050295 3.938832
-4.383440 -1.050292 3.952086
-4.327202 -1.050202 3.939513
-4.361715 -1.049879 3.917507
-4.244515 -1.051119 3.959311
-4.216728 -1.050948 3.919890
-4.230791 -1.051089 3.941493
-4.172437 -1.051270 3.960361
-4.116150 -1.051015 3.955587
-4.132200 -1.050914 3.918026
-4.059717 -1.050167 3.949634
-4.011475 -1.049053 3.935790
-3.966011 -1.047701 3.924682
-4.008382 -1.049098 3.928090
-3.879926 -1.043180 3.923993
-3.853447 -1.041539 3.918084
-3.854122 -1.036284 3.951412
-3.816790 -1.035437 3.923416
-3.786057 -1.016309 3.956750
-4.984728 -1.052052 4.564372
-5.005976 -1.052080 4.575788
-4.965476 -1.052286 4.577885
-4.917880 -1.052349 4.544515
-4.912110 -1.052598 4.563847
-4.882119 -1.052618 4.546102
-4.878170 -1.052744 4.559718
-4.776641 -1.053446 4.572874
-4.753581 -1.053720 4.575899
-4.689700 -1.054092 4.574296
-4.633552 -1.054241 4.560785
-4.608472 -1.054339 4.543014
-4.601780 -1.054543 4.566688
-4.559197 -1.054773 4.544219
-4.498483 -1.055238 4.574889
-4.529459 -1.054932 4.540140
-4.382075 -1.010352 1.433640
-4.330022 -1.010298 1.406542
-4.362768 -1.011322 1.429457
-4.301205 -1.014387 1.423293
-4.246968 -1.017142 1.423874
-4.209365 -1.019089 1.428995
-4.109383 -1.021953 1.417731
-4.125867 -1.021787 1.425657
-4.010765 -1.024435 1.411361
-3.979447 -1.025200 1.417724
-3.981828 -1.024508 1.392254
-3.951441 -1.025334 1.401754
-3.965003 -1.025432 1.414910
-3.895942 -1.026472 1.410214
-3.839603 -1.027153 1.420718
-3.792815 -1.027560 1.428394
-3.823049 -1.027170 1.411683
-3.758285 -1.027968 1.434459
-3.753887 -1.027522 1.398132
-3.717921 -1.027977 1.413159
-3.735431 -1.027672 1.399481
-3.669328 -1.028129 1.402361
-3.678964 -1.028645 1.433743
-3.641405 -1.028498 1.418997
-4.296276 -1.025538 1.626018
-4.305356 -1.026042 1.654493
-4.231796 -1.026822 1.651886
-4.252425 -1.025932 1.619956
-4.199231 -1.026763 1.637668
-4.142829 -1.026942 1.617898
-4.054888 -1.027931 1.635332
-4.082676 -1.027552 1.629773
-4.012002 -1.028341 1.616835
-4.040049 -1.028165 1.638019
-3.983289 -1.028786 1.626568
-3.926127 -1.029559 1.649811
-3.884366 -1.029390 1.621190
-3.845191 -1.030226 1.650159
-3.806150 -1.030473 1.641354
-3.784420 -1.030597 1.633747
-3.701707 -1.031226 1.648361
-3.740262 -1.030621 1.617130
-3.662238 -1.031331 1.613574
-3.691190 -1.031315 1.645410
-3.618695 -1.031964 1.615576
-3.630321 -1.032008 1.643602
-3.572313 -1.032333 1.655075
-3.523371 -1.032402 1.620917
-3.564327 -1.032343 1.652643
-3.501997 -1.032752 1.654845
-3.520201 -1.032436 1.622592
-3.451467 -1.033405 1.631088
-3.466330 -1.033187 1.626143
-3.413188 -1.033845 1.629510
-3.368102 -1.034194 1.636656
-3.365577 -1.034154 1.625459
-3.319043 -1.034539 1.635949
-3.283149 -1.034876 1.640715
-3.297069 -1.034962 1.642532
-3.251512 -1.035315 1.654643
-3.190798 -1.032573 1.620679
-3.210418 -1.034298 1.644644
-3.158276 -1.030715 1.614158
-3.155004 -1.032705 1.649072
-3.100275 -1.030038 1.649145
-3.046145 -1.021301 1.640644
-3.056977 -1.025173 1.648299
-3.403566 -1.035746 1.744975
-3.356746 -1.035396 1.725124
-3.321707 -1.035432 1.707319
-3.267686 -1.036434 1.739511
-3.228438 -1.036435 1.725245
-3.256343 -1.036394 1.727002
-3.137661 -1.035214 1.710471
-3.135903 -1.036327 1.742643
-3.095057 -1.034407 1.717556
-3.092895 -1.035237 1.735577
-3.043302 -1.031977 1.719639
-3.075672 -1.033504 1.714020
-3.021379 -1.029509 1.711327
-2.954719 -1.020457 1.737179
-2.985158 -1.027884 1.744045
-6.098369 -1.011985 2.008350
-6.054615 -1.010936 1.986680
-6.040910 -1.011673 1.986717
-5.985656 -1.013563 1.984905
-5.941392 -1.014227 1.973251
-5.944364 -1.014993 1.982406
-5.873538 -1.016900 1.971682
-5.912338 -1.016635 1.984165
-5.827425 -1.018569 1.974033
-5.841960 -1.020531 2.006063
-5.792683 -1.019800 1.978203
-5.762844 -1.019898 1.969140
-5.768056 -1.022203 2.007651
-5.702734 -1.022094 1.993696
-5.658810 -1.022028 1.985631
-5.690849 -1.021768 1.986041
-5.630133 -1.022203 1.982898
-5.643560 -1.022672 1.995190
-5.559997 -1.023875 2.005916
-5.597683 -1.022812 1.987729
-5.538262 -1.024387 2.011370
-5.485739 -1.024972 2.008917
-5.444634 -1.023702 1.969590
-5.457748 -1.025106 2.005936
-5.401527 -1.025487 2.007999
-5.351960 -1.026202 2.011839
-5.370042 -1.024674 1.980466
-5.317003 -1.025271 1.976751
-5.322026 -1.025941 1.995724
-5.263885 -1.025957 1.969566
-5.229151 -1.026523 1.974990
-5.223278 -1.027394 2.008604
-4.821091 -1.029953 2.107271
-4.847202 -1.030080 2.143255
-4.797998 -1.030000 2.101506
-4.724764 -1.030818 2.140861
-4.758588 -1.030463 2.137087
-4.707986 -1.030550 2.107432
-4.649596 -1.031250 2.142478
-4.670768 -1.030955 2.120582
-4.591633 -1.031408 2.143634
-4.562922 -1.030944 2.106458
-4.499350 -1.031575 2.131296
-4.520921 -1.031640 2.142009
-4.476060 -1.031794 2.140054
-4.483968 -1.031408 2.113497
-4.442825 -1.031873 2.136005
-4.442013 -1.031818 2.132453
-4.369865 -1.031918 2.109360
-4.280287 -1.032732 2.118481
-4.316244 -1.032607 2.127187
-4.253618 -1.032908 2.117082
-4.250433 -1.033146 2.137585
-4.216875 -1.033309 2.133441
-4.219959 -1.033058 2.111629
-4.160163 -1.033648 2.127631
-4.105358 -1.034177 2.131670
-4.138200 -1.033737 2.119723
-4.095256 -1.034169 2.124173
-4.004756 -1.034946 2.143349
-3.988306 -1.034774 2.111450
-3.929376 -1.035560 2.132342
-3.938949 -1.035224 2.109392
-3.889181 -1.036075 2.142165
-3.857760 -1.036362 2.136826
-3.809425 -1.036587 2.115494
-3.809294 -1.036703 2.128120
-3.775195 -1.036811 2.110002
-3.708839 -1.037056 2.122267
-3.736222 -1.036852 2.103464
-3.689377 -1.037182 2.121866
-3.627198 -1.038210 2.141004
-3.639866 -1.037840 2.127746
-3.584718 -1.038745 2.142235
-3.602785 -1.037989 2.102829
-3.537393 -1.038776 2.121509
-3.540538 -1.038828 2.127458
-3.485657 -1.039381 2.140932
-3.351167 -1.040391 2.132381
-4.828807 -1.030439 2.180341
-4.829818 -1.030190 2.152287
-4.785523 -1.030682 2.186166
-4.735568 -1.030991 2.172141
-4.639173 -1.031576 2.173334
-4.666260 -1.031329 2.158426
-4.605125 -1.031968 2.186867
-4.624429 -1.031554 2.164777
-4.569011 -1.031558 2.148495
-4.502594 -1.032165 2.179571
-4.536681 -1.032085 2.177589
-4.468499 -1.032124 2.162885
-4.495499 -1.032171 2.177979
-4.447758 -1.032311 2.166372
-4.371323 -1.032762 2.153312
-4.396746 -1.032599 2.158183
-4.325794 -1.033354 2.184059
-4.281431 -1.033485 2.181027
-4.300531 -1.033437 2.183063
-4.248995 -1.033460 2.163116
-4.271852 -1.033251 2.158367
-4.201647 -1.033590 2.148508
-4.177513 -1.033955 2.163623
-4.126268 -1.034221 2.149117
-4.061370 -1.034792 2.168180
-4.089361 -1.034562 2.158411
-4.045113 -1.035008 2.183454
-3.966095 -1.035539 2.162733
-3.996827 -1.035239 2.167651
-3.962887 -1.035449 2.149143
-3.895824 -1.036158 2.159634
-3.906496 -1.036110 2.166988
-3.856406 -1.036591 2.159894
-3.824267 -1.037125 2.186005
-3.790750 -1.037038 2.146761
-3.759048 -1.037226 2.158822
-3.702876 -1.037838 2.184208
-3.741369 -1.037531 2.180753
-3.661601 -1.037997 2.160027
-3.685122 -1.037634 2.155324
-3.617916 -1.038722 2.166155
-3.643645 -1.038576 2.181437
-3.568461 -1.038977 2.146168
-3.552734 -1.039110 2.151974
-3.551829 -1.039432 2.181159
-3.516067 -1.039325 2.157785
-3.465574 -1.039735 2.170728
-3.362926 -1.040749 2.172308
-3.366915 -1.040588 2.162048
-7.090203 -1.008882 2.672551
-7.025731 -1.014774 2.647407
-7.065087 -1.012956 2.671642
-7.004344 -1.017398 2.654858
-6.954127 -1.021325 2.656945
-6.865042 -1.026009 2.673933
-6.803523 -1.026970 2.665318
-6.768472 -1.027311 2.648195
-6.624691 -1.028574 2.656967
-6.645692 -1.028432 2.643247
-6.585459 -1.028894 2.668901
-6.607167 -1.028509 2.643233
-6.544801 -1.028973 2.655734
-6.521259 -1.029077 2.652794
-6.487769 -1.029133 2.641070
-6.406085 -1.029684 2.635750
-6.330986 -1.030230 2.641220
-6.327646 -1.030457 2.664924
-6.271260 -1.030373 2.658252
-6.224649 -1.030123 2.652481
-6.187693 -1.030056 2.661670
-6.146193 -1.030163 2.663663
-6.178772 -1.029881 2.646819
-6.051900 -1.030362 2.641574
-6.046012 -1.030359 2.639604
-6.048196 -1.031613 2.792148
-6.079864 -1.031597 2.794427
-6.031069 -1.031655 2.796420
-6.030678 -1.031511 2.783758
-5.994349 -1.031616 2.793314
-5.933957 -1.032156 2.808076
-5.878761 -1.032443 2.781213
-5.889792 -1.032559 2.809025
-5.854836 -1.032613 2.779118
-5.852943 -1.032684 2.788174
-5.786164 -1.032960 2.786651
-5.798397 -1.032921 2.791629
-5.737433 -1.033371 2.797004
-5.766295 -1.033060 2.779722
-5.665409 -1.033178 2.774181
-5.673485 -1.033404 2.787338
-5.618737 -1.033384 2.801127
-5.569031 -1.033370 2.778930
-5.526716 -1.033801 2.778218
-5.473283 -1.034143 2.775315
-5.484433 -1.034220 2.800775
-5.460468 -1.034383 2.806480
-5.451665 -1.034224 2.770143
-5.414312 -1.034542 2.790862
-5.340035 -1.034922 2.781562
-5.355700 -1.034857 2.792984
-5.302200 -1.035266 2.790309
-5.325363 -1.035157 2.803014
-5.288288 -1.035244 2.766344
-5.283823 -1.035379 2.797360
-5.229609 -1.035445 2.794920
-5.202048 -1.035115 2.767424
-5.151556 -1.035171 2.767589
-5.160288 -1.035321 2.780419
-5.048059 -1.036117 2.804155
-4.285407 -1.041330 2.885279
-4.305975 -1.041186 2.877502
-4.237097 -1.041494 2.878967
-4.259725 -1.041106 2.857606
-4.204854 -1.041636 2.870990
-4.158264 -1.042449 2.895940
-4.177064 -1.041747 2.861229
-4.099680 -1.042566 2.882113
-4.105254 -1.042653 2.892057
-4.051131 -1.042616 2.887563
-3.971624 -1.042767 2.863103
-3.982951 -1.042734 2.869994
-3.931862 -1.043135 2.854707
-3.888973 -1.043810 2.884285
-3.916044 -1.043502 2.880398
-3.843242 -1.044066 2.892426
-3.860128 -1.043929 2.879812
-3.832008 -1.043997 2.881321
-3.755076 -1.044386 2.896359
-3.703744 -1.044605 2.873217
-3.663858 -1.044933 2.888097
-3.684193 -1.044689 2.870075
-3.648377 -1.044856 2.867627
-3.599741 -1.045092 2.882987
-3.530851 -1.045150 2.872167
-3.533264 -1.045321 2.897232
-3.498376 -1.045152 2.858287
-3.438513 -1.045182 2.862658
-3.399959 -1.045434 2.892058
-3.355115 -1.045657 2.885092
-3.344977 -1.045695 2.858648
-3.281821 -1.045515 2.892358
-3.237173 -1.044818 2.860104
-3.171871 -1.041666 2.887015
-3.182925 -1.042743 2.863305
-3.133929 -1.039291 2.867721
-3.089933 -1.032214 2.856854
-3.061948 -1.014735 2.876114
-4.988353 -1.039266 3.054387
-4.999187 -1.039314 3.060741
-4.951499 -1.039410 3.055557
-4.974789 -1.039246 3.048355
-4.896544 -1.039390 3.032099
-4.925481 -1.039323 3.033494
-4.868531 -1.039786 3.055054
-4.894238 -1.039646 3.060658
-4.778075 -1.040679 3.057021
-4.748217 -1.040895 3.066685
-4.756587 -1.040726 3.052314
-4.683045 -1.040769 3.038466
-4.841260 -1.040129 3.061426
-4.668464 -1.040989 3.051797
-4.598681 -1.041216 3.055967
-4.609472 -1.041029 3.036942
-4.571237 -1.041230 3.062060
-4.459791 -1.041750 3.055009
-4.491042 -1.041326 3.045036
-4.371979 -1.042485 3.040643
-4.361579 -1.042775 3.062953
-4.277002 -1.043218 3.041992
-4.313453 -1.043146 3.058624
-4.240590 -1.043342 3.062695
-4.273591 -1.043300 3.052814
-4.203582 -1.043214 3.041156
-4.210126 -1.043326 3.058786
-4.180506 -1.043291 3.039613
-4.130123 -1.043638 3.033690
-3.972825 -1.044628 3.045511
-3.995358 -1.044436 3.058414
-3.928892 -1.045072 3.064877
-3.947379 -1.044868 3.056678
-3.905930 -1.045204 3.068863
-3.866985 -1.045393 3.074018
-3.875236 -1.045078 3.039357
-3.809845 -1.045285 3.047107
-3.781609 -1.045547 3.064487
-3.735732 -1.045640 3.049368
-5.016936 -1.041901 3.304468
-5.015554 -1.042164 3.330367
-4.967966 -1.042030 3.307878
-4.966169 -1.042183 3.323636
-4.898243 -1.042220 3.318308
-4.926322 -1.042153 3.313379
-4.866667 -1.042266 3.318283
-4.892231 -1.042180 3.313904
-4.810523 -1.042629 3.325471
-4.837370 -1.042305 3.313154
-4.766426 -1.042987 3.305787
-4.803458 -1.042500 3.303832
-4.619390 -1.043571 3.320019
-4.564775 -1.043902 3.318938
-4.501046 -1.044313 3.328407
-4.530987 -1.044131 3.317575
-4.468095 -1.044497 3.327728
-4.485910 -1.044352 3.328544
-4.418372 -1.044866 3.320117
-4.430681 -1.044671 3.316860
-4.383312 -1.045036 3.318994
-4.407378 -1.045115 3.327404
-4.333652 -1.045290 3.338983
-4.350858 -1.045285 3.324055
-4.275569 -1.045017 3.330885
-4.308070 -1.045069 3.312551
-4.240464 -1.044941 3.316159
-4.253405 -1.044891 3.310560
-4.191552 -1.045497 3.326958
-4.177348 -1.045400 3.300249
-4.102157 -1.046404 3.319819
-4.125972 -1.046346 3.335836
-4.073933 -1.046616 3.325931
-4.092450 -1.046497 3.323421
-4.044600 -1.046824 3.335356
-4.038508 -1.046684 3.318339
-3.965815 -1.047070 3.320886
-3.962988 -1.046900 3.301732
-3.881929 -1.048177 3.328178
-3.906175 -1.047667 3.299497
-5.014156 -1.042285 3.344810
-4.942011 -1.042396 3.342787
-4.900173 -1.042617 3.356912
-4.938500 -1.042407 3.341438
-4.859951 -1.042768 3.356398
-4.876428 -1.042565 3.344679
-4.807685 -1.043347 3.378156
-4.842420 -1.043213 3.378877
-4.777529 -1.043011 3.340950
-4.737989 -1.043365 3.366867
-4.698691 -1.043587 3.347137
-4.655984 -1.043887 3.368537
-4.637084 -1.043789 3.347011
-4.606316 -1.044541 3.375419
-4.543955 -1.044391 3.348729
-4.576751 -1.044304 3.351993
-4.505599 -1.044483 3.349656
-4.518701 -1.044825 3.383848
-4.466427 -1.044852 3.356141
-4.411103 -1.045563 3.372217
-4.429408 -1.045315 3.366741
-4.407052 -1.045468 3.356247
-4.346937 -1.045508 3.366059
-4.277994 -1.045333 3.364308
-4.313683 -1.045489 3.383487
-4.237367 -1.045483 3.368744
-4.212361 -1.045662 3.362296
-4.180151 -1.045796 3.341496
-4.147285 -1.046601 3.380721
-4.127801 -1.046416 3.344843
-4.141598 -1.046313 3.343441
-4.060725 -1.047149 3.370140
-4.073755 -1.046738 3.341500
-3.991347 -1.047133 3.343181
-3.972155 -1.047616 3.379732
-3.922970 -1.048367 3.379044
-3.936745 -1.048083 3.373885
-3.916197 -1.048461 3.381474
-3.914998 -1.048211 3.352091
-6.691469 -1.009699 3.690843
-6.694767 -1.010795 3.678306
-6.647892 -1.018166 3.689637
-6.654766 -1.019713 3.668188
-6.580973 -1.026729 3.691768
-6.549623 -1.029621 3.669326
-6.519629 -1.031082 3.687692
-6.528055 -1.031004 3.672271
-6.469804 -1.033073 3.690479
-6.466012 -1.033351 3.661521
-6.431959 -1.034056 3.684644
-6.432314 -1.034092 3.669793
-6.363034 -1.035128 3.683865
-6.355600 -1.035266 3.665621
-6.289073 -1.036172 3.683155
-6.286249 -1.036188 3.663600
-6.226666 -1.037071 3.657540
-6.267292 -1.036526 3.687802
-6.215206 -1.037322 3.687374
-6.118076 -1.038068 3.678315
-6.102829 -1.038003 3.654052
-5.917283 -1.040260 3.692505
-6.077013 -1.038380 3.679380
-6.031199 -1.038806 3.688642
-6.027566 -1.038680 3.672066
-5.984251 -1.039003 3.653340
-5.929636 -1.040120 3.686314
-5.943484 -1.039927 3.683072
-5.919492 -1.039962 3.653655
-5.888108 -1.040224 3.654628
-5.859807 -1.040296 3.679751
-5.789768 -1.040142 3.659453
-5.799288 -1.040147 3.689948
-5.693664 -1.040770 3.674181
-5.729498 -1.040460 3.658503
-5.639816 -1.040968 3.669904
-5.576259 -1.041138 3.660110
-5.579661 -1.041398 3.691589
-5.009479 -1.048288 4.149707
-5.003908 -1.048706 4.180279
-4.950264 -1.048774 4.152009
-4.972550 -1.048833 4.175048
-4.923848 -1.048836 4.141569
-4.866099 -1.048978 4.160334
-4.874426 -1.049040 4.169351
-4.827573 -1.048901 4.159620
-4.849134 -1.048786 4.142001
-4.751254 -1.048898 4.155665
-4.684205 -1.049551 4.163794
-4.686310 -1.049638 4.180915
-4.630062 -1.050181 4.162195
-4.673242 -1.049707 4.168072
-4.622255 -1.050295 4.174623
-4.625110 -1.050108 4.139166
-4.558335 -1.050506 4.173837
-4.506825 -1.050392 4.153233
-4.538766 -1.050468 4.176369
-4.463675 -1.050823 4.149716
-4.409291 -1.051392 4.145674
-4.433260 -1.051352 4.161303
-4.381790 -1.051729 4.152198
-4.328032 -1.052222 4.179258
-4.307984 -1.052213 4.181592
-4.311316 -1.052400 4.140068
-4.244865 -1.051945 4.164855
-4.267272 -1.052315 4.147315
-4.193237 -1.051270 4.147012
-4.151721 -1.050177 4.163691
-4.132908 -1.049509 4.171191
-4.061141 -1.043914 4.178607
-4.034573 -1.043567 4.148465
-4.017092 -1.041458 4.148969
-4.044254 -1.043390 4.163400
-3.973857 -1.032831 4.167023
-3.890018 -1.015960 4.166305
-3.905770 -1.020829 4.151360
-3.869161 -1.010260 4.148338
-3.875644 -1.011072 4.173138
-5.089566 -1.048485 4.217138
-5.061177 -1.048408 4.202154
-4.943544 -1.049463 4.238749
-4.960559 -1.049351 4.237239
-4.896098 -1.049802 4.251645
-4.869614 -1.049928 4.253760
-4.884188 -1.049864 4.253407
-4.807244 -1.050061 4.238851
-4.835693 -1.049807 4.232855
-4.777763 -1.050793 4.269569
-4.782176 -1.050279 4.244284
-4.747671 -1.050894 4.264940
-4.723126 -1.050334 4.230638
-4.695709 -1.050605 4.235871
-4.713459 -1.051012 4.260965
-4.550005 -1.051092 4.236829
-4.467119 -1.052186 4.262759
-4.333020 -1.052374 4.263983
-4.335223 -1.052379 4.237429
-4.283407 -1.051818 4.246020
-4.308054 -1.052126 4.253317
-4.266891 -1.051619 4.232339
-4.211975 -1.050632 4.268808
-4.161810 -1.048946 4.251392
-4.181678 -1.049961 4.236128
-4.119612 -1.046105 4.265563
-4.061108 -1.040633 4.257689
-4.095803 -1.044276 4.259960
-4.051690 -1.039762 4.244467
-3.977340 -1.030027 4.236579
-4.632830 -1.052983 4.397399
-4.667489 -1.052618 4.382466
-4.601099 -1.053020 4.380129
-4.574511 -1.053212 4.378727
-4.499480 -1.053433 4.390215
-4.522567 -1.053127 4.359754
-4.480672 -1.053417 4.389193
-4.495380 -1.053216 4.367341
-4.450075 -1.053369 4.386385
-4.377785 -1.053379 4.375300
-4.329739 -1.053355 4.383842
-4.351439 -1.053459 4.388391
-4.304731 -1.053152 4.370905
-4.315172 -1.053142 4.370487
-4.261754 -1.052831 4.365543
-4.253820 -1.053265 4.392069
-4.147277 -1.049942 4.383856
-4.103081 -1.047792 4.397391
-4.118268 -1.048592 4.393987
-4.066389 -1.043280 4.363111
-4.081862 -1.045454 4.379217
-4.019057 -1.039050 4.385053
-3.992883 -1.035468 4.388112
-3.950000 -1.027385 4.377131
-3.881922 -1.009580 4.375157
-3.903790 -1.016280 4.376682
-4.454015 -1.054972 4.537781
-4.415065 -1.054946 4.537106
-4.337720 -1.055454 4.567101
-4.362363 -1.055541 4.572415
-4.315532 -1.055354 4.562368
-4.271313 -1.055199 4.538253
-4.186872 -1.054111 4.540670
-4.212098 -1.054778 4.565203
-4.171102 -1.053871 4.556237
-4.128955 -1.052609 4.547562
-4.115204 -1.052461 4.574282
-4.055933 -1.049649 4.577465
-4.067092 -1.050203 4.573889
-4.036759 -1.047292 4.559251
-4.005093 -1.043957 4.570166
-3.930322 -1.026809 4.537330
-4.985949 -1.054107 4.841233
-5.000212 -1.053961 4.833120
-4.957471 -1.053895 4.813369
-4.976816 -1.053923 4.822412
-4.909147 -1.054314 4.811450
-4.934288 -1.054315 4.842787
-4.887757 -1.054690 4.825216
-4.808126 -1.055620 4.828173
-4.739332 -1.055719 4.823089
-4.758893 -1.055698 4.821184
-4.681177 -1.055716 4.821425
-4.693562 -1.055898 4.835532
-4.643314 -1.055843 4.812897
-4.612137 -1.056491 4.841140
-4.606565 -1.056196 4.814832
-4.547071 -1.056785 4.813548
-4.578688 -1.056711 4.832353
-4.531026 -1.057094 4.827114
-4.471369 -1.057659 4.825782
-4.423961 -1.057861 4.809045
-4.382643 -1.058126 4.810432
-4.396493 -1.058086 4.818632
-4.351536 -1.058499 4.844933
-4.349178 -1.058299 4.812815
-4.291861 -1.058342 4.812799
-4.288406 -1.058545 4.837758
-4.259982 -1.058226 4.819776
-4.214392 -1.057656 4.822677
-4.167275 -1.056600 4.825461
-4.998240 -1.054156 4.853804
-5.020613 -1.054157 4.866637
-4.959002 -1.054320 4.866126
-4.960286 -1.054389 4.881638
-4.915561 -1.054532 4.850391
-4.860377 -1.055289 4.878188
-4.892643 -1.054762 4.852559
-4.806811 -1.055853 4.852878
-4.770989 -1.056186 4.874599
-4.735870 -1.056350 4.882943
-4.746160 -1.056180 4.861769
-4.701578 -1.056159 4.855020
-4.672080 -1.056434 4.877291
-4.585965 -1.057124 4.870564
-4.624180 -1.056517 4.853686
-4.584473 -1.056896 4.849670
-4.510661 -1.057631 4.868649
-4.506644 -1.057781 4.884351
-4.475476 -1.057905 4.865820
-4.468198 -1.058076 4.886372
-4.431569 -1.058289 4.883208
-4.390843 -1.058535 4.890123
-4.337457 -1.058590 4.850388
-4.284751 -1.058703 4.865864
-4.305492 -1.058738 4.868974
-4.248419 -1.058371 4.863093
-4.212456 -1.057736 4.851882
-4.226389 -1.058081 4.864560
-4.155042 -1.056266 4.867610
-4.105638 -1.053630 4.874904
-4.122547 -1.054706 4.847673
-4.069366 -1.050153 4.849579
-4.049942 -1.046838 4.886551
-3.986477 -1.030932 4.857796
-3.971818 -1.026671 4.887102
-4.042736 -1.038497 5.053678
-3.969557 -1.014954 5.034909
-5.204386 -1.025758 1.945759
-5.119872 -1.025988 1.935821
-5.153051 -1.026417 1.962083
-5.075386 -1.026080 1.937334
-5.045493 -1.026186 1.937158
-5.355014 -1.026840 2.038616
-5.311185 -1.027507 2.049093
-5.253419 -1.027900 2.052305
-5.275504 -1.027404 2.030959
-5.233662 -1.027607 2.025295
-5.240531 -1.028021 2.055758
-5.171276 -1.027722 2.027998
-5.183298 -1.027900 2.037423
-5.135725 -1.027474 2.016889
-5.137816 -1.027853 2.037452
-5.029094 -1.027843 2.023867
-5.050797 -1.028186 2.047518
-5.434029 -1.027953 2.124439
-5.470710 -1.027698 2.121505
-5.392419 -1.027949 2.105917
-5.409634 -1.028183 2.132501
-5.303241 -1.028602 2.132254
-5.325416 -1.028448 2.126052
-5.254849 -1.028890 2.138728
-5.290609 -1.028583 2.123484
-5.166331 -1.029157 2.144069
-5.188069 -1.028842 2.114575
-5.151346 -1.029155 2.140545
-5.137400 -1.028900 2.113267
-5.081423 -1.029266 2.125600
-5.113873 -1.029001 2.118021
-5.061515 -1.029616 2.142825
-4.564690 -1.035131 2.453300
-4.577754 -1.034715 2.416648
-4.514380 -1.035234 2.434049
-4.517822 -1.035018 2.412643
-4.411923 -1.035539 2.419610
-4.430624 -1.035402 2.415778
-4.367197 -1.035920 2.421688
-4.393782 -1.035925 2.439133
-4.348559 -1.036123 2.424763
-4.302588 -1.036518 2.428299
-4.249859 -1.036886 2.441928
-4.228595 -1.036950 2.441790
-4.144233 -1.037313 2.443594
-4.170759 -1.036943 2.422082
-4.102829 -1.037759 2.444990
-4.128858 -1.037254 2.418782
-4.093462 -1.037644 2.423112
-4.032203 -1.038130 2.425511
-4.036757 -1.038450 2.454369
-3.992137 -1.038267 2.422096
-3.958673 -1.038315 2.414236
-3.960423 -1.038437 2.426351
-3.896641 -1.038866 2.424970
-3.899678 -1.039137 2.452684
-3.864070 -1.038976 2.411305
-3.856980 -1.039215 2.430740
-3.821346 -1.039469 2.430179
-3.727951 -1.040355 2.432366
-3.679220 -1.040683 2.412857
-3.697615 -1.040482 2.413840
-3.611316 -1.041481 2.434230
-3.650821 -1.040990 2.412282
-3.776859 -1.040107 2.449670
-3.782853 -1.039870 2.434644
-3.573209 -1.041637 2.421859
-3.591351 -1.041611 2.434084
-3.536298 -1.042234 2.442834
-3.481726 -1.042804 2.451217
-3.443477 -1.042575 2.415068
-3.461514 -1.042874 2.449418
-3.408537 -1.042844 2.414876
-3.362082 -1.043492 2.452911
-3.307297 -1.043631 2.419545
-3.331977 -1.043438 2.417590
-3.285870 -1.043779 2.418366
-3.284148 -1.043900 2.436659
-3.253533 -1.044161 2.446804
-3.190746 -1.043920 2.421428
-3.204078 -1.043955 2.421165
-3.084377 -1.043644 2.425791
-3.098345 -1.043775 2.418973
-4.820596 -1.040903 3.135657
-4.774406 -1.041488 3.147122
-4.724011 -1.041521 3.130979
-4.755680 -1.041494 3.132413
-4.694803 -1.041526 3.119679
-4.718116 -1.041587 3.140604
-4.587554 -1.041934 3.134248
-4.616817 -1.041836 3.125674
-4.574304 -1.041867 3.127243
-4.577064 -1.042094 3.149460
-4.501029 -1.042452 3.148442
-4.506287 -1.042088 3.126445
-4.453872 -1.042682 3.121244
-4.482048 -1.042574 3.140244
-4.437648 -1.043190 3.154968
-4.379594 -1.042918 3.119071
-4.322410 -1.043221 3.127029
-4.357466 -1.043278 3.146727
-4.277685 -1.043444 3.129807
-4.257327 -1.043529 3.121273
-4.157171 -1.044247 3.139532
-4.101913 -1.044529 3.133926
-4.092807 -1.044396 3.120824
-4.017430 -1.044736 3.126849
-4.034755 -1.045088 3.159215
-3.979876 -1.045223 3.142882
-3.995077 -1.045273 3.157979
-3.882214 -1.046550 3.158605
-3.919270 -1.046003 3.147507
-3.854728 -1.046308 3.131567
-3.872988 -1.046657 3.161785
-3.810936 -1.046564 3.149830
-3.826275 -1.046341 3.131125
-3.744538 -1.046695 3.149865
-3.731450 -1.046803 3.159019
-3.727511 -1.046394 3.123630
-3.673820 -1.046546 3.145251
-3.695398 -1.046485 3.132957
-3.587214 -1.046138 3.160094
-3.599987 -1.046271 3.147585
-3.562514 -1.046101 3.125838
-3.487562 -1.044762 3.152075
-3.519550 -1.045668 3.122941
-3.449770 -1.043185 3.162787
-3.451464 -1.044276 3.133839
-4.996888 -1.042469 3.411949
-5.009481 -1.042385 3.388688
-4.962795 -1.042871 3.427976
-4.957804 -1.042558 3.394196
-4.906236 -1.043184 3.404724
-4.862361 -1.043600 3.410523
-4.842423 -1.043664 3.408556
-4.793120 -1.043454 3.385687
-4.677926 -1.044319 3.422394
-4.714701 -1.043868 3.409000
-4.606050 -1.044780 3.401288
-4.582030 -1.045026 3.418674
-4.509424 -1.044984 3.398975
-4.527901 -1.045073 3.410945
-4.458832 -1.045293 3.392347
-4.488456 -1.045368 3.426578
-4.418404 -1.045648 3.409778
-4.428578 -1.045594 3.416405
-4.389862 -1.045852 3.427484
-4.399718 -1.045723 3.403476
-4.326207 -1.046037 3.421661
-4.278696 -1.045754 3.396700
-4.291491 -1.045632 3.392632
-4.246306 -1.045985 3.402347
-4.254345 -1.046022 3.405894
-4.146040 -1.046711 3.398251
-4.184453 -1.046529 3.417779
-4.121268 -1.046919 3.411194
-4.139521 -1.046787 3.405587
-4.070854 -1.047383 3.405884
-4.094644 -1.047055 3.395704
-4.027043 -1.047588 3.389016
-3.990268 -1.047788 3.393544
-3.941002 -1.048458 3.424464
-3.899859 -1.048930 3.415472
-6.598205 -1.011668 3.786119
-6.528750 -1.020445 3.822076
-6.489316 -1.029140 3.783531
-6.427245 -1.030785 3.826768
-6.437605 -1.031880 3.786281
-6.356814 -1.034701 3.813848
-6.390615 -1.033939 3.783484
-6.318249 -1.035869 3.793012
-6.345052 -1.035123 3.801896
-6.274948 -1.036860 3.827365
-6.223917 -1.037676 3.809894
-6.261586 -1.037077 3.795357
-6.201599 -1.037886 3.799109
-6.137349 -1.038498 3.791644
-5.946511 -1.040308 3.822318
-6.023077 -1.039508 3.800439
-5.872653 -1.040444 3.817497
-5.909594 -1.040441 3.827288
-5.837955 -1.040375 3.793215
-5.855082 -1.040441 3.804577
-5.795497 -1.040470 3.814119
-5.679846 -1.041388 3.799284
-5.645004 -1.041737 3.802042
-5.589331 -1.042008 3.809355
-5.542549 -1.042182 3.816886
-5.556231 -1.042070 3.793503
-5.446008 -1.042605 3.805118
-5.463795 -1.042513 3.803544
-5.398008 -1.042744 3.787008
-5.425545 -1.042652 3.800229
-5.357610 -1.043407 3.828332
-5.373859 -1.043726 3.859102
-5.252623 -1.045002 3.845833
-5.285525 -1.044659 3.843863
-5.229124 -1.045066 3.842485
-5.198019 -1.045133 3.834355
-5.178744 -1.045481 3.862356
-5.148966 -1.045694 3.864882
-5.145660 -1.045509 3.833370
-5.080096 -1.045895 3.852154
-5.093926 -1.045742 3.846877
-5.041813 -1.046251 3.847229
-5.039198 -1.046138 3.838538
-6.406152 -1.022676 3.970395
-6.439103 -1.012747 3.990878
-6.390228 -1.023380 3.986080
-6.314771 -1.031364 4.002120
-6.345363 -1.030355 3.970470
-6.278332 -1.034094 3.992536
-6.286180 -1.034362 3.968951
-6.168577 -1.038169 3.962487
-6.121176 -1.038768 3.992036
-5.970894 -1.040608 3.970530
-5.998138 -1.040307 3.974050
-5.930733 -1.041004 4.002426
-5.936202 -1.040903 3.980990
-6.069364 -1.039340 3.977914
-6.052325 -1.039528 4.004399
-6.018437 -1.040025 4.004189
-6.033692 -1.039804 3.985598
-5.908612 -1.041183 4.000607
-5.901866 -1.041136 3.973549
-5.825550 -1.041541 3.980514
-5.789290 -1.041739 3.971094
-5.809495 -1.041753 3.988243
-5.744013 -1.042366 4.003522
-5.716544 -1.042175 3.976878
-5.725519 -1.042273 3.989182
-5.617085 -1.042872 3.974170
-5.647198 -1.042587 3.965995
-5.594652 -1.042936 3.961803
-5.534849 -1.043705 3.993542
-5.534281 -1.043364 3.973954
-5.491219 -1.043612 3.982632
-5.389754 -1.045037 3.974731
-5.415994 -1.044367 3.973040
-5.341332 -1.045758 3.991920
-5.314428 -1.045730 3.980316
-5.254175 -1.045884 3.992642
-5.266715 -1.045635 3.968367
-4.749855 -1.048929 4.013152
-4.749783 -1.048833 4.043282
-4.693894 -1.049066 4.028301
-4.635984 -1.049417 4.026237
-4.650163 -1.049331 4.006126
-4.597301 -1.049561 4.033840
-4.621561 -1.049487 4.028795
-4.525576 -1.050112 4.026936
-4.480364 -1.050339 4.014255
-4.484328 -1.050329 4.038260
-4.421773 -1.050731 4.044248
-4.432055 -1.050544 4.012407
-4.379014 -1.050808 4.017077
-4.232070 -1.051701 4.030689
-4.250031 -1.051783 4.047720
-4.219670 -1.051567 4.006757
-4.209394 -1.051687 4.032529
-4.161670 -1.051583 4.037974
-4.159940 -1.051547 4.009130
-4.105240 -1.051077 4.030051
-4.141340 -1.051430 4.023223
-4.055833 -1.049901 4.016222
-4.093411 -1.050886 4.025661
-4.039172 -1.049029 4.042772
-4.046412 -1.049354 4.009705
-3.975382 -1.041685 4.030687
-3.977249 -1.043489 4.011514
-3.941552 -1.040076 4.009803
-3.882674 -1.026743 4.031690
-3.840192 -1.016593 4.023185
-3.858895 -1.021659 4.026556
-5.173576 -1.046920 4.128808
-5.196345 -1.046662 4.120926
-5.129750 -1.047160 4.096162
-5.073148 -1.047785 4.129636
-5.115698 -1.047578 4.136364
-5.045474 -1.047786 4.123033
-5.064642 -1.047688 4.104397
-6.103446 -1.017445 4.574158
-6.118157 -1.017458 4.536858
-5.956782 -1.041225 4.548998
-6.055520 -1.030334 4.574113
-6.021744 -1.035693 4.575296
-6.018251 -1.036786 4.539942
-5.987042 -1.039494 4.560370
-5.887609 -1.042999 4.552048
-5.843418 -1.043819 4.575109
-5.861121 -1.043316 4.544218
-5.802177 -1.043986 4.538680
-5.819132 -1.044018 4.565107
-5.760026 -1.044630 4.550041
-5.699909 -1.045338 4.539951
-5.721865 -1.045166 4.577501
-5.648363 -1.045876 4.579275
-5.667969 -1.045656 4.536669
-5.645449 -1.045904 4.551587
-5.593155 -1.046939 4.575406
-5.588581 -1.046805 4.541351
-5.547835 -1.047669 4.578550
-5.541307 -1.047400 4.547416
-5.432825 -1.048295 4.542562
-5.465475 -1.048377 4.579788
-5.354133 -1.048687 4.556170
-5.365980 -1.048707 4.561506
-5.296160 -1.049653 4.578700
-5.335005 -1.048556 4.539372
-5.260982 -1.049551 4.552236
-5.226160 -1.049832 4.544605
-5.233007 -1.049987 4.565888
-5.201934 -1.050353 4.572786
-5.123785 -1.051043 4.550011
-5.124584 -1.050938 4.542165
-5.079700 -1.051424 4.543620
-5.033737 -1.051826 4.553713
-5.061334 -1.051746 4.562604
-4.988647 -1.053043 4.719676
-4.965340 -1.053177 4.719606
-4.977627 -1.053267 4.747032
-4.933043 -1.053572 4.755592
-4.859131 -1.054249 4.747499
-4.893297 -1.053691 4.721089
-4.829684 -1.054579 4.757011
-4.790904 -1.054376 4.723998
-4.719054 -1.054885 4.725914
-4.735798 -1.054885 4.751060
-4.671150 -1.055391 4.756451
-4.587600 -1.055853 4.730005
-4.541114 -1.056458 4.741233
-4.559196 -1.056216 4.740224
-4.475287 -1.056972 4.729101
-4.421232 -1.057430 4.756988
-4.430314 -1.057077 4.720682
-4.400888 -1.057324 4.736940
-4.279381 -1.057781 4.756577
-4.240345 -1.057399 4.746457
-4.253634 -1.057170 4.716466
-4.188153 -1.056575 4.724797
-4.226295 -1.057344 4.753659
-4.151592 -1.055990 4.739460
-4.155197 -1.055831 4.717684
-4.091129 -1.053833 4.727967
-4.031546 -1.048802 4.742768
-3.946262 -1.017291 4.727508
-3.955966 -1.026574 4.715459
-4.994365 -1.025734 5.394037
-5.012697 -1.017431 5.414711
-4.950794 -1.016137 5.390553
-4.979345 -1.017644 5.399622
-4.819772 -1.018793 1.713421
-4.815320 -1.021484 1.744256
-4.786197 -1.019691 1.707714
-4.798607 -1.021384 1.736326
-4.733608 -1.022011 1.717764
-4.758059 -1.022955 1.741802
-4.706193 -1.022400 1.711069
-4.656079 -1.023450 1.707941
-4.660968 -1.024074 1.724207
-4.615013 -1.025221 1.734953
-4.558090 -1.025498 1.721335
-4.549909 -1.026286 1.744139
-4.467128 -1.027207 1.745822
-4.423090 -1.027184 1.726185
-4.365085 -1.027658 1.733075
-4.405116 -1.027043 1.707371
-4.346813 -1.027715 1.734664
-4.322580 -1.027109 1.703051
-4.289096 -1.027370 1.710474
-4.300508 -1.027786 1.733291
-4.261839 -1.027622 1.715585
-4.199137 -1.028072 1.724881
-4.221317 -1.028134 1.728901
-4.174332 -1.028244 1.734226
-4.128515 -1.028164 1.725400
-4.068689 -1.028268 1.707571
-4.066156 -1.028494 1.738287
-4.022424 -1.028935 1.722890
-4.007645 -1.029260 1.744957
-4.005619 -1.029269 1.741370
-3.946809 -1.030062 1.735681
-3.947812 -1.029976 1.726590
-3.898460 -1.030663 1.731875
-3.863470 -1.031193 1.742415
-3.790295 -1.031470 1.723639
-3.814210 -1.031439 1.735816
-3.709315 -1.032327 1.731503
-3.710004 -1.031939 1.706959
-3.613384 -1.032939 1.723782
-3.616085 -1.032616 1.702086
-3.589814 -1.033211 1.737086
-3.543807 -1.033616 1.741427
-3.488109 -1.033969 1.714494
-4.725934 -1.029251 2.001833
-4.750482 -1.029182 2.003368
-4.687597 -1.029262 1.984029
-4.662945 -1.029584 2.010942
-4.662027 -1.029414 1.996280
-4.610651 -1.029216 1.978716
-4.599790 -1.029547 2.001627
-4.549327 -1.029648 2.004717
-4.537103 -1.029828 2.009830
-4.512265 -1.028995 1.972881
-4.459308 -1.030223 2.007837
-4.408830 -1.030241 2.000072
-4.452209 -1.029940 1.991049
-4.370378 -1.029898 1.971977
-4.389886 -1.030323 2.005335
-4.343367 -1.030262 1.994456
-4.357778 -1.029991 1.977162
-4.302390 -1.030673 2.004652
-4.284184 -1.030320 1.967834
-4.242819 -1.030918 1.980402
-4.248728 -1.030686 1.969467
-4.201009 -1.031514 1.990435
-4.167306 -1.031559 1.976172
-4.181850 -1.031941 2.005216
-4.104042 -1.032145 1.984741
-4.128870 -1.032240 2.002898
-4.028580 -1.032908 1.998427
-3.967602 -1.033434 2.002261
-3.994410 -1.033212 2.000392
-3.885498 -1.034151 1.979669
-3.856959 -1.034811 2.009546
-3.864269 -1.034588 1.997981
-3.803034 -1.035336 1.998494
-3.821245 -1.034985 1.981978
-3.744296 -1.035771 1.994798
-3.750359 -1.035365 1.970148
-3.709821 -1.036181 2.006312
-3.704782 -1.035583 1.968366
-3.662934 -1.036435 1.996490
-3.690238 -1.036050 1.989235
-3.644024 -1.036761 2.005855
-3.630370 -1.036558 1.985058
-3.578425 -1.037290 2.004662
-3.526846 -1.037433 1.988789
-3.556505 -1.037426 2.004102
-3.513350 -1.037322 1.968802
-3.513601 -1.037643 2.002399
-3.462473 -1.037850 2.002342
-3.408223 -1.038184 1.993572
-3.373621 -1.038606 1.996193
-5.020122 -1.029846 2.151211
-5.021271 -1.029912 2.157520
-4.962310 -1.029877 2.153126
-4.975813 -1.029968 2.161440
-4.909185 -1.030239 2.183997
-4.871713 -1.030283 2.178426
-3.050669 -1.043056 2.447071
-3.070057 -1.043416 2.432422
-3.032318 -1.042783 2.437081
-2.984012 -1.040978 2.442320
-2.904772 -1.036651 2.435110
-2.945003 -1.039492 2.435112
-2.891397 -1.036745 2.415386
-2.826427 -1.014032 2.413714
-4.996740 -1.035362 2.698345
-4.942039 -1.035430 2.692024
-4.979606 -1.035424 2.703905
-4.898395 -1.035603 2.676843
-4.875229 -1.036081 2.714866
-4.883137 -1.035775 2.686094
-4.830039 -1.036127 2.702678
-4.836033 -1.035949 2.685111
-4.806013 -1.036166 2.697427
-4.733181 -1.036368 2.684820
-4.756008 -1.036386 2.697682
-4.712218 -1.036567 2.690886
-4.652867 -1.037172 2.707206
-4.592652 -1.037438 2.709325
-4.625068 -1.037380 2.712663
-4.542153 -1.037534 2.685002
-4.577252 -1.037511 2.710740
-4.487735 -1.037951 2.678197
-4.482899 -1.038123 2.693899
-4.428208 -1.038424 2.677711
-4.390545 -1.038843 2.708605
-4.401476 -1.038694 2.695194
-4.292576 -1.039159 2.697409
-4.286159 -1.039405 2.713229
-4.236979 -1.039456 2.692590
-4.264561 -1.039316 2.697834
-4.208373 -1.039825 2.709575
-4.217198 -1.039694 2.703653
-4.178344 -1.039848 2.698581
-4.100397 -1.040464 2.696689
-4.128256 -1.040490 2.717698
-4.068997 -1.040650 2.681867
-4.094537 -1.040365 2.684700
-4.046416 -1.040877 2.678418
-4.039034 -1.041257 2.713654
-3.976493 -1.041522 2.702677
-4.007071 -1.041359 2.695948
-4.112523 -1.040219 2.686261
-3.595959 -1.045847 3.002516
-3.535617 -1.045867 3.005364
-3.547238 -1.045880 2.999586
-3.522185 -1.045868 3.025230
-3.444443 -1.045940 3.009252
-3.430896 -1.045763 3.028515
-3.371833 -1.045145 3.029046
-3.361607 -1.045534 2.993395
-3.343696 -1.045094 3.006229
-3.284985 -1.043425 3.025616
-3.233967 -1.040755 3.020593
-3.212956 -1.040327 2.997664
-3.246232 -1.041590 3.025442
-3.170021 -1.034028 2.997656
-3.189310 -1.033225 3.018598
-3.143444 -1.013237 3.030233
-6.243449 -1.033575 3.057642
-6.260916 -1.033451 3.054229
-6.206813 -1.033832 3.062003
-6.202249 -1.033552 3.037820
-6.139785 -1.033849 3.070399
-6.169302 -1.033839 3.055379
-6.068150 -1.034001 3.056699
-6.014373 -1.034398 3.058002
-5.967967 -1.034876 3.067360
-5.985353 -1.034608 3.056092
-5.938322 -1.034787 3.043009
-5.951256 -1.034734 3.043543
-5.872778 -1.035017 3.031884
-5.898682 -1.035065 3.052619
-5.826475 -1.035558 3.066357
-5.846206 -1.035487 3.074126
-5.799727 -1.035728 3.066097
-5.810698 -1.035451 3.037100
-5.757145 -1.035669 3.047128
-5.760524 -1.035899 3.071624
-5.714627 -1.035825 3.063520
-5.699421 -1.035519 3.037080
-5.672221 -1.035808 3.050132
-5.677846 -1.035925 3.060982
-5.630318 -1.035973 3.036611
-5.631866 -1.036304 3.070689
-5.581461 -1.036499 3.060163
-5.574255 -1.036312 3.034065
-5.479780 -1.036821 3.053463
-5.513739 -1.036772 3.049317
-5.427599 -1.037104 3.059936
-5.457992 -1.036999 3.067651
-5.405754 -1.037253 3.059756
-5.346728 -1.037585 3.046508
-5.359840 -1.037384 3.030693
-5.302638 -1.037958 3.065699
-5.256428 -1.038422 3.071961
-5.276548 -1.037840 3.034528
-5.242213 -1.038129 3.035821
-5.192341 -1.038602 3.050678
-5.136208 -1.038727 3.034270
-5.087375 -1.039023 3.054299
-5.100591 -1.038877 3.042906
-5.031290 -1.039294 3.062386
-5.062093 -1.039137 3.055051
-3.392887 -1.043819 3.091779
-3.373166 -1.042818 3.103154
-3.366648 -1.043210 3.088283
-3.283084 -1.035675 3.110591
-3.216728 -1.027463 3.094055
-3.184762 -1.012460 3.098188
-3.191528 -1.020449 3.084210
-6.224030 -1.034526 3.223445
-6.231411 -1.034352 3.251895
-6.211615 -1.034568 3.216313
-6.159342 -1.034690 3.240073
-6.170320 -1.034638 3.208704
-6.134783 -1.034877 3.237892
-6.056662 -1.035379 3.214376
-6.090010 -1.035120 3.214360
-5.959713 -1.036168 3.250638
-5.913882 -1.036404 3.229784
-5.931312 -1.036137 3.216124
-5.891045 -1.036406 3.211306
-5.888800 -1.036627 3.238313
-5.840450 -1.036736 3.235426
-5.859343 -1.036611 3.217068
-5.806484 -1.036731 3.234149
-5.750377 -1.036778 3.220842
-5.697264 -1.037104 3.236994
-5.731002 -1.036770 3.208551
-5.672122 -1.036929 3.208154
-5.692143 -1.037232 3.247673
-5.604199 -1.037098 3.215426
-5.635542 -1.037194 3.229981
-5.588263 -1.037313 3.247015
-5.549129 -1.037051 3.211708
-5.550023 -1.037296 3.244083
-5.505391 -1.037589 3.241372
-5.430791 -1.038540 3.220210
-5.434402 -1.038423 3.214228
-5.404569 -1.038838 3.220055
-5.413879 -1.038992 3.249334
-5.368966 -1.039159 3.229263
-5.322273 -1.039374 3.239066
-5.265341 -1.039704 3.234903
-5.274236 -1.039711 3.243882
-5.207506 -1.039884 3.216109
-5.214628 -1.040043 3.246239
-5.133138 -1.040693 3.215897
-5.072668 -1.041140 3.219205
-5.112830 -1.041018 3.229087
-5.053848 -1.041360 3.247983
-5.195793 -1.039993 3.217604
-3.843494 -1.047684 3.264776
-3.871789 -1.047767 3.289542
-3.795533 -1.047812 3.264918
-3.827725 -1.047679 3.257215
-3.751972 -1.048003 3.277255
-3.713521 -1.047875 3.267540
-3.743360 -1.048144 3.292109
-3.677544 -1.047592 3.295249
-3.669707 -1.047275 3.258880
-3.629668 -1.046292 3.256526
-3.572264 -1.043830 3.270400
-3.605385 -1.045360 3.287550
-3.540878 -1.040654 3.288842
-3.550174 -1.043024 3.252508
-3.518263 -1.040476 3.260698
-3.482812 -1.037397 3.255867
-3.459605 -1.034929 3.252714
-3.394095 -1.023493 3.265432
-3.353160 -1.014906 3.267982
-5.898867 -1.037888 3.457641
-5.859966 -1.038174 3.461335
-5.785211 -1.038845 3.451568
-5.799750 -1.038579 3.441437
-5.761186 -1.038887 3.445672
-5.651314 -1.039405 3.457335
-5.672806 -1.039381 3.464195
-5.622597 -1.039397 3.450387
-5.575706 -1.039691 3.461130
-5.440973 -1.040657 3.450434
-5.451216 -1.040623 3.472218
-5.396803 -1.040923 3.444924
-5.555068 -1.039838 3.464835
-5.332561 -1.041236 3.470319
-5.326638 -1.040935 3.429820
-5.260405 -1.041801 3.460486
-5.222103 -1.041869 3.442522
-5.164969 -1.042311 3.457218
-5.185292 -1.042210 3.458057
-5.138954 -1.042407 3.448968
-5.079608 -1.042704 3.447422
-5.110073 -1.042624 3.462526
-5.039636 -1.042708 3.444353
-4.993737 -1.048121 4.119011
-5.012951 -1.047871 4.112489
-4.951375 -1.048584 4.125847
-4.987509 -1.050543 4.368085
-5.004522 -1.050408 4.373630
-4.955793 -1.050930 4.400892
-4.981577 -1.050818 4.397744
-4.915889 -1.050966 4.399081
-4.857816 -1.050904 4.374393
-4.819416 -1.051407 4.383022
-4.786837 -1.051622 4.368661
-4.781666 -1.051896 4.395984
-4.726933 -1.052378 4.401070
-4.684072 -1.052405 4.365056
-4.687836 -1.052559 4.391980
-4.287977 -1.053941 4.426780
-4.231609 -1.053464 4.412085
-4.272835 -1.054283 4.443029
-4.192905 -1.052765 4.422209
-4.214736 -1.053600 4.437461
-4.172548 -1.052396 4.436876
-4.106075 -1.049217 4.436255
-4.141978 -1.050717 4.420195
-4.068678 -1.045256 4.404782
-4.025429 -1.041995 4.437498
-4.047081 -1.044036 4.424777
-3.935498 -1.026415 4.432891
-3.955942 -1.030805 4.430466
-3.888942 -1.011996 4.419104
-3.891173 -1.012863 4.414535
-4.844151 -1.019401 5.333741
-4.938020 -1.013437 5.388041
-4.065208 -1.011005 1.229832
-4.037842 -1.016847 1.257490
-3.985854 -1.017983 1.235721
-3.972251 -1.020446 1.258347
-3.866522 -1.021814 1.222004
-3.831524 -1.023021 1.239985
-3.715371 -1.022443 1.223500
-3.713617 -1.023893 1.256050
-3.664418 -1.022601 1.245436
-3.663546 -1.023107 1.255525
-3.629964 -1.020750 1.233362
-3.571604 -1.016696 1.219454
-3.591822 -1.019634 1.237454
-3.533694 -1.017263 1.241463
-3.487509 -1.008888 1.218225
-3.503098 -1.015946 1.244468
-3.453064 -1.010145 1.234553
