-3.276774 0.527697 5.588643
-3.261890 0.503473 5.602530
-3.276931 0.537027 5.595394
-3.277930 0.729333 5.602439
-3.556186 1.020556 5.588590
-3.540861 0.991368 5.586529
-3.517533 0.982756 5.599155
-3.540527 1.019375 5.602238
-3.552731 1.019514 5.590847
-3.540601 1.004920 5.593442
-3.409168 0.830429 5.583184
-3.402534 0.821826 5.581395
-3.430812 0.852823 5.584927
-3.398530 0.857284 5.600883
-3.415038 0.847579 5.589462
-3.452633 0.880882 5.585983
-3.450005 0.902326 5.597113
-3.468710 0.906487 5.588900
-3.372863 0.830013 5.594067
-3.383973 0.805873 5.579403
-3.351967 0.819125 5.592472
-3.361248 0.804465 5.583189
-3.381764 0.840810 5.597736
-3.365040 0.833339 5.597758
-3.336764 0.811633 5.591846
-3.284765 0.818803 5.632765
-3.316861 0.855318 5.634299
-3.303970 0.844883 5.635321
-3.299742 0.839325 5.633784
-3.289537 0.847166 5.657337
-3.341498 0.883152 5.645527
-3.387473 0.909262 5.631951
-3.357349 0.909721 5.655993
-3.352915 0.891270 5.644262
-3.336506 0.873978 5.640049
-3.407802 0.927978 5.631787
-3.434632 0.959616 5.639656
-3.465050 0.995180 5.643389
-3.462731 0.983153 5.637652
-3.484318 1.015779 5.642587
-3.476065 1.006174 5.642488
-3.464311 1.017996 5.656028
-3.443277 0.987272 5.652102
-3.440133 0.975175 5.646681
-3.388938 0.921435 5.639674
-3.365495 0.918383 5.656420
-3.504856 1.049885 5.647703
-3.531164 1.066974 5.632477
-3.513654 1.074240 5.648693
-3.523669 1.067456 5.638866
-3.560403 1.125261 5.635440
-3.548920 1.103318 5.632644
-3.521414 1.083434 5.646582
-3.544492 1.113761 5.642446
-3.578515 1.149473 5.631052
-3.549150 1.133171 5.650979
-3.592771 1.201826 5.636635
-3.596815 1.227907 5.641302
-3.595474 1.220043 5.639899
-3.501199 1.049180 5.650162
-3.482321 1.042726 5.657826
-3.493554 1.586944 5.721114
-3.495521 1.600707 5.725008
-3.500874 1.626166 5.731924
-3.556572 1.715826 5.719814
-3.549359 1.700259 5.718114
-3.535826 1.680525 5.723886
-3.548195 1.713896 5.731201
-3.574211 1.738501 5.717901
-3.332754 0.582781 5.746980
-3.337620 0.594199 5.757295
-3.333763 0.591492 5.749880
-3.335733 0.631670 5.758191
-3.327039 0.656030 5.744344
-3.332929 0.649134 5.754880
-3.332984 0.693098 5.760376
-3.335085 0.683479 5.763294
-3.335625 0.676242 5.763476
-3.334208 0.710587 5.764684
-3.324873 0.741021 5.750357
-3.324160 0.734627 5.748364
-3.328199 0.749906 5.757681
-3.330327 0.803436 5.764331
-3.323692 0.783118 5.751110
-3.321667 0.814634 5.746324
-3.327176 0.806952 5.757881
-3.322609 0.853279 5.746698
-3.324797 0.839677 5.752099
-3.328241 0.865904 5.759336
-3.329822 0.896479 5.760283
-3.326466 0.913317 5.740768
-3.333936 0.951513 5.760103
-3.337831 0.983015 5.753443
-3.345414 1.021841 5.753906
-3.339951 0.995565 5.752340
-3.499566 1.695744 5.779825
-3.489316 1.683955 5.784695
-3.349602 0.934543 5.812498
-3.348395 0.915336 5.809207
-3.345772 0.951124 5.802574
-3.352408 0.964585 5.820960
-3.351435 0.994084 5.818049
-3.349834 0.974925 5.813521
-3.349371 1.013499 5.810596
-3.352205 1.014412 5.819991
-3.350752 1.069660 5.810607
-3.350717 1.061485 5.811424
-3.348289 1.087247 5.795204
-3.350106 1.079977 5.805975
-3.351112 1.108003 5.806490
-3.353446 1.156888 5.807555
-3.354247 1.186661 5.820595
-3.353427 1.162960 5.800761
-3.354755 1.206713 5.814426
-3.354427 1.205978 5.821402
-3.358050 1.220791 5.798826
-3.355923 1.216568 5.811477
-3.363585 1.248516 5.869987
-3.359205 1.289669 5.857755
-3.364406 1.295442 5.876073
-3.355475 1.373521 5.859827
-3.360744 1.353508 5.871514
-3.353273 1.386681 5.855072
-3.360892 1.389052 5.874224
-3.357118 1.413154 5.862730
-3.397540 1.564956 5.866893
-3.393958 1.546601 5.870383
-3.362582 1.463372 5.857003
-3.378570 1.512490 5.853576
-3.381388 1.508525 5.872602
-3.387327 1.534729 5.852503
-3.385964 1.523577 5.866910
-4.189281 -0.885209 4.503678
-4.165685 -0.880441 4.498879
-4.187868 -0.856062 4.503486
-4.205594 -0.844055 4.507771
-4.176876 -0.845335 4.500116
-4.176545 -0.859361 4.501001
-4.169806 -0.819528 4.495381
-4.189172 -0.792001 4.503370
-4.200722 -0.799316 4.507294
-4.170260 -0.803238 4.495549
-4.163748 -0.792813 4.496023
-4.160449 -0.769396 4.504593
-4.148905 -0.937802 4.497825
-4.141722 -0.940192 4.496387
-4.118224 -0.938397 4.489995
-4.155095 -0.906916 4.497198
-4.151031 -0.893002 4.495988
-4.125963 -0.900171 4.489817
-4.105118 -0.915085 4.483883
-4.106010 -0.887592 4.484435
-4.154924 -0.841618 4.494602
-4.129115 -0.859882 4.491876
-4.110916 -0.851369 4.489645
-4.076395 -0.861911 4.483659
-4.157307 -0.813541 4.491477
-4.133415 -0.823762 4.492553
-4.113923 -0.810706 4.495210
-4.103756 -0.836692 4.492185
-4.136267 -0.804682 4.493853
-4.120856 -0.784358 4.499891
-4.101339 -0.827318 4.493639
-4.088999 -0.810374 4.496757
-4.059252 -0.817863 4.493314
-4.102434 -0.808912 4.496854
-4.096241 -0.806126 4.497570
-4.075286 -0.787370 4.501966
-4.071902 -0.784823 4.502147
-4.151481 -0.765299 4.506863
-4.126347 -0.765390 4.506928
-4.106290 -0.778390 4.503789
-4.099606 -0.765056 4.507563
-4.057106 -0.776622 4.502460
-4.052181 -0.743131 4.508479
-4.047685 -0.824971 4.490280
-4.027557 -0.825513 4.487051
-4.001045 -0.821227 4.484420
-3.991925 -0.824575 4.482473
-3.984432 -0.799410 4.486115
-3.956146 -0.788019 4.484271
-4.031767 -0.764261 4.501118
-4.027179 -0.763729 4.500413
-4.011806 -0.772489 4.495923
-4.046016 -0.751286 4.506352
-4.041914 -0.728808 4.508869
-4.007523 -0.738327 4.502343
-3.983867 -0.774763 4.491058
-3.974954 -0.762362 4.493273
-3.961050 -0.769505 4.489622
-3.949758 -0.762765 4.490577
-3.960602 -0.745868 4.496663
-3.940557 -0.745120 4.495548
-3.919933 -0.944884 4.486058
-3.906023 -0.935059 4.488446
-3.895736 -0.920337 4.488593
-3.884566 -0.916157 4.491496
-3.847234 -0.931993 4.507392
-3.879902 -0.915301 4.492876
-3.873857 -0.900565 4.492403
-3.849191 -0.897223 4.499176
-3.899481 -0.870651 4.482329
-3.892612 -0.867991 4.483561
-3.892069 -0.841173 4.483530
-3.882640 -0.885816 4.487542
-3.877243 -0.868685 4.487255
-3.837788 -0.884759 4.502157
-3.876203 -0.861591 4.487436
-3.851761 -0.838513 4.497766
-4.433709 -0.956060 4.588384
-4.408666 -0.980300 4.586487
-4.383612 -0.984681 4.578883
-4.391021 -0.979334 4.579484
-4.397791 -0.995844 4.589438
-4.418612 -0.948383 4.580220
-4.382961 -0.965871 4.571228
-4.349915 -1.014198 4.584559
-4.323885 -1.003223 4.564441
-4.328460 -1.024994 4.588717
-4.273077 -1.031611 4.578662
-4.312982 -1.009358 4.566372
-4.300079 -1.027630 4.581409
-4.357028 -0.981986 4.565930
-4.369693 -0.998706 4.579774
-4.372715 -0.962078 4.565313
-4.243354 -1.031869 4.571329
-4.264591 -1.038649 4.588425
-4.216622 -1.036335 4.574507
-4.234773 -1.036044 4.577432
-4.206633 -1.034861 4.569613
-4.161757 -1.038558 4.568249
-3.721197 -0.782336 4.592382
-3.747013 -0.731380 4.591763
-3.738158 -0.736981 4.596797
-3.728598 -0.752038 4.598163
-4.228741 0.162154 4.719279
-4.212987 0.171099 4.715030
-4.199576 0.167847 4.710344
-4.180172 0.167023 4.708064
-4.191840 0.189795 4.721714
-4.183465 0.196211 4.724095
-4.159778 0.208395 4.726728
-3.966563 -0.071456 4.719784
-3.964526 -0.052753 4.725905
-3.990645 -0.038112 4.709344
-3.977281 -0.034276 4.721247
-3.972866 -0.044018 4.721721
-4.016204 0.008512 4.701406
-3.996397 0.020263 4.722262
-3.989172 -0.001623 4.721518
-4.049619 0.090517 4.706852
-4.134095 0.136288 4.705245
-4.117051 0.142167 4.710946
-4.077791 0.113766 4.708650
-4.069913 0.111518 4.710233
-4.066799 0.111942 4.711907
-4.080477 0.143225 4.722722
-4.097993 0.121148 4.706782
-4.075345 0.145942 4.725704
-4.060488 0.123921 4.722895
-4.002805 0.047859 4.724002
-4.014347 0.056532 4.715920
-4.024986 0.087135 4.722965
-4.024294 0.067301 4.711109
-4.017212 0.081406 4.726028
-4.046861 0.107643 4.720069
-4.133632 0.172704 4.717340
-4.126864 0.166022 4.716563
-4.116751 0.166610 4.719198
-4.149285 0.187329 4.720499
-4.134934 0.187629 4.721524
-4.124881 0.196688 4.724916
-4.108366 0.179593 4.724856
-4.080726 0.155464 4.727270
-3.837347 -0.243001 4.756672
-3.851274 -0.215855 4.758616
-3.860338 -0.204197 4.755811
-3.851711 -0.206085 4.761938
-3.802291 -0.266179 4.767426
-3.792697 -0.270566 4.770725
-3.796999 -0.287361 4.758264
-3.820679 -0.251923 4.763116
-3.801911 -0.253887 4.774745
-3.769381 -0.283422 4.777401
-3.860927 -0.161023 4.768677
-3.855841 -0.154320 4.774467
-3.851574 -0.177235 4.770858
-3.870027 -0.127983 4.772351
-3.864776 -0.149237 4.769454
-3.884311 -0.141309 4.757721
-3.857098 -0.132084 4.780876
-3.909184 -0.083230 4.758026
-3.886701 -0.081525 4.778418
-3.880975 -0.117762 4.767735
-4.272011 0.383705 4.813126
-4.299623 0.395356 4.823780
-4.283350 0.409887 4.817449
-3.446027 -0.869245 4.855846
-3.439364 -0.859257 4.863379
-3.443862 -0.855972 4.858135
-3.454395 -0.818258 4.846626
-3.446781 -0.830710 4.854694
-3.441139 -0.808136 4.862454
-3.463363 -0.766327 4.842652
-3.456381 -0.735112 4.858662
-3.455449 -0.751919 4.854462
-3.503626 -0.652839 4.846336
-3.518833 -0.634578 4.839493
-3.506348 -0.627858 4.853989
-3.517816 -0.610459 4.849921
-3.523991 -0.572228 4.857406
-3.531485 -0.563581 4.852484
-3.543089 -0.528114 4.844773
-3.489209 -0.705077 4.837537
-3.475033 -0.704658 4.851110
-3.473226 -0.724890 4.846045
-3.457459 -0.722469 4.861032
-3.490214 -0.683629 4.844921
-3.477743 -0.698933 4.850565
-3.483035 -0.666579 4.858824
-3.386122 -0.394390 4.993373
-3.620568 -0.107850 4.975689
-3.656538 -0.084580 4.976747
-3.634452 -0.075761 4.992155
-3.616654 -0.081546 4.993876
-3.535737 -0.133325 4.976719
-3.504564 -0.126744 4.989230
-3.510483 -0.144142 4.978308
-3.598695 -0.110313 4.979921
-3.604336 -0.099152 4.986980
-3.568629 -0.107867 4.986467
-3.592558 -0.089257 4.994775
-3.570559 -0.095325 4.994262
-3.535991 -0.099022 4.995679
-3.518939 -0.101385 4.997661
-3.527366 -0.120520 4.985587
-3.543992 -0.094808 4.996968
-3.430622 -0.263611 4.979977
-3.415111 -0.269261 4.994812
-3.412388 -0.275377 4.995922
-3.444948 -0.237576 4.974869
-3.427571 -0.256876 4.985453
-3.431446 -0.210659 4.996646
-3.443714 -0.216596 4.982704
-3.475583 -0.162629 4.982534
-3.451175 -0.168492 4.994842
-3.465982 -0.171453 4.983558
-3.500080 -0.128711 4.989811
-3.483856 -0.127262 4.996488
-3.472195 -0.130699 4.999401
-3.470091 -0.136303 4.998158
-3.443563 -0.177587 4.996128
-3.672534 -0.065924 4.979046
-3.705033 -0.032506 4.977490
-3.693398 -0.020866 4.989283
-3.667405 -0.037588 4.994802
-3.645630 -0.057443 4.995540
-3.661948 -0.065127 4.985389
-3.628933 -0.067143 4.997532
-3.712310 -0.003823 4.987253
-3.689804 -0.009676 4.996648
-3.904198 0.379105 5.006751
-3.897909 0.376727 5.009785
-3.911908 0.414502 5.005906
-3.890814 0.420287 5.018636
-3.863094 0.378775 5.025853
-3.866067 0.397754 5.027617
-3.921064 0.438579 5.001595
-3.903348 0.436900 5.013688
-3.885767 0.440581 5.024177
-3.899817 0.463389 5.017416
-3.905010 0.501824 5.014227
-3.894857 0.492053 5.020356
-3.896372 0.523696 5.020355
-3.897353 0.514522 5.019411
-3.915646 0.537579 5.008022
-3.910066 0.543509 5.012376
-3.891252 0.576211 5.025969
-3.894738 0.566777 5.023100
-3.949513 0.738766 5.005136
-3.942550 0.735182 5.011095
-3.314409 -0.856869 5.031283
-3.297547 -0.810461 5.044766
-3.299529 -0.835272 5.047334
-3.293652 -0.795574 5.047060
-3.290042 -0.770510 5.046906
-3.289161 -0.753421 5.044576
-3.301430 -0.710896 5.031026
-3.289356 -0.715396 5.041879
-3.283725 -0.673443 5.053035
-3.288888 -0.687836 5.046602
-3.292119 -0.663692 5.048899
-3.300666 -0.670911 5.040562
-3.315894 -0.620589 5.040141
-3.313225 -0.641679 5.038295
-3.292733 -0.636707 5.055636
-3.308501 -0.641505 5.042077
-3.325238 -0.596533 5.033079
-3.316413 -0.608030 5.041858
-3.305319 -0.604588 5.052689
-3.320479 -0.577583 5.039623
-3.323915 -0.551405 5.036204
-3.322161 -0.559498 5.038209
-3.308534 -0.554502 5.053946
-3.314880 -0.515735 5.046073
-3.281754 -0.708128 5.050631
-3.725382 0.173549 5.076251
-3.739506 0.147796 5.057532
-3.759120 0.199643 5.058813
-3.749892 0.184802 5.061645
-3.728400 0.199589 5.079757
-3.763823 0.208482 5.057154
-3.733593 0.212332 5.077282
-3.761536 0.251008 5.063115
-3.754623 0.231055 5.066507
-3.734151 0.251886 5.079343
-3.737403 0.233255 5.076881
-3.749621 0.268350 5.071692
-3.761695 0.261046 5.063752
-3.740212 0.278086 5.078163
-3.772856 0.299748 5.061621
-3.758390 0.293611 5.069643
-3.789146 0.345912 5.058012
-3.762019 0.315509 5.070676
-3.770158 0.343320 5.069818
-3.289447 -0.509064 5.071376
-3.289837 -0.410924 5.073475
-3.289398 -0.423735 5.070143
-3.323043 -0.376094 5.058015
-3.303187 -0.380466 5.073843
-3.301357 -0.393367 5.069578
-3.321830 -0.359048 5.066433
-3.308292 -0.371663 5.073217
-3.344479 -0.313466 5.062458
-3.318413 -0.334994 5.080857
-3.335411 -0.335023 5.063904
-4.049256 1.487738 5.147697
-4.033387 1.460478 5.164779
-4.037117 1.538487 5.164953
-4.031410 1.566301 5.158576
-4.036141 1.577716 5.139664
-4.029126 1.573741 5.157065
-4.001190 1.633698 5.154044
-3.967008 1.670997 5.154521
-3.985674 1.659680 5.147610
-3.953993 1.678266 5.163771
-3.273149 -0.062410 5.187309
-3.277970 -0.012961 5.191071
-3.734354 0.527166 5.173162
-3.722562 0.537721 5.192189
-3.768246 0.583159 5.171987
-3.776439 0.634274 5.175763
-3.764791 0.604920 5.187559
-3.774478 0.602950 5.172392
-3.773915 0.630857 5.179646
-3.779572 0.659477 5.170949
-3.776816 0.687933 5.177711
-3.775391 0.688096 5.180604
-3.768516 0.649719 5.189915
-3.773405 0.668816 5.183223
-3.777533 0.715010 5.176599
-3.775565 0.718686 5.180954
-3.780561 0.730135 5.169603
-3.780616 0.725766 5.169513
-3.772921 0.697192 5.186150
-3.774782 0.732810 5.182787
-3.776176 0.753159 5.179719
-3.780623 0.801854 5.175133
-3.261009 -0.054235 5.222952
-3.262242 -0.031611 5.235682
-3.270228 0.006574 5.240077
-3.271411 -0.000088 5.225517
-3.273907 0.020914 5.242421
-3.281981 0.036228 5.224482
-3.195059 -1.034344 5.334671
-3.178201 -1.004842 5.356266
-3.173247 -1.005824 5.344913
-3.631177 0.665508 5.340292
-3.627671 0.651075 5.335826
-3.645231 0.686563 5.337679
-3.594750 0.610202 5.342371
-3.591694 0.625633 5.351556
-3.663253 0.717730 5.331804
-3.654693 0.694504 5.332465
-3.636313 0.699539 5.351102
-3.673742 0.756394 5.331863
-3.678974 0.797445 5.339888
-3.672745 0.779943 5.341189
-3.663444 0.772962 5.349087
-3.661928 0.783757 5.356881
-3.692083 0.825932 5.332781
-3.696853 0.842326 5.331769
-3.689094 0.833934 5.343436
-3.702483 0.863527 5.330274
-3.697267 0.862613 5.345494
-3.710329 0.910896 5.351803
-3.713307 0.911331 5.330816
-3.719711 0.939152 5.347705
-3.715418 0.926747 5.345489
-3.691171 1.041487 5.496401
-3.680183 1.035996 5.504048
-3.679463 1.055962 5.509468
-3.670731 1.055455 5.516465
-3.665239 1.039310 5.517115
-3.692813 1.093740 5.505989
-3.702152 1.116825 5.500932
-3.683195 1.121755 5.519217
-3.699922 1.154838 5.508830
-3.710568 1.176777 5.499091
-3.710772 1.208882 5.500518
-3.707115 1.240924 5.502099
-3.712280 1.221372 5.497733
-3.725456 1.511487 5.502682
-3.727293 1.496808 5.501080
-3.732754 1.525666 5.496889
-3.722471 1.551596 5.498331
-3.227394 -0.231177 5.525990
-3.219839 -0.198920 5.522841
-3.234654 -0.171947 5.540652
-3.230293 -0.130864 5.541795
-3.218217 -0.142642 5.528523
-3.226428 -0.142676 5.536442
-3.233002 -0.098505 5.548582
-3.212528 -0.087045 5.529126
-3.218982 -0.092041 5.534980
-3.207516 -0.049592 5.527657
-3.218813 -0.021243 5.541503
-3.225458 -0.017687 5.548527
-3.222243 0.001140 5.546402
-3.213840 -0.012257 5.536927
-3.206772 0.012835 5.530790
-3.201810 0.050541 5.525448
-3.198454 0.078163 5.525154
-3.208017 0.117762 5.543496
-3.201136 0.118211 5.535615
-3.210421 0.122520 5.547100
-3.197158 0.121990 5.531813
-3.188411 0.161901 5.527975
-3.194381 0.159165 5.534163
-3.190256 0.196513 5.535140
-3.181243 0.219791 5.526796
-3.188287 0.234818 5.536473
-3.181703 0.269823 5.530297
-3.183924 0.260178 5.533176
-3.182426 0.299885 5.525721
-3.191243 0.284775 5.542598
-3.197862 0.327883 5.543350
-3.195712 0.320847 5.539123
-3.201787 0.356939 5.528406
-3.196606 0.342143 5.527644
-3.505588 1.211455 5.718035
-3.529794 1.230878 5.722590
-3.521540 1.216847 5.715253
-3.503001 1.236814 5.736395
-3.399686 1.096026 5.714264
-3.422884 1.125447 5.715419
-3.359082 1.030899 5.728642
-3.375650 1.073098 5.725165
-3.386755 1.101980 5.726149
-3.370795 1.092187 5.735779
-3.390044 1.108158 5.725673
-3.465080 1.180533 5.714380
-3.436693 1.149982 5.715358
-3.424974 1.138671 5.718761
-3.409745 1.158206 5.730689
-3.410614 1.135542 5.725724
-3.435491 1.180553 5.725904
-3.462342 1.195916 5.723181
-3.456436 1.211369 5.733146
-3.492715 1.227054 5.732524
-3.485554 1.217447 5.728297
-3.461203 1.216387 5.734601
-3.454351 1.219231 5.738217
-3.437911 1.212271 5.738747
-3.435397 1.196076 5.731811
-3.421636 1.197615 5.737581
-3.407753 1.187421 5.739835
-3.363723 1.155079 5.858737
-3.364610 1.181754 5.864714
-3.359380 1.218410 5.852659
-3.395798 1.526507 5.906756
-3.394117 1.517566 5.909165
-3.402834 1.561397 5.911879
-3.401524 1.543163 5.912775
-3.387927 1.468422 5.917330
-3.390460 1.485814 5.918444
-3.387980 1.495359 5.907453
-3.402673 1.591899 5.909962
-3.404133 1.572895 5.915409
-3.399546 1.617100 5.916295
-3.400446 1.609590 5.906205
-3.394325 1.649065 5.919147
-3.393126 1.659849 5.907760
-4.142865 -0.739575 4.518725
-4.140351 -0.744097 4.516521
-4.118431 -0.731555 4.519580
-4.075861 -0.749935 4.510514
-4.059510 -0.729654 4.511923
-3.762328 -0.927966 4.536704
-3.728292 -0.926354 4.552284
-3.742470 -0.942073 4.546202
-3.750250 -0.906432 4.538396
-3.747704 -0.914173 4.540467
-3.741408 -0.908469 4.543982
-3.722158 -0.918062 4.554916
-3.746169 -0.874584 4.538742
-3.728461 -0.876254 4.552851
-3.760974 -0.842149 4.538493
-3.725517 -0.841237 4.563848
-3.740912 -0.843224 4.551151
-3.727720 -0.859856 4.555359
-3.794497 -0.801084 4.539384
-3.768094 -0.829880 4.540332
-3.772773 -0.798810 4.551304
-3.762667 -0.787018 4.561231
-3.797059 -0.756032 4.549822
-3.806448 -0.740557 4.548892
-3.798736 -0.732495 4.555579
-3.786417 -0.742932 4.559235
-3.781645 -0.755080 4.558278
-3.764211 -0.777348 4.563026
-4.157505 -0.692601 4.538056
-4.137162 -0.661173 4.538317
-4.122157 -0.647477 4.536955
-4.152519 -0.635913 4.545537
-4.131659 -0.624297 4.542395
-4.123136 -0.623828 4.540963
-4.104599 -0.624857 4.537703
-3.962327 -0.619715 4.540446
-3.940826 -0.630400 4.538882
-4.147424 -0.615251 4.546703
-4.142810 -0.599023 4.547154
-4.129812 -0.601735 4.544729
-4.149163 -0.588858 4.549270
-4.139158 -0.567381 4.550261
-4.117147 -0.584772 4.544988
-4.100082 -0.594088 4.541391
-4.067707 -0.592896 4.538475
-4.052035 -0.600430 4.537447
-4.098659 -0.570186 4.545774
-4.078284 -0.572729 4.544709
-4.057898 -0.571536 4.547283
-4.053181 -0.580938 4.543462
-4.155561 -0.548958 4.555222
-4.138229 -0.553655 4.552336
-4.119259 -0.554089 4.550797
-4.114738 -0.543636 4.553065
-4.152714 -0.521579 4.560205
-4.097174 -0.555148 4.550499
-4.056201 -0.554466 4.553651
-4.068221 -0.557124 4.551012
-4.088468 -0.527920 4.558517
-4.069574 -0.534166 4.559805
-4.024550 -0.603394 4.540209
-3.997877 -0.616933 4.538391
-3.996613 -0.610414 4.540983
-4.016603 -0.579880 4.550197
-3.993914 -0.587456 4.551065
-3.953903 -0.603520 4.550553
-3.952518 -0.610180 4.547173
-3.990569 -0.580449 4.554942
-3.966016 -0.574279 4.562166
-4.043340 -0.554468 4.556795
-3.697400 -0.509104 4.727813
-3.448133 -1.036786 4.889661
-3.444469 -1.011532 4.878973
-3.426847 -0.977086 4.885166
-3.428560 -0.949919 4.876893
-3.434434 -0.937058 4.868273
-3.421523 -0.935143 4.887571
-3.425702 -0.892272 4.882199
-3.432633 -0.912627 4.871944
-4.275151 1.042743 4.872213
-4.277480 1.032706 4.870402
-4.288731 1.076224 4.877585
-4.274825 1.050597 4.873281
-4.288344 1.082237 4.880499
-4.278990 1.078597 4.881580
-4.266829 1.028810 4.872299
-4.242431 1.024430 4.874258
-4.231411 1.046942 4.879781
-4.255008 1.067795 4.883848
-4.247134 1.055854 4.880575
-4.239761 1.075187 4.889606
-4.221711 1.068807 4.889457
-4.215164 1.054654 4.884224
-4.181739 1.040647 4.882373
-4.163679 1.035962 4.881533
-4.212411 1.072512 4.892107
-4.191045 1.051342 4.885060
-4.258042 1.081812 4.888918
-4.154191 0.809766 4.879220
-4.138237 0.825346 4.877397
-4.115252 0.821640 4.881055
-4.147463 0.846378 4.876772
-4.138524 0.840236 4.876992
-4.091409 0.853012 4.887790
-4.105478 0.864345 4.881389
-4.127821 0.891173 4.876923
-4.096797 0.871785 4.883397
-4.072241 0.877050 4.889245
-4.091469 0.897047 4.880865
-4.087663 0.912434 4.877679
-4.144863 0.930046 4.875431
-4.142807 0.917576 4.876415
-4.128475 0.917068 4.875914
-4.145225 0.954356 4.873582
-4.142079 0.954393 4.873487
-4.117745 0.946838 4.873088
-4.094034 0.940039 4.873573
-4.064149 0.934357 4.876420
-4.072268 0.959193 4.872401
-4.156160 0.976559 4.873392
-4.137958 0.982037 4.872952
-4.136748 1.014242 4.875124
-4.113616 1.014672 4.872139
-4.110813 1.012068 4.871576
-4.090229 0.982884 4.869574
-4.070214 0.980367 4.870448
-4.070606 0.992077 4.869175
-4.048924 1.018587 4.874620
-4.003518 0.924177 4.892020
-4.031380 0.947961 4.881400
-4.004044 0.943707 4.890329
-4.021471 0.968603 4.883284
-4.025233 1.001393 4.881459
-3.373374 -0.628753 4.975521
-3.360279 -0.621320 4.991930
-3.375047 -0.604520 4.976886
-3.352699 -0.598384 5.001195
-3.366003 -0.575309 4.987370
-3.358754 -0.564008 4.995294
-3.370791 -0.543686 4.985328
-3.368450 -0.559987 4.985976
-3.378871 -0.519134 4.980754
-3.727266 -0.005507 4.978119
-3.748493 0.017886 4.980513
-3.729506 0.013596 4.987552
-3.831887 0.098407 4.980973
-3.847235 0.141864 4.988384
-3.784892 0.055060 4.982520
-3.807470 0.085456 4.989991
-3.801110 0.072798 4.984941
-3.818130 0.097829 4.991193
-3.319764 -0.488651 5.040732
-3.309486 -0.486076 5.050848
-3.329683 -0.473222 5.031111
-3.325205 -0.444363 5.036999
-3.317705 -0.454300 5.043088
-3.325404 -0.400442 5.045783
-3.321421 -0.410634 5.046356
-3.340969 -0.382441 5.039384
-3.360106 -0.356487 5.030287
-3.319156 -0.397375 5.052297
-3.335803 -0.359558 5.053273
-3.343177 -0.333335 5.056220
-3.352318 -0.341267 5.043524
-3.377489 -0.295736 5.029846
-3.361826 -0.295754 5.047753
-3.395128 -0.216383 5.031950
-3.405819 -0.181458 5.031827
-3.380780 -0.281160 5.029851
-3.357750 -0.285852 5.056011
-3.368033 -0.248799 5.054041
-3.386887 -0.252578 5.030286
-3.375006 -0.259691 5.042517
-3.379895 -0.208600 5.052885
-3.387953 -0.234605 5.034243
-3.403938 -0.168500 5.038056
-3.396184 -0.140261 5.054379
-3.449630 -0.074046 5.035745
-3.433525 -0.112210 5.029259
-3.416003 -0.107252 5.043324
-3.414260 -0.121337 5.040785
-3.412974 -0.097790 5.048446
-3.969759 1.049054 5.049500
-3.966098 1.036177 5.036577
-3.988017 1.069827 5.045774
-3.986883 1.060828 5.032315
-4.002761 1.085401 5.042913
-4.035347 1.123473 5.043125
-4.063171 1.158939 5.041446
-4.080136 1.170996 5.029739
-4.075088 1.167783 5.033093
-4.070252 1.162779 5.035026
-4.115778 1.239826 5.033869
-4.107061 1.228069 5.040558
-4.095892 1.196382 5.034607
-4.048021 1.134041 5.034918
-4.116449 1.256459 5.038751
-4.124490 1.291009 5.039152
-4.122198 1.279110 5.038758
-4.127650 1.279258 5.032016
-4.126917 1.314842 5.040492
-4.119844 1.347999 5.048679
-4.115151 1.331038 5.054654
-4.132367 1.368706 5.028902
-4.128383 1.354234 5.038311
-4.120644 1.351892 5.047480
-4.116713 1.403839 5.041056
-4.115656 1.381667 5.047782
-3.795627 0.793540 5.141966
-3.790936 0.787829 5.150552
-3.791050 0.821407 5.160305
-3.801055 0.847601 5.151128
-3.795553 0.837479 5.157610
-3.807352 0.870792 5.150545
-3.809579 0.859719 5.140791
-3.798761 0.858779 5.160718
-3.824588 0.912553 5.145416
-3.809617 0.889245 5.155836
-3.886128 1.013850 5.138888
-3.867109 0.988272 5.139556
-3.856954 0.978587 5.144540
-3.845718 0.984921 5.165505
-3.997648 1.169079 5.143219
-3.973521 1.137089 5.144176
-3.965479 1.151451 5.164154
-3.990669 1.162068 5.145885
-3.999434 1.204681 5.162120
-4.024802 1.225599 5.142388
-4.003687 1.216199 5.161706
-3.893018 1.044310 5.158939
-3.929582 1.075431 5.139450
-3.906853 1.064092 5.157416
-3.737476 0.721482 5.265114
-3.746185 0.715594 5.249822
-3.728507 0.695672 5.272651
-3.737310 0.741952 5.266896
-3.746252 0.741058 5.252035
-3.741622 0.757285 5.260100
-3.734009 0.803433 5.270382
-3.743706 0.777732 5.257138
-3.733440 0.810147 5.270607
-3.744769 0.854607 5.249721
-3.734164 0.875317 5.269345
-3.745063 0.859362 5.249182
-3.759124 0.933645 5.248494
-3.738342 0.928623 5.272283
-3.751915 0.962959 5.273345
-3.756660 0.953834 5.262053
-3.748446 0.955945 5.272327
-3.775715 0.994717 5.273712
-3.797173 1.014640 5.265376
-3.791560 1.001801 5.260247
-3.840797 1.068382 5.249746
-3.848956 1.087183 5.255292
-3.840442 1.083484 5.267297
-3.869520 1.131560 5.257324
-3.866095 1.117198 5.252759
-3.823955 1.046325 5.254543
-3.804521 1.029418 5.269252
-3.816181 1.051156 5.273504
-3.877415 1.147404 5.256431
-3.870081 1.135691 5.258921
-3.877364 1.170599 5.270768
-3.903584 1.205713 5.255701
-3.220204 -1.040096 5.308686
-3.192689 -1.032042 5.321057
-3.173530 -1.015998 5.305735
-3.164526 -1.004845 5.306423
-3.152738 -0.977291 5.329256
-3.147226 -0.956579 5.325342
-3.149658 -0.968107 5.310892
-3.141310 -0.931441 5.329556
-3.122416 -0.857632 5.318689
-3.122782 -0.861371 5.310181
-3.112971 -0.831987 5.305867
-3.115264 -0.831807 5.327651
-3.098416 -0.787803 5.321922
-3.094430 -0.777426 5.313399
-3.089859 -0.741052 5.313035
-3.090552 -0.752617 5.317705
-3.094819 -0.500353 5.370168
-3.087474 -0.505416 5.360916
-3.097351 -0.463611 5.376915
-3.079906 -0.438767 5.357173
-3.089746 -0.412328 5.375589
-3.085260 -0.385178 5.368648
-3.090431 -0.395871 5.377596
-3.093324 -0.369131 5.383331
-3.081551 -0.345195 5.358054
-3.085461 -0.365945 5.368047
-3.090733 -0.343152 5.382628
-3.083745 -0.316287 5.358605
-3.090873 -0.294280 5.381847
-3.091744 -0.281685 5.379000
-3.090521 -0.288470 5.376846
-3.095928 -0.243550 5.380765
-3.104351 -0.213360 5.362320
-3.119473 -0.148609 5.365907
-3.111923 -0.161837 5.382443
-3.118109 -0.163227 5.361264
-3.113929 -0.175771 5.365835
-3.138335 -0.085094 5.362879
-3.123790 -0.082549 5.384350
-3.117765 -0.121022 5.381313
-3.344184 0.446832 5.447654
-3.337552 0.449967 5.456708
-3.354868 0.456701 5.442374
-3.336404 0.445507 5.455263
-3.397054 0.521749 5.448513
-3.451952 0.582517 5.439417
-3.427620 0.554804 5.446192
-3.392916 0.540792 5.461977
-3.405854 0.541965 5.453863
-3.355830 0.487533 5.457709
-3.371255 0.511669 5.459831
-3.383974 0.513965 5.452559
-3.506058 0.716869 5.448938
-3.537093 0.743233 5.445087
-3.507311 0.727794 5.455284
-3.517772 0.721806 5.442556
-3.586617 0.774930 5.439453
-3.577482 0.774617 5.446368
-3.567761 0.773629 5.452815
-3.598519 0.800610 5.453384
-3.583107 0.796467 5.463347
-3.541525 0.754447 5.452709
-3.447517 0.604954 5.449603
-3.459883 0.634693 5.448188
-3.437732 0.609290 5.458951
-3.443937 0.606073 5.452841
-3.437018 0.617217 5.461668
-3.455620 0.647037 5.455227
-3.490500 0.677121 5.441314
-3.493434 0.707639 5.453825
-3.500789 0.727064 5.459427
-3.718249 1.252815 5.484212
-3.714543 1.277816 5.485135
-3.701359 1.319803 5.493288
-3.707650 1.300771 5.489527
-3.710928 1.331579 5.482337
-3.291033 -0.852836 5.499890
-3.290450 -0.841074 5.501438
-3.296941 -0.830992 5.509189
-3.293449 -0.787722 5.512725
-3.286894 -0.706507 5.517278
-3.282418 -0.779260 5.503486
-3.275502 -0.744052 5.501960
-3.247605 0.414575 5.503590
-3.240697 0.409623 5.507385
-3.239823 0.397733 5.495577
-3.217495 0.370217 5.498930
-3.269636 0.443271 5.508009
-3.275534 0.450202 5.507293
-3.611169 0.865734 5.496533
-3.627385 0.910277 5.503768
-3.616300 0.909094 5.510972
-3.593712 0.850690 5.498789
-3.564387 0.849198 5.514036
-3.543673 0.824174 5.509787
-3.546418 0.814146 5.501396
-3.520306 0.805725 5.510752
-3.554792 0.847601 5.518099
-3.585547 0.884957 5.520269
-3.585745 0.865187 5.511502
-3.605724 0.909872 5.517935
-3.595933 0.896521 5.518630
-3.653387 0.940434 5.496696
-3.625645 0.920066 5.508958
-3.645548 0.953584 5.507208
-3.679628 1.001625 5.494945
-3.662793 0.972950 5.500380
-3.647609 0.968883 5.510564
-3.658827 1.001419 5.511807
-3.477293 1.594571 5.740557
-3.485311 1.614007 5.743588
-3.474900 1.600677 5.747326
-3.460895 1.601699 5.764122
-3.487794 1.644517 5.761230
-3.500396 1.652346 5.749161
-3.513245 1.693340 5.763151
-3.539539 1.730568 5.753056
-3.532866 1.737337 5.763819
-3.529988 1.735759 5.765915
-3.708841 -0.703574 4.639174
-3.719075 -0.697800 4.633385
-4.359253 -0.502301 4.635199
-4.357857 -0.466456 4.635628
-4.360542 -0.459218 4.637791
-4.343157 -0.467245 4.626730
-4.349988 -0.438107 4.632465
-4.368403 -0.441055 4.643873
-4.335188 -0.436946 4.624906
-4.322369 -0.430912 4.618833
-4.355027 -0.407312 4.637330
-4.354494 -0.404299 4.637100
-4.362345 -0.399357 4.641670
-4.352791 -0.392849 4.636647
-4.334002 -0.387546 4.626945
-4.359982 -0.355166 4.643252
-4.335212 -0.352735 4.628365
-4.316198 -0.369830 4.618829
-4.356009 -0.329713 4.641643
-4.345500 -0.320331 4.634557
-4.337143 -0.334966 4.629453
-4.349887 -0.309475 4.637845
-4.358462 -0.297863 4.644708
-4.348650 -0.311255 4.636908
-4.327694 -0.310999 4.624312
-4.316909 -0.344769 4.618727
-3.521360 -1.026459 4.778816
-3.503663 -0.986425 4.781495
-3.507575 -0.969613 4.768971
-3.511198 -0.899535 4.769510
-3.520246 -0.878591 4.763116
-3.511817 -0.850951 4.776801
-3.515262 -0.812957 4.775721
-3.521063 -0.828027 4.767124
-3.519868 -0.802128 4.772351
-3.536253 -0.767417 4.763331
-3.529915 -0.775316 4.768500
-3.524092 -0.765467 4.778393
-3.538737 -0.731957 4.770935
-3.536494 -0.745786 4.769609
-3.499508 -0.915782 4.779983
-4.321210 0.196172 4.785949
-4.321023 0.250110 4.797690
-4.293490 0.251743 4.782996
-4.307478 0.264104 4.793596
-4.297801 0.269385 4.789992
-4.320662 0.290459 4.807223
-4.310491 0.292897 4.802687
-4.282867 0.292844 4.789312
-4.272120 0.301034 4.786685
-4.298744 0.327836 4.808234
-4.281542 0.319495 4.797606
-4.284047 0.331859 4.802886
-4.278303 0.343729 4.804911
-4.252134 0.360636 4.799866
-4.251240 0.344554 4.794175
-4.223712 0.341177 4.783049
-4.218220 0.357889 4.786511
-3.945163 0.059537 4.802422
-3.964201 0.085055 4.804654
-3.999578 0.127693 4.796570
-3.970495 0.096239 4.807831
-3.911287 -0.019126 4.788084
-3.902009 -0.029863 4.791346
-3.885875 -0.035808 4.807963
-3.877812 -0.045902 4.810045
-3.867780 -0.065424 4.807226
-3.918070 -0.008992 4.786632
-3.913106 -0.011699 4.791138
-3.926886 0.012835 4.789816
-3.938560 0.056379 4.808110
-4.063948 1.474386 5.121542
-4.060003 1.512014 5.129562
-4.061272 1.495161 5.128029
-4.053284 1.537224 5.134174
-4.051337 1.547394 5.132499
-4.053785 1.560070 5.116411
-4.047588 1.560039 5.130504
-4.036705 1.594352 5.123100
-4.037686 1.588217 5.126632
-4.025844 1.622222 5.120053
-4.008095 1.644810 5.130571
-4.015238 1.627382 5.136693
-4.002813 1.657387 5.123297
-3.993232 1.672845 5.114168
-3.944098 1.705635 5.139513
-3.933318 1.706059 5.160408
-3.254915 -0.042573 5.257412
-3.267627 0.007106 5.255061
-3.265337 -0.002865 5.253758
-3.274878 0.029247 5.250573
-3.277128 0.045540 5.268162
-3.943030 1.430964 5.248190
-3.945723 1.457838 5.256209
-3.920913 1.282050 5.252486
-3.911272 1.279548 5.262809
-3.902882 1.278513 5.272019
-3.913011 1.341591 5.260234
-3.910487 1.331424 5.262459
-3.923603 1.370194 5.255241
-3.908016 1.364260 5.268078
-3.920050 1.401602 5.264683
-3.914532 1.380570 5.265462
-3.932905 1.425315 5.258125
-3.917313 1.417113 5.271517
-3.930361 1.409058 5.255978
-3.945111 1.476534 5.265520
-3.939858 1.460507 5.264132
-3.948620 1.506028 5.274184
-3.966233 1.501417 5.253396
-3.971682 1.530970 5.252761
-3.957868 1.528515 5.268423
-3.963052 1.536096 5.262849
-3.968390 1.550740 5.254471
-3.948730 1.600520 5.255234
-3.937424 1.618314 5.255982
-3.913874 1.637286 5.273152
-3.928592 1.628137 5.260044
-3.918549 1.654612 5.247923
-3.893497 1.678521 5.261878
-3.910125 1.658708 5.256665
-3.867363 1.686581 5.292336
-3.849666 1.731866 5.286649
-3.842525 1.740309 5.291353
-3.764669 1.035521 5.358140
-3.757243 1.028923 5.381610
-3.770610 1.051683 5.372398
-3.791911 1.100663 5.372919
-3.808213 1.128625 5.366657
-3.803781 1.154971 5.382412
-3.799695 1.135322 5.383554
-3.816454 1.204723 5.367216
-3.811161 1.199070 5.373240
-3.819089 1.232633 5.364685
-3.508435 0.514384 5.368214
-3.538250 0.535382 5.358630
-3.552557 0.557707 5.358614
-3.512505 0.559892 5.383995
-3.393972 0.380822 5.359898
-3.405738 0.409720 5.373009
-3.403276 0.403632 5.370063
-3.458753 0.438913 5.362849
-3.486608 0.473639 5.364387
-3.465210 0.467970 5.374049
-3.457801 0.457208 5.373050
-3.443638 0.439416 5.371564
-3.401449 0.422150 5.384359
-3.369114 0.367436 5.366323
-3.350607 0.368148 5.382241
-3.729500 0.964081 5.403982
-3.746976 1.017540 5.411188
-3.742287 0.998490 5.400103
-3.762842 1.049095 5.401049
-3.758515 1.044184 5.410837
-3.766878 1.068961 5.409985
-3.772285 1.071009 5.393935
-3.780346 1.102900 5.396330
-3.789874 1.124656 5.393763
-3.791525 1.146111 5.396652
-3.781877 1.141352 5.408967
-3.802315 1.172061 5.385562
-3.802035 1.186581 5.386246
-3.789574 1.164680 5.401963
-3.531153 0.706244 5.426268
-3.547699 0.738497 5.434158
-3.591588 0.774502 5.434314
-3.609034 0.773654 5.415516
-3.588099 0.761103 5.424072
-3.573024 0.751292 5.425918
-3.608946 0.784168 5.426715
-3.487209 0.597121 5.416391
-3.481146 0.613183 5.426585
-3.482387 0.634517 5.431942
-3.470294 0.629327 5.438914
-3.478122 0.645436 5.437970
-3.652976 0.825738 5.414031
-3.634482 0.819644 5.433274
-3.635828 0.804344 5.414365
-3.661467 0.854576 5.435931
-3.648547 0.840006 5.437239
-3.695927 0.912033 5.428725
-3.707362 0.923079 5.416723
-3.700402 0.917983 5.425439
-3.719689 0.970127 5.436643
-3.314977 -0.294512 5.605814
-3.311512 -0.273903 5.605624
-3.311862 -0.283404 5.604100
-3.308788 -0.191356 5.618880
-3.310890 -0.166373 5.625873
-3.297832 -0.169227 5.609162
-3.303196 -0.136947 5.621243
-3.302077 -0.117056 5.622582
-3.299535 -0.123813 5.618568
-3.294699 -0.077675 5.618341
-3.284272 -0.089794 5.603915
-3.292442 -0.052271 5.618842
-3.294596 -0.020399 5.625784
-3.288185 -0.035015 5.615798
-3.287103 0.004235 5.619141
-3.285850 -0.009187 5.616039
-3.290721 0.033518 5.627352
-3.288197 0.019622 5.622419
-3.293328 0.382429 5.667359
-3.303478 0.377754 5.680398
-3.300969 0.417610 5.679398
-3.289477 0.398147 5.663168
-3.304165 0.423906 5.684146
-3.287131 0.427193 5.661330
-3.293462 0.474067 5.672403
-3.290187 0.459260 5.666989
-3.299688 0.480022 5.681554
-3.289114 0.493741 5.665990
-3.293626 0.519892 5.673419
-3.286839 0.518625 5.662579
-3.295847 0.541214 5.677842
-3.288785 0.547396 5.665635
-3.293570 0.574285 5.674828
-3.286112 0.558847 5.661178
-3.287607 0.609322 5.665691
-3.293158 0.618061 5.678008
-3.291648 0.615672 5.674587
-3.289859 0.653413 5.677780
-3.284832 0.730453 5.677907
-3.286432 0.749634 5.682745
-3.278706 0.714509 5.664434
-3.276023 0.762421 5.663429
-3.280639 0.755982 5.672956
-3.274671 0.783589 5.658729
-3.337606 0.417440 5.732327
-3.329677 0.377678 5.714330
-3.324215 0.443698 5.716722
-3.323058 0.471039 5.718225
-3.332626 0.456384 5.732966
-3.320526 0.494425 5.715991
-3.329447 0.510926 5.732529
-3.323760 0.518888 5.723454
-3.346408 1.049677 5.765132
-3.347635 1.033114 5.751357
-3.363833 1.089837 5.741531
-3.370354 1.115154 5.744479
-3.364852 1.118766 5.751529
-3.474329 1.233798 5.741513
-3.449958 1.236881 5.747994
-3.416507 1.231758 5.754220
-3.380673 1.145169 5.747036
-3.377629 1.183933 5.759008
-3.389462 1.169147 5.745367
-3.389027 1.193835 5.751892
-3.377585 1.206236 5.765001
-3.365342 1.326087 5.881990
-3.370032 1.375834 5.893698
-3.371781 1.422683 5.894732
-3.366021 1.441670 5.878718
-3.396503 1.537630 5.894609
-3.399555 1.555074 5.895659
-3.373435 1.482122 5.877970
-3.386829 1.505035 5.894639
-3.383830 1.490554 5.899553
-3.391519 1.519709 5.895230
-3.400744 1.585085 5.877779
-3.401298 1.602262 5.903804
-3.402337 1.602370 5.888137
-3.399596 1.644655 5.893311
-3.394943 1.660632 5.898895
-3.757158 -1.039416 4.598944
-3.738744 -1.035741 4.600999
-4.450964 -0.931379 4.591374
-4.448333 -0.831067 4.592528
-4.443861 -0.792704 4.602518
-4.434761 -0.802617 4.594556
-4.431113 -0.799282 4.594147
-3.665472 -0.709875 4.674334
-3.650295 -0.709639 4.687175
-3.649455 -0.695457 4.693821
-3.698812 -0.648125 4.677464
-3.676670 -0.652633 4.692008
-3.688777 -0.652000 4.683155
-3.680653 -0.671089 4.679334
-3.714602 -0.623280 4.678210
-3.716853 -0.628066 4.674366
-3.695044 -0.628648 4.689241
-3.691052 -0.644686 4.684980
-3.714378 -0.594045 4.690946
-3.697855 -0.606215 4.696856
-3.569858 -1.039419 4.733780
-3.520556 -0.982890 4.752783
-3.514990 -0.950023 4.754861
-3.527735 -0.932272 4.740554
-3.519517 -0.944247 4.748999
-3.542135 -0.901780 4.729368
-3.536803 -0.917953 4.732128
-3.524470 -0.895019 4.754544
-3.542454 -0.868556 4.737298
-3.543252 -0.874473 4.735044
-3.546309 -0.854947 4.733916
-3.548212 -0.863577 4.730744
-3.547472 -0.817392 4.735556
-3.538205 -0.822234 4.746261
-3.541901 -0.805870 4.743906
-3.567884 -0.760478 4.732684
-3.577068 -0.739293 4.732205
-3.783723 -0.304740 4.756647
-3.749772 -0.338843 4.759994
-3.729825 -0.331970 4.776442
-3.748161 -0.311894 4.774867
-3.771751 -0.313125 4.759350
-4.268072 0.444746 4.807865
-4.268669 0.452825 4.808064
-4.253540 0.377200 4.804254
-4.231969 0.382292 4.795587
-4.248213 0.407664 4.802998
-4.264852 0.413828 4.809587
-4.233090 0.402804 4.796854
-4.214970 0.398354 4.790368
-4.203746 0.388682 4.786361
-4.205298 0.405827 4.787160
-4.247520 0.447477 4.801359
-4.238925 0.423168 4.798069
-4.221837 0.433550 4.793015
-4.256958 0.449657 4.804311
-4.242519 0.461223 4.802912
-4.223337 0.454953 4.797286
-4.203242 0.434715 4.789046
-4.200478 0.447834 4.791477
-4.188542 0.464905 4.797304
-4.165743 0.466481 4.796906
-4.260250 0.480258 4.809931
-4.166758 0.475904 4.801802
-4.088658 0.381533 4.784324
-4.067123 0.386876 4.798449
-4.072151 0.375476 4.792995
-4.077258 0.404680 4.793417
-4.066307 0.398066 4.800638
-4.141973 0.433879 4.783048
-4.105953 0.427912 4.786985
-4.142966 0.466754 4.797930
-4.127707 0.457843 4.794410
-4.097789 0.434936 4.792640
-4.081079 0.432137 4.798981
-4.093573 0.459763 4.803236
-3.703051 -0.226030 4.847447
-3.702738 -0.216387 4.853028
-3.680608 -0.219486 4.864191
-3.717951 -0.204383 4.850997
-4.014771 0.384438 4.858220
-4.027750 0.400797 4.844176
-4.023142 0.426486 4.855963
-4.038851 0.452369 4.840220
-4.028327 0.471868 4.861294
-4.052944 0.496844 4.842032
-4.100188 0.528478 4.839925
-4.085350 0.525995 4.843091
-4.057932 0.515842 4.852390
-4.153641 0.534962 4.838893
-4.141932 0.556325 4.851984
-4.118837 0.544417 4.846766
-4.104793 0.551186 4.853275
-4.120739 0.566501 4.857507
-4.087590 0.557060 4.862404
-4.086702 0.534034 4.848650
-4.056033 0.530900 4.863595
-4.034472 0.476011 4.854281
-3.758944 -0.086375 4.903221
-3.755928 -0.091481 4.902315
-3.836732 0.008530 4.896092
-3.842656 0.024903 4.903013
-3.834293 0.024486 4.913576
-3.834106 0.015428 4.905627
-3.779412 -0.065080 4.900581
-3.806217 -0.034713 4.895170
-3.791460 -0.019801 4.919277
-3.791176 -0.035881 4.907237
-3.815206 -0.008028 4.905584
-3.827895 -0.006566 4.893138
-3.891103 0.086719 4.897047
-3.863291 0.053263 4.899119
-3.869949 0.078391 4.915260
-3.890222 0.094434 4.906296
-3.932552 0.143046 4.895945
-4.266984 0.667618 4.892268
-4.230460 1.141112 4.928278
-4.240942 1.160782 4.936828
-4.243916 1.160776 4.935686
-4.229353 1.163313 4.940640
-4.170698 1.149124 4.942773
-4.172885 1.137798 4.935152
-4.042273 0.813371 4.919644
-3.997283 0.829704 4.941420
-4.002172 0.820567 4.941087
-4.005864 0.850647 4.925770
-3.998292 0.846564 4.931842
-3.989671 0.852936 4.933881
-3.974424 0.874530 4.927474
-3.966339 0.872199 4.935350
-3.950313 0.896902 4.935103
-3.949081 0.940552 4.945241
-3.948372 0.920763 4.934365
-3.953949 0.942872 4.937356
-3.977919 0.970670 4.920186
-3.970999 0.978468 4.939250
-3.991092 1.003415 4.921792
-4.059799 1.074983 4.929647
-4.113540 1.101012 4.925727
-4.150995 1.119157 4.927742
-4.114766 1.119940 4.943488
-4.119354 1.107530 4.930174
-4.090912 1.095305 4.932571
-4.079795 1.083848 4.923504
-4.075605 1.085759 4.929265
-4.108831 1.739391 4.955823
-3.352732 -0.270617 5.066400
-3.339135 -0.279045 5.080337
-3.350394 -0.238528 5.079852
-3.368171 -0.230505 5.059677
-3.358093 -0.230122 5.072749
-3.378679 -0.187325 5.062201
-3.369297 -0.206369 5.067155
-3.362080 -0.186460 5.083335
-3.398616 -0.092487 5.060383
-3.383064 -0.161210 5.064370
-3.365252 -0.176919 5.082395
-3.379987 -0.106277 5.074959
-3.381401 -0.116853 5.072869
-3.598324 0.030629 5.056890
-3.597180 0.036455 5.061164
-3.557237 0.030746 5.065227
-3.528963 0.007108 5.056711
-3.538277 0.020094 5.062367
-3.504824 0.015984 5.068075
-3.846619 0.825831 5.084275
-3.846356 0.881226 5.098486
-3.845649 0.890880 5.102621
-3.890837 0.964141 5.088694
-3.873748 0.927743 5.088295
-3.873289 0.941261 5.097084
-3.898985 0.982807 5.090840
-3.888564 0.973261 5.099013
-3.919390 1.017077 5.094198
-3.905277 1.008760 5.106534
-3.962095 1.067941 5.089381
-3.944785 1.055390 5.100434
-3.945347 1.052780 5.097072
-4.001678 1.121097 5.097412
-3.978210 1.103059 5.108218
-3.976974 1.085047 5.087056
-4.051068 1.197894 5.093071
-4.064984 1.236129 5.098094
-4.059581 1.226825 5.100285
-4.030122 1.150862 5.086894
-4.034883 1.173077 5.098283
-3.647426 0.377430 5.170630
-3.632730 0.367278 5.183460
-3.661749 0.415851 5.167890
-3.670976 0.432968 5.166784
-3.689852 0.469974 5.170032
-3.676549 0.466815 5.180337
-3.647228 0.422915 5.187518
-3.707047 0.491250 5.170490
-3.682711 0.487901 5.189427
-3.709761 0.522885 5.192390
-3.999115 1.257263 5.175772
-4.003104 1.295963 5.175968
-3.995446 1.288131 5.183690
-3.989397 1.268809 5.187571
-3.987914 1.282782 5.190771
-3.987609 1.275913 5.190177
-4.011116 1.308719 5.167088
-3.988361 1.349246 5.192140
-4.010772 1.373247 5.172286
-4.005570 1.351613 5.174344
-4.008060 1.390689 5.178515
-4.004324 1.381915 5.180249
-4.013369 1.431923 5.184401
-4.018445 1.429475 5.178563
-4.024866 1.453778 5.175054
-4.014376 1.438222 5.184439
-3.285108 0.027309 5.203150
-3.299767 0.063947 5.207726
-3.290257 0.046994 5.211255
-3.312415 0.079228 5.200060
-3.337940 0.108278 5.198111
-3.383575 0.145767 5.201236
-3.356809 0.130475 5.204150
-3.329319 0.110694 5.212804
-3.557800 0.243032 5.199557
-3.534190 0.212754 5.193202
-3.503944 0.209864 5.204019
-3.547550 0.236631 5.201897
-3.514624 0.235733 5.217917
-3.618538 0.361919 5.196987
-3.613142 0.353851 5.200579
-3.564661 0.273961 5.211641
-3.598528 0.299340 5.196216
-3.581774 0.308107 5.214581
-3.572643 0.295375 5.216213
-3.605389 0.327809 5.200678
-3.603775 0.360859 5.210666
-3.606817 0.359304 5.207620
-3.479702 0.192305 5.200104
-3.457927 0.181167 5.199052
-3.472932 0.188030 5.199121
-3.453347 0.179872 5.199787
-3.392714 0.162142 5.211527
-3.430219 0.179879 5.210207
-3.479666 0.203998 5.209620
-3.465288 0.205718 5.216708
-3.221745 -1.036324 5.233606
-3.208369 -1.025982 5.228793
-3.184557 -0.994256 5.238904
-3.178791 -0.973605 5.234338
-3.174911 -0.947814 5.227517
-3.724434 0.630932 5.242076
-3.731857 0.643734 5.240316
-3.752928 0.686857 5.227994
-3.534662 0.392202 5.290578
-3.520096 0.382700 5.298578
-3.549956 0.420626 5.292490
-3.547645 0.406017 5.284915
-3.568302 0.425878 5.276196
-3.593548 0.470423 5.280103
-3.540315 0.421419 5.302080
-3.618798 0.517355 5.277902
-3.629005 0.556413 5.283042
-3.628699 0.547206 5.279388
-3.634686 0.575284 5.286055
-3.629955 0.570115 5.288604
-3.603190 0.505807 5.292497
-3.668331 0.622968 5.283291
-3.652487 0.612065 5.291176
-3.645789 0.595870 5.287146
-3.647019 0.619840 5.301486
-3.696012 0.655236 5.281653
-3.686924 0.663689 5.293945
-3.688533 0.649322 5.283916
-3.698878 0.670088 5.288018
-3.697597 0.692489 5.297754
-3.708905 0.721393 5.295996
-3.711595 0.695338 5.288300
-3.693137 0.695416 5.302074
-3.715296 0.771313 5.293597
-3.714043 0.761558 5.294457
-3.206109 -0.705402 5.446354
-3.207038 -0.681659 5.450108
-3.214840 -0.691319 5.455680
-3.222143 -0.697638 5.461247
-3.198166 -0.683997 5.442216
-3.206692 -0.656675 5.452912
-3.194924 -0.673073 5.440850
-3.207908 -0.620000 5.458625
-3.201002 -0.597328 5.455490
-3.210469 -0.613421 5.461630
-3.207106 -0.585841 5.462061
-3.200275 -0.576017 5.457515
-3.183834 -0.546842 5.446927
-3.189368 -0.561272 5.450051
-3.202118 -0.523204 5.464883
-3.173446 -0.530631 5.439982
-3.179869 -0.515158 5.447116
-3.178334 -0.483573 5.449383
-3.183564 -0.499029 5.452037
-3.181814 -0.463521 5.454745
-3.173563 -0.475380 5.446313
-3.173894 -0.430544 5.452027
-3.187801 -0.440050 5.462870
-3.168989 -0.498764 5.439767
-3.156740 -0.406501 5.439982
-3.172417 -0.425941 5.451307
-3.180074 -0.376554 5.463608
-3.173381 -0.375974 5.457805
-3.177398 -0.344705 5.465102
-3.154589 -0.357865 5.443499
-3.169811 -0.357594 5.456832
-3.170383 -0.319591 5.462178
-3.148796 -0.331457 5.441644
-3.162818 -0.301015 5.457798
-3.143706 -0.302316 5.440549
-3.727304 1.315778 5.465955
-3.743762 1.314442 5.447718
-3.733581 1.338072 5.458437
-3.740317 1.329556 5.451185
-3.743163 1.378163 5.448835
-3.728294 1.366211 5.463485
-3.753693 1.394959 5.441382
-3.746620 1.383257 5.445988
-3.734285 1.393067 5.458130
-3.730847 1.416997 5.465953
-3.771435 1.449131 5.442713
-3.758708 1.443135 5.451475
-3.761238 1.436330 5.446284
-3.777269 1.483651 5.454088
-3.807208 1.508810 5.445469
-3.780389 1.495524 5.457966
-3.798932 1.508325 5.451024
-3.761857 1.479041 5.465992
-3.792296 1.531904 5.459684
-3.797481 1.518351 5.455359
-3.825131 1.550236 5.442147
-3.780416 1.557553 5.463669
-3.798103 1.570942 5.447370
-3.772515 1.590036 5.452539
-3.758538 1.602882 5.456230
-3.767850 1.607363 5.446748
-3.740931 1.617471 5.464132
-3.729636 1.678312 5.454904
-3.745116 1.667549 5.439621
-3.577970 1.466034 5.631367
-3.567003 1.510066 5.643356
-3.558776 1.496309 5.649098
-3.554680 1.506840 5.653579
-3.561823 1.539196 5.652300
-3.563482 1.537493 5.650514
-3.578090 1.517283 5.634004
-3.589943 1.559330 5.631445
-3.574256 1.542512 5.642019
-3.586274 1.594790 5.638947
-3.565616 1.591069 5.655014
-3.598344 1.607847 5.631623
-3.580548 1.610216 5.646528
-3.601499 1.644834 5.631931
-3.594873 1.632050 5.639286
-3.583807 1.662520 5.653635
-3.597448 1.682827 5.633082
-3.317633 0.391460 5.699046
-3.325022 0.375927 5.708175
-3.320660 0.413473 5.705600
-3.325266 0.395357 5.709186
-3.315360 0.422774 5.699456
-3.314378 0.474168 5.703971
-3.308038 0.471894 5.693635
-3.312773 0.493428 5.702630
-3.307215 0.516004 5.695138
-3.313284 0.533213 5.706501
-3.303154 0.538333 5.690498
-3.304174 0.540799 5.692338
-3.308440 0.579921 5.702751
-3.304322 0.586097 5.695776
-3.304971 0.635774 5.701837
-3.307899 0.619168 5.705030
-3.298969 0.668541 5.696443
-3.298369 0.717192 5.700024
-3.297824 0.728590 5.700122
-3.303687 0.753655 5.712568
-3.291744 0.758413 5.692054
-3.298880 0.792303 5.705596
-3.825748 -0.899479 4.508349
-3.894548 -0.788675 4.486496
-3.890988 -0.808316 4.484205
-3.860862 -0.819231 4.497264
-3.836473 -0.833080 4.507525
-3.848267 -0.809543 4.506532
-3.933670 -0.759057 4.491064
-3.900732 -0.768748 4.491177
-3.894096 -0.758587 4.496448
-3.922814 -0.738982 4.498642
-3.924465 -0.743129 4.497077
-3.908426 -0.754820 4.494377
-3.885540 -0.738218 4.504840
-3.874155 -0.766758 4.501114
-4.021950 -0.726862 4.506036
-4.012535 -0.727646 4.505125
-3.982932 -0.718753 4.505236
-3.973204 -0.710669 4.507101
-3.965525 -0.705134 4.508592
-3.924868 -0.710979 4.508567
-3.919240 -0.724600 4.503965
-4.275342 -0.725859 4.553417
-4.245677 -0.702664 4.547284
-4.257168 -0.719980 4.546974
-4.215545 -0.717158 4.536882
-4.249135 -0.678876 4.556697
-4.235844 -0.687619 4.548559
-4.226226 -0.699802 4.543021
-4.199731 -0.706971 4.537765
-4.180097 -0.700735 4.538217
-4.189651 -0.689536 4.541633
-4.177574 -0.697528 4.538667
-4.213832 -0.641519 4.557602
-4.203213 -0.671814 4.546974
-4.166781 -0.656094 4.545594
-4.204309 -0.625286 4.558733
-4.200591 -0.636583 4.555446
-4.169379 -0.619520 4.551284
-4.196616 -0.604596 4.559463
-4.195687 -0.593374 4.560032
-4.181941 -0.612796 4.554840
-4.168294 -0.607072 4.551898
-4.188548 -0.564056 4.560135
-4.184165 -0.590600 4.556844
-4.167584 -0.579261 4.553791
-4.176286 -0.558741 4.557773
-4.164514 -0.539912 4.558063
-4.069459 0.004765 4.657077
-4.060799 -0.004986 4.657867
-4.098959 0.032888 4.661546
-4.084879 0.023456 4.660279
-4.065833 0.032063 4.673053
-4.042445 -0.057839 4.647537
-4.024571 -0.066084 4.662362
-4.150347 0.054519 4.665507
-4.124481 0.045196 4.663777
-4.116915 0.058979 4.672277
-4.029825 1.044062 4.914131
-4.007023 1.024098 4.917170
-3.421844 -1.036956 4.926027
-3.419911 -1.038283 4.929894
-3.413859 -1.007200 4.919771
-3.418457 -1.023339 4.921287
-3.400253 -0.989938 4.934497
-3.950177 0.282214 4.952038
-3.946225 0.259516 4.953502
-3.940501 0.310936 4.969690
-3.940262 0.284844 4.968391
-3.946420 0.331307 4.962076
-3.955204 0.336044 4.947227
-3.950790 0.355908 4.958771
