2.971454 -0.446861 -0.091229
3.015905 -0.467591 -0.061541
3.015779 -0.480571 -0.060928
2.966184 -0.438094 -0.095203
3.008373 -0.412603 -0.068878
3.006261 -0.429771 -0.069388
2.977767 -0.392374 -0.089872
2.982971 -0.387066 -0.086571
3.018446 -0.378072 -0.064037
3.020502 -0.382636 -0.062560
2.977253 -0.368947 -0.091408
2.981894 -0.346198 -0.089498
2.998546 -0.367645 -0.077015
2.978839 -0.308113 -0.093334
3.003367 -0.327136 -0.076087
3.013004 -0.334516 -0.069519
3.027098 -0.273851 -0.062560
3.004149 -0.284493 -0.077124
3.020661 -0.287166 -0.066380
2.990411 -0.264229 -0.086752
2.994741 -0.255964 -0.084005
3.018872 -0.246011 -0.068506
3.012421 -0.260780 -0.072342
3.021346 -0.201506 -0.067842
3.027844 -0.231368 -0.063016
3.011107 -0.184399 -0.074658
3.025707 -0.166484 -0.065224
3.007492 -0.705692 -0.052627
3.021489 -0.713184 -0.043679
3.008366 -0.673944 -0.054042
3.022971 -0.670521 -0.045458
3.041975 -0.695501 -0.032436
3.047791 -0.724954 -0.027402
3.035260 -0.658696 -0.038840
3.045217 -0.671791 -0.031932
3.015921 -0.651843 -0.050947
3.018057 -0.606487 -0.052731
3.017123 -0.590205 -0.054242
3.046868 -0.637536 -0.033362
3.038913 -0.653583 -0.036980
3.039711 -0.607229 -0.039831
3.058179 -0.596282 -0.029367
3.077417 0.744450 -0.022517
3.082444 0.810756 -0.018190
3.089631 0.799251 -0.014806
3.091410 0.814771 -0.013692
3.085876 0.852518 -0.015737
3.091972 0.894637 -0.010618
3.074662 0.894939 -0.020603
3.075670 0.933833 -0.017609
3.066760 0.916297 -0.024263
3.129601 0.676276 0.004372
3.115531 0.703987 -0.002676
3.100919 0.734695 -0.010094
3.120135 0.711586 -0.000124
3.110795 0.766772 -0.004342
3.118214 0.747711 -0.000690
3.111597 0.798014 -0.003237
3.127025 0.842761 0.006978
3.113212 0.831758 -0.001297
3.101179 0.857734 -0.007187
3.121533 0.915686 0.007752
3.111628 0.937865 0.004336
3.112369 0.927329 0.003629
3.062713 0.970393 -0.023261
3.076608 0.974320 -0.013021
3.090084 0.973433 -0.003620
3.059875 1.004545 -0.020724
3.084582 1.014300 0.000238
3.089635 1.006490 0.002124
3.092810 0.987011 0.000091
3.054810 1.034343 -0.020799
3.054253 1.064650 -0.018994
3.073268 1.082040 0.003702
3.076229 1.057511 0.005451
3.052034 1.100222 -0.019958
3.065921 1.120949 -0.004815
3.061694 1.143908 -0.009390
3.066192 1.159984 -0.005306
3.065039 1.159451 -0.006370
3.046681 1.187024 -0.023968
3.061684 1.167796 -0.009729
3.072455 1.193285 -0.000259
3.046205 1.212382 -0.023795
3.072807 1.214922 0.000726
3.073804 1.195885 0.001023
3.380132 -0.767447 0.146191
3.381813 -0.746134 0.146066
3.400600 0.406910 0.150259
3.426007 0.415589 0.167019
3.415955 0.393698 0.160275
3.407018 0.428493 0.154013
3.418471 0.439930 0.161552
3.441942 0.441998 0.178115
3.398327 0.471792 0.148822
3.415338 0.487930 0.159443
3.445109 0.485619 0.180385
3.409286 0.500862 0.155680
3.421849 0.507801 0.164206
3.427609 0.526157 0.168405
3.404708 0.553904 0.153506
3.408593 0.549053 0.155895
3.448404 0.544833 0.182978
3.446296 0.532119 0.181244
3.397989 0.574417 0.149456
3.411431 0.579445 0.158017
3.439558 0.595335 0.178061
3.425011 0.582762 0.167322
2.502299 0.979952 -0.502873
2.503484 0.961207 -0.503783
2.491023 1.000379 -0.510364
2.484453 1.028606 -0.509561
2.475926 1.046723 -0.513918
2.483393 1.087474 -0.493289
2.489364 1.059773 -0.495405
2.453338 1.120303 -0.511697
2.449385 1.157113 -0.499175
2.463593 1.142803 -0.489290
2.475007 1.091949 -0.500957
2.452304 1.161580 -0.493383
2.426376 1.226450 -0.497837
2.431087 1.206238 -0.499858
2.437286 1.203322 -0.492862
2.441537 1.201963 -0.488461
2.393099 1.288423 -0.512761
2.382058 1.322253 -0.513466
2.395890 1.306396 -0.505165
2.384200 1.367832 -0.497979
2.385795 1.354992 -0.500600
2.373773 1.349654 -0.512587
2.425901 1.246545 -0.492474
2.418536 1.230770 -0.504874
2.437662 1.231958 -0.483613
2.408503 1.284338 -0.500406
2.430331 1.271376 -0.483764
2.405840 1.320691 -0.493304
2.732146 -0.075798 -0.298887
2.725955 -0.039854 -0.304806
2.735931 -0.041171 -0.295786
2.751695 -0.095233 -0.280959
2.755760 -0.050792 -0.277865
2.738253 -0.000799 -0.293651
2.734584 0.037453 -0.296524
2.746422 0.011583 -0.286181
2.758569 -0.005159 -0.275564
2.740826 0.073260 -0.289429
2.739049 0.050234 -0.292080
2.738229 0.109977 -0.287985
2.742940 0.083949 -0.286762
2.760894 0.072427 -0.271618
2.752450 0.112446 -0.275785
2.718915 0.129814 -0.299492
2.722128 0.114790 -0.300384
2.738704 0.133782 -0.283137
2.726897 0.166758 -0.289239
2.721801 0.163149 -0.293347
2.722832 0.150102 -0.292711
2.744641 0.196215 -0.276123
2.725184 0.192906 -0.292402
2.722804 0.219677 -0.298954
2.728391 0.252153 -0.297033
2.753431 0.251968 -0.273220
2.722193 0.285059 -0.303660
2.742990 0.266793 -0.283279
2.743538 0.320126 -0.282668
2.738014 0.297994 -0.288257
2.738111 0.345840 -0.287713
2.748575 0.336315 -0.277746
2.726915 0.378690 -0.297640
2.748302 0.382391 -0.277527
2.756333 0.333278 -0.270428
2.751287 0.390059 -0.274583
2.815617 -0.504376 -0.197382
2.967480 -0.019360 -0.103706
2.978832 0.076586 -0.096472
2.969079 0.057730 -0.103448
2.937782 0.122402 -0.126281
2.952692 0.118764 -0.115044
2.932859 0.165376 -0.129103
2.931470 0.195983 -0.129794
2.931098 0.231018 -0.129845
2.951558 0.224368 -0.115183
2.965456 0.126272 -0.105616
2.972036 0.176754 -0.100741
2.975929 0.160533 -0.098054
2.962587 0.213197 -0.107351
2.964579 0.185049 -0.105830
2.969793 0.241374 -0.102228
2.935633 0.267280 -0.126061
2.956713 0.274607 -0.110641
2.933943 0.300643 -0.126820
2.933643 0.288044 -0.127241
2.958333 0.356110 -0.107681
2.938132 0.332772 -0.123225
2.948726 0.391376 -0.113605
2.957416 0.378052 -0.107603
2.960633 0.287469 -0.107509
2.968776 0.313248 -0.101307
2.966968 0.295126 -0.102971
2.966251 0.363708 -0.101923
3.006285 1.376058 -0.054213
3.029258 1.371929 -0.031234
3.015997 1.409895 -0.051442
3.029153 1.423141 -0.042529
3.041141 1.392043 -0.026983
3.030282 1.386668 -0.034239
3.020207 1.466685 -0.052619
3.027153 1.505938 -0.049859
3.041703 1.461250 -0.035819
3.047163 1.500455 -0.035264
3.033078 1.497944 -0.044841
3.142800 0.704067 0.011652
3.164346 0.674904 0.022538
3.152390 0.736811 0.017060
3.157076 0.726051 0.019348
3.170105 0.679413 0.025598
3.176585 0.704220 0.029219
3.195336 0.724009 0.039299
3.198284 0.714093 0.040696
3.204366 0.709128 0.043806
3.140258 0.747490 0.010969
3.163593 0.758453 0.023372
3.133378 0.804791 0.009206
3.160403 0.802332 0.023554
3.140859 0.784527 0.012213
3.192575 0.769335 0.038922
3.189764 0.752297 0.036961
3.179825 0.804698 0.033591
3.197911 0.786706 0.042199
3.135493 0.841975 0.011738
3.150570 0.813213 0.018827
3.132132 0.849829 0.010114
3.150160 0.879941 0.020891
3.156523 0.856830 0.023665
3.192162 0.835068 0.040809
3.189358 0.871187 0.040897
3.184278 0.854349 0.037722
3.139381 0.898508 0.016516
3.165369 0.886276 0.029659
3.149292 0.948589 0.028764
3.168166 0.934164 0.036897
3.187239 0.882600 0.040418
3.181057 0.931717 0.043195
3.177604 0.928425 0.040744
3.080474 1.054059 0.009614
3.080469 1.080072 0.012126
3.094764 1.071631 0.026180
3.085782 1.091672 0.018495
3.092618 1.114779 0.023228
3.083338 1.134084 0.011985
3.092980 1.148935 0.021109
3.097593 1.174589 0.025123
3.128953 0.975189 0.022846
3.124409 0.958475 0.015881
3.145881 0.963522 0.030861
3.111047 1.014401 0.021061
3.110582 1.002545 0.017011
3.133703 0.996271 0.031529
3.144492 1.001968 0.040338
3.125721 1.041440 0.040160
3.115150 1.076817 0.040807
3.111854 1.073918 0.038211
3.234292 0.980684 0.086735
3.204289 1.011236 0.083115
3.231159 1.013390 0.099823
3.202415 1.046165 0.093411
3.226118 1.049765 0.111653
3.221390 1.034704 0.102667
3.193114 1.084194 0.091579
3.214933 1.077709 0.108059
3.205384 1.084977 0.101267
3.253318 0.970698 0.092509
3.265393 0.983585 0.103419
3.278143 0.953038 0.098372
3.240491 1.011778 0.104689
3.248431 0.992604 0.099219
3.177985 1.105842 0.082522
3.202122 1.113560 0.100892
3.214710 1.111234 0.110314
3.170794 1.153485 0.083996
3.202705 1.139276 0.104350
3.205263 1.135323 0.105540
3.175968 1.189321 0.090610
3.172256 1.168249 0.086472
3.206061 1.163587 0.110342
3.191274 1.220751 0.106173
3.169881 1.212639 0.087405
3.197124 1.249296 0.113798
3.183646 1.238126 0.100899
3.188791 1.299078 0.106212
3.180447 1.276539 0.099274
3.165675 1.329079 0.090527
3.154408 1.358130 0.085194
3.164546 1.337406 0.090939
3.169608 1.327742 0.093591
3.191884 1.317070 0.110690
3.175447 1.353327 0.102496
3.156051 1.393889 0.088946
3.165360 1.381609 0.097563
3.147924 1.413364 0.080405
3.162215 1.410341 0.095837
3.175971 1.439315 0.112749
3.169611 1.421911 0.104682
3.156049 1.468993 0.093559
3.162045 1.444127 0.098112
3.149780 1.508235 0.083261
3.148135 1.476321 0.083625
3.216444 1.322200 0.131376
3.219985 1.306873 0.133008
3.194074 1.364043 0.120830
3.200951 1.341854 0.121635
3.219665 1.361035 0.141041
3.226028 1.358132 0.145593
3.188843 1.396511 0.121068
3.194930 1.376272 0.123867
3.211334 1.403940 0.142045
3.185300 1.416969 0.119897
3.217312 1.408438 0.147347
3.176697 1.466735 0.117246
3.205221 1.448832 0.142299
3.179007 1.493851 0.122643
3.458863 -0.705799 0.187596
3.468289 -0.697189 0.192932
3.499439 -0.692216 0.211996
3.462605 -0.685503 0.188887
3.500643 -0.662246 0.212129
3.502254 -0.681194 0.213529
3.470615 -0.641769 0.192499
3.480290 -0.632143 0.198174
3.500561 -0.636636 0.211650
3.480181 -0.613076 0.197655
3.459895 -0.559466 0.184369
3.494988 -0.555284 0.206142
3.493707 -0.575311 0.205641
3.466930 -0.528912 0.188150
3.482849 -0.530453 0.197640
3.494367 -0.538118 0.205401
3.464722 -0.493421 0.185650
3.492530 -0.493496 0.203211
3.506635 -0.510264 0.213095
3.492760 -0.464183 0.202651
3.511995 -0.450386 0.215841
3.474132 -0.412994 0.190267
3.494537 -0.412354 0.203564
3.500768 -0.434052 0.207959
3.472575 -0.403217 0.189265
3.498059 -0.376562 0.205734
3.494225 -0.396602 0.203245
3.471323 -0.361318 0.188154
3.506148 -0.350675 0.211138
3.512740 -0.353907 0.215699
3.511373 -0.306364 0.214498
3.493590 -0.339365 0.202205
3.474926 -0.293871 0.189314
3.488053 -0.288809 0.197739
3.488034 -0.301629 0.197854
3.516464 -0.250624 0.218549
3.506470 -0.267144 0.210991
3.293258 1.678383 0.254039
3.292401 1.692830 0.257293
3.303391 1.695472 0.264007
3.310520 1.660222 0.258212
3.326130 1.676992 0.271649
3.365098 1.655181 0.287049
3.311772 1.690041 0.267432
3.330650 1.693894 0.277915
3.384512 1.540815 0.277437
3.386462 1.513309 0.272317
3.388577 1.563027 0.288101
2.482366 0.413336 -0.540196
2.477724 0.424302 -0.544162
2.499657 0.394454 -0.525884
2.509732 0.408747 -0.516044
2.487071 0.457443 -0.534477
2.500834 0.436934 -0.523235
2.490666 0.435973 -0.532297
2.469548 0.530895 -0.547852
2.490032 0.472173 -0.531231
2.478636 0.482781 -0.540936
2.490569 0.480489 -0.530430
2.477788 0.514201 -0.540888
2.490641 0.501340 -0.529676
2.499961 0.523831 -0.521000
2.506251 0.524460 -0.515387
2.487480 0.556009 -0.532063
2.499951 0.557246 -0.520753
2.494515 0.600746 -0.525975
2.475062 0.567623 -0.543616
2.494013 0.630799 -0.526131
2.474656 0.628807 -0.545266
2.504250 0.604650 -0.516633
2.487920 0.662744 -0.531556
2.486373 0.666593 -0.533008
2.486112 0.648804 -0.533701
2.485314 0.639442 -0.534597
2.550565 1.052435 -0.434644
2.569951 1.029658 -0.422289
2.550241 1.029495 -0.440801
2.549533 1.076975 -0.428416
2.546690 1.096919 -0.425447
2.548252 1.141259 -0.413296
2.485161 1.251570 -0.440030
2.516907 1.231589 -0.417618
2.478274 1.294439 -0.441942
2.502182 1.274949 -0.424689
2.517021 1.270576 -0.413600
2.468759 1.369001 -0.430876
2.469409 1.343304 -0.439436
2.496382 1.305635 -0.425850
2.507798 1.325549 -0.410793
2.478601 1.357091 -0.426609
2.495775 1.356592 -0.411538
2.489625 1.359692 -0.415941
2.362566 1.509115 -0.439267
2.395803 1.487009 -0.430312
2.441044 1.398891 -0.441360
2.466613 1.421340 -0.413883
2.437298 1.410332 -0.439249
2.483391 1.393986 -0.410710
2.430662 1.466103 -0.416933
2.422793 1.449955 -0.430355
2.452865 1.446384 -0.411867
2.407852 1.495159 -0.418705
2.643306 0.402505 -0.377114
2.627491 0.447296 -0.387950
2.616103 0.455083 -0.398393
2.603753 0.479319 -0.409105
2.608768 0.514353 -0.401831
2.623062 0.495379 -0.388802
2.610973 0.475908 -0.402107
2.614728 0.531190 -0.394098
2.618063 0.520341 -0.392011
2.659097 0.129198 -0.360777
2.673971 0.122375 -0.346135
2.661388 0.169372 -0.358190
2.661429 0.166368 -0.357855
2.658814 0.153570 -0.360478
2.675169 0.194311 -0.346213
2.670209 0.190830 -0.351003
2.658854 0.220754 -0.365244
2.668633 0.251552 -0.356784
2.681693 0.222059 -0.343208
2.664484 0.259957 -0.360841
2.669337 0.270593 -0.356162
2.659786 0.302226 -0.365259
2.649981 0.292245 -0.374888
2.668826 0.305150 -0.356444
2.651110 0.328370 -0.373621
2.677521 0.336580 -0.347595
2.651800 0.385398 -0.371079
2.675217 0.359918 -0.349521
2.683252 0.311017 -0.342350
2.554056 1.535561 -0.304627
2.569921 1.511900 -0.298444
2.587331 1.536062 -0.273446
2.570312 1.561508 -0.279411
2.556521 1.552496 -0.295864
2.581671 1.550760 -0.273545
2.542305 1.581287 -0.293380
2.526577 1.639555 -0.266416
2.506666 1.670213 -0.267840
2.517833 1.668922 -0.253997
2.527370 1.650781 -0.255239
2.518139 1.688046 -0.237780
2.876851 -0.414371 -0.160779
2.874949 -0.398015 -0.163365
2.889717 -0.409574 -0.152081
2.916891 -0.393761 -0.133044
2.901091 -0.403629 -0.144021
2.884498 -0.360534 -0.159099
2.889453 -0.354860 -0.155611
2.888391 -0.325181 -0.158006
2.911046 -0.345308 -0.140159
2.907329 -0.364446 -0.141909
2.911872 -0.317051 -0.140846
2.911486 -0.320495 -0.141004
2.901996 -0.337513 -0.147198
2.887698 -0.246247 -0.161277
2.915838 -0.279266 -0.138984
2.910951 -0.290318 -0.142361
2.898458 -0.259931 -0.152721
2.901894 -0.247494 -0.150367
2.891281 -0.205210 -0.159214
2.911753 -0.201785 -0.143884
2.898448 -0.188182 -0.154123
2.904033 -0.166954 -0.150295
2.900647 -0.195683 -0.152339
2.921329 -0.133715 -0.138496
2.903920 -0.157772 -0.150702
2.928432 -0.153553 -0.132434
2.915394 -0.104992 -0.143807
2.923653 -0.117802 -0.137189
2.927601 -0.120640 -0.133996
2.896061 -0.086653 -0.159074
2.893355 -0.096213 -0.161070
2.908205 -0.038411 -0.149864
2.917965 -0.061357 -0.142356
2.889474 0.023723 -0.164530
2.893135 -0.015641 -0.161781
2.917865 -0.005101 -0.142195
2.927965 0.002243 -0.134094
2.900002 0.013363 -0.156238
2.916030 0.035779 -0.143782
2.929349 0.031160 -0.133250
2.904540 0.070161 -0.152610
2.910238 0.048597 -0.148292
2.913336 0.110073 -0.145273
2.902852 0.086204 -0.153794
2.929213 0.095358 -0.133193
2.930493 0.087614 -0.132351
3.049290 0.533173 -0.044049
3.053012 0.565081 -0.040836
3.071722 0.539317 -0.030443
3.042835 0.570926 -0.047011
3.047871 0.593299 -0.043392
3.069445 0.588609 -0.030642
3.018534 0.610864 -0.060753
3.026484 0.657948 -0.053732
3.031807 0.609121 -0.052806
3.039161 0.629202 -0.047829
3.074516 0.626783 -0.027274
3.030659 0.640389 -0.052489
3.044616 0.669170 -0.042593
3.066447 0.666458 -0.030442
3.014790 0.687182 -0.059081
3.012754 0.734003 -0.059466
3.018460 0.710969 -0.055979
3.043369 0.682195 -0.042630
3.053678 0.697526 -0.036208
3.072190 0.681636 -0.026753
3.039533 0.707913 -0.043622
3.047744 0.739243 -0.038576
3.067548 0.729486 -0.027954
3.016447 0.762871 -0.056337
3.016210 0.792269 -0.056136
3.043464 0.760470 -0.040100
3.058425 0.748934 -0.032367
3.033988 0.804769 -0.044551
3.057974 0.793119 -0.031143
3.012879 0.860560 -0.058127
3.023384 0.870146 -0.051546
3.036941 0.822757 -0.043099
3.059870 0.830647 -0.030079
3.032530 0.874054 -0.045899
3.053564 0.858706 -0.033765
3.011770 0.906777 -0.057679
3.021557 0.882847 -0.052295
3.044590 0.911764 -0.037844
3.056346 0.881550 -0.031599
3.049760 0.941764 -0.033630
3.035210 0.918761 -0.043309
3.089436 0.481437 -0.022175
3.096663 0.586547 -0.015835
3.097347 0.635657 -0.014694
3.095681 0.608317 -0.016082
3.090717 0.661535 -0.017293
3.115891 0.407084 -0.007561
3.122920 0.409606 -0.003387
3.105341 0.435860 -0.013654
3.104114 0.461931 -0.014086
3.142658 0.448483 0.008259
3.103293 0.483026 -0.014006
3.123233 0.491922 -0.002564
3.137585 0.493599 0.005483
3.106753 0.524237 -0.011051
3.134298 0.499043 0.003674
3.121663 0.536945 -0.002737
3.125085 0.558530 -0.000647
3.135812 0.566371 0.005277
3.112600 0.598438 -0.006969
3.121118 0.575529 -0.002563
3.116245 0.632234 -0.004278
3.104746 0.602122 -0.011280
3.105789 0.640604 -0.009854
3.129978 0.650126 0.003875
3.093588 0.736088 -0.014019
3.099111 0.720376 -0.011216
3.093274 1.660496 0.046398
3.098623 1.699535 0.078090
3.136254 1.538805 0.047938
3.142110 1.519025 0.065178
3.131324 1.571795 0.048724
3.146208 1.554336 0.074405
3.135034 1.557309 0.049871
3.133309 1.606383 0.075625
3.116614 1.604021 0.045438
3.139681 1.584964 0.072912
3.106422 1.630759 0.047611
3.118567 1.645235 0.077564
3.104044 1.656715 0.060520
3.450920 -0.234574 0.174272
3.454703 -0.189433 0.176354
3.466159 -0.173733 0.183396
3.428476 -0.143109 0.160264
3.435857 -0.146890 0.164560
3.411649 -0.112741 0.150329
3.420100 -0.114093 0.155256
3.420631 -0.128728 0.155616
3.453403 -0.151965 0.175057
3.461472 -0.112289 0.180128
3.429642 -0.079591 0.160904
3.433374 -0.095321 0.162922
3.426152 -0.028616 0.159384
3.446064 -0.053376 0.170853
3.449147 -0.083481 0.172272
3.464755 -0.044815 0.183111
3.410871 -0.020313 0.150064
3.428062 -0.009530 0.160841
3.430361 -0.015188 0.162167
3.410090 0.022178 0.149644
3.425661 0.024552 0.159537
3.446260 0.032597 0.172431
3.454336 -0.010255 0.177083
3.458345 0.025268 0.180334
3.449699 0.031881 0.174607
3.410857 0.061212 0.150454
3.412061 0.056253 0.151177
3.415031 0.077818 0.153260
3.439948 0.062931 0.168899
3.411870 0.095322 0.151720
3.426494 0.098206 0.161044
3.438277 0.096997 0.168505
3.460173 0.057515 0.182034
3.457053 0.046978 0.179748
3.455369 0.097741 0.179502
3.458533 0.079622 0.181311
3.480864 0.200841 0.200172
3.498850 0.185813 0.214986
3.500602 0.236458 0.217318
3.465106 0.278591 0.189875
3.481654 0.264565 0.201095
3.488383 0.265874 0.206766
3.492717 0.269269 0.210737
3.457981 0.315291 0.186480
3.467929 0.297553 0.192993
3.491246 0.293582 0.210523
3.461061 0.332319 0.189634
3.476205 0.326709 0.200622
3.488363 0.347056 0.211730
3.462942 0.372609 0.192760
3.483163 0.365508 0.208244
3.394266 1.321008 0.247064
3.404231 1.302016 0.250985
3.399609 1.354270 0.251540
3.393834 1.335504 0.246012
3.516770 0.630779 0.266883
3.518333 0.615238 0.267946
3.517116 0.636822 0.268093
3.528219 0.548698 0.278497
3.522623 0.543045 0.266506
3.518896 0.619251 0.269496
3.520715 0.669602 0.278446
3.516975 0.677537 0.270813
3.513662 0.740658 0.270474
3.515233 0.711958 0.270168
3.508716 0.769129 0.264924
3.508634 0.746690 0.260734
3.515690 0.789072 0.283374
3.510894 0.791614 0.273628
3.520076 0.746255 0.285724
3.503546 0.833583 0.264688
3.511557 0.832280 0.281139
3.504696 0.870831 0.273898
3.511569 0.859512 0.285900
3.499519 0.903136 0.271908
3.505409 0.914290 0.287250
3.497451 0.938685 0.280763
3.488535 0.919073 0.255209
3.376802 1.458312 0.256356
3.480263 0.965943 0.261341
3.487178 0.985462 0.280426
3.486652 0.956928 0.267473
3.462833 1.014450 0.258275
3.477048 1.040103 0.280772
3.465374 1.025180 0.264271
3.456249 1.074016 0.265177
3.459285 1.061483 0.265238
3.545884 0.426410 0.300591
3.551744 0.417815 0.314903
3.554859 0.402156 0.320653
3.547670 0.461168 0.315114
3.552759 0.433856 0.322561
3.544126 0.514308 0.317531
3.540272 0.510721 0.302691
2.684206 -0.144851 -0.339908
2.700978 -0.139881 -0.325305
2.697916 -0.129888 -0.328523
2.712119 -0.100587 -0.316950
2.699317 -0.091662 -0.328787
2.697323 -0.070004 -0.331182
2.719008 -0.086197 -0.310853
2.690753 -0.050542 -0.337476
2.706047 -0.044448 -0.323524
2.710223 -0.025944 -0.319779
2.724481 -0.001380 -0.306149
2.691842 0.041878 -0.336297
2.710314 0.032598 -0.319070
2.718401 0.019284 -0.311778
2.721817 0.014206 -0.308574
2.690443 0.052947 -0.337121
2.702266 0.055261 -0.325806
2.719015 0.064432 -0.309706
2.686318 0.084040 -0.339111
2.693462 0.101010 -0.329802
2.710856 0.084778 -0.315456
2.710522 -0.301616 -0.300589
2.749313 -0.271907 -0.273163
2.725439 -0.285751 -0.291292
2.733829 -0.303103 -0.282540
2.731772 -0.238209 -0.290194
2.749647 -0.237990 -0.274719
2.733977 -0.212705 -0.289943
2.739820 -0.216999 -0.284495
2.734529 -0.187659 -0.291480
2.744421 -0.190935 -0.282245
2.754519 -0.186083 -0.273452
2.723704 -0.134834 -0.304582
2.742567 -0.147458 -0.286943
2.737123 -0.125358 -0.293073
2.760313 -0.144492 -0.271305
2.757041 -0.103335 -0.275798
2.753514 -0.125396 -0.278385
2.641314 1.472819 -0.239611
2.629710 1.455797 -0.256829
2.628135 1.453611 -0.259096
2.649499 1.442584 -0.243343
2.635936 1.491347 -0.237916
2.610960 1.501390 -0.258641
2.685595 1.372081 -0.239511
2.847662 1.239159 -0.161533
2.872098 1.253672 -0.138494
2.858583 1.250327 -0.150437
2.849702 1.284338 -0.152472
2.830847 1.311952 -0.162672
2.854496 1.330662 -0.145650
2.868181 1.317688 -0.136223
2.855540 1.322340 -0.144944
2.848188 1.339779 -0.148415
2.854967 1.357263 -0.144558
2.881672 1.350088 -0.131781
2.861483 1.345315 -0.141416
2.848547 1.380636 -0.146731
2.881052 1.402716 -0.134288
2.823356 1.421014 -0.155244
2.851312 1.439135 -0.144028
2.885392 1.431692 -0.132311
2.836249 1.446013 -0.148370
2.886870 1.442552 -0.131665
2.843288 1.508158 -0.139179
2.857334 1.500370 -0.136820
2.882111 1.478835 -0.131730
2.900862 1.173359 -0.127009
2.924440 1.171703 -0.111132
2.939649 1.180918 -0.100744
2.925440 1.194141 -0.109565
2.902590 1.217736 -0.122574
2.908521 1.196255 -0.120905
2.927897 1.209288 -0.106732
2.933432 1.200103 -0.103881
2.885324 1.299292 -0.123732
2.918069 1.233410 -0.110425
2.911586 1.255230 -0.110712
2.928177 1.249725 -0.101958
2.909233 1.291942 -0.109466
2.900309 1.271342 -0.115452
2.878978 1.302988 -0.128366
2.894133 1.308885 -0.119465
2.912710 1.313481 -0.109278
2.935110 1.334902 -0.099929
2.904425 1.353578 -0.119509
2.894635 1.365965 -0.126411
2.927379 1.368573 -0.110323
2.949605 1.361998 -0.096156
2.895344 1.377108 -0.127159
2.892777 1.372128 -0.128171
2.934541 1.384433 -0.107158
2.912869 1.436180 -0.119868
2.921943 1.414227 -0.115423
2.954467 1.433437 -0.097520
2.947967 1.410078 -0.100535
2.902215 1.471915 -0.123905
2.915700 1.443197 -0.118409
2.926754 1.461483 -0.112589
2.956028 1.450464 -0.096735
2.891241 1.487504 -0.127481
2.911872 1.504609 -0.116157
2.938832 1.503357 -0.103466
2.951415 1.490095 -0.097946
2.790728 -1.003245 -0.028820
2.815370 -0.991601 -0.059300
2.828386 -1.004765 -0.028238
2.833112 -0.987162 -0.059342
2.869527 -0.987210 -0.039157
2.865310 -0.977040 -0.055069
2.911784 -0.986109 -0.033334
2.958590 -0.970842 -0.033625
2.942941 -0.986106 -0.025943
2.930709 -0.945831 -0.058106
2.929590 -0.957976 -0.050934
2.949959 -0.943729 -0.050748
2.947249 -0.921430 -0.059967
2.960228 -0.980396 -0.026325
2.969751 -0.944637 -0.039406
2.960067 -0.966993 -0.035130
2.983322 -0.925287 -0.037703
2.993160 -0.904749 -0.038141
2.999780 -0.921451 -0.028784
2.986099 -0.890963 -0.045554
2.980019 -0.898120 -0.047828
2.987072 -0.865283 -0.049864
3.018778 -0.880568 -0.028013
3.006011 -0.885381 -0.034619
3.053491 1.262408 -0.011698
3.059788 1.255199 -0.007552
3.046648 1.284580 -0.014222
3.051889 1.271840 -0.011674
3.066052 1.275316 0.000616
3.040584 1.328367 -0.016095
3.056231 1.308544 -0.003674
3.068461 1.312397 0.006611
3.051705 1.352289 -0.008486
3.066454 1.352991 0.003894
3.071318 1.348464 0.008638
3.049872 1.371096 -0.012939
3.064292 1.391146 -0.007072
3.059082 1.418225 -0.018125
3.067733 1.428664 -0.012393
3.072770 1.409083 -0.004102
3.056551 1.458775 -0.024308
3.084228 1.458095 0.000765
3.080100 1.447584 -0.002320
3.071874 1.494961 -0.016714
3.279966 0.544736 0.082285
3.299197 0.550467 0.092306
3.274445 0.586391 0.079432
3.298364 0.573747 0.091912
3.322600 0.563144 0.105085
3.316072 0.534580 0.101386
3.320403 0.599312 0.103992
3.331238 0.572272 0.109971
3.277603 0.614589 0.081214
3.304197 0.607790 0.095111
3.277795 0.664625 0.082808
3.297999 0.669740 0.093349
3.325208 0.616283 0.106809
3.316560 0.649298 0.102423
3.329670 0.637815 0.109566
3.269073 0.692756 0.079122
3.276437 0.676812 0.082553
3.303558 0.705221 0.097007
3.270999 0.741519 0.080667
3.287248 0.708573 0.088981
3.336470 0.682275 0.113526
3.332412 0.731495 0.111863
3.309738 0.733251 0.100138
3.288214 0.757669 0.089371
3.307982 0.775868 0.099022
3.272806 0.784900 0.081717
3.278524 0.802490 0.084841
3.325901 0.761652 0.108568
3.312605 0.752373 0.101570
3.325958 0.798459 0.109706
3.273599 0.834450 0.083238
3.278748 0.816017 0.085283
3.308274 0.838418 0.101384
3.305877 0.874043 0.102646
3.318576 0.812705 0.106173
3.322335 0.878250 0.112305
3.323445 0.862292 0.111865
3.264639 0.881419 0.081178
3.291288 0.915676 0.098424
3.283843 0.888769 0.092056
3.262250 0.930475 0.085766
3.294833 0.944452 0.105419
3.287112 0.916972 0.096308
3.369188 0.412851 0.131759
3.344082 0.434220 0.117179
3.377473 0.444401 0.136329
3.339665 0.470235 0.114664
3.345584 0.479151 0.118208
3.360392 0.476959 0.126820
3.347752 0.511518 0.119473
3.368943 0.497622 0.131895
3.342863 0.541789 0.116500
3.350924 0.563671 0.121327
3.353381 0.538045 0.122709
3.363813 0.580808 0.129119
3.367362 0.594791 0.131288
3.348139 0.624977 0.120008
3.369561 0.614547 0.132631
3.349814 0.637909 0.120993
3.377132 0.663495 0.136913
3.340548 0.679089 0.115805
3.356975 0.696976 0.125456
3.376149 0.701008 0.136591
3.343218 0.713785 0.117629
3.358860 0.732907 0.126907
3.371722 0.728174 0.134362
3.361577 0.771458 0.129282
3.364883 0.760363 0.131111
3.368975 0.801725 0.135476
3.370549 0.798404 0.136215
3.340087 0.811785 0.118558
3.350153 0.824377 0.125160
3.365688 0.837814 0.135334
3.327975 0.861557 0.114485
3.348627 0.873562 0.127126
3.377919 0.865287 0.144011
3.328746 0.914497 0.119508
3.339453 0.898106 0.124050
3.373838 0.904067 0.144651
3.345483 0.886245 0.126215
3.316975 0.948179 0.118231
3.330524 0.921129 0.121550
3.360243 0.946940 0.143037
3.373386 0.917403 0.145843
3.393073 0.425947 0.145482
3.391969 0.401381 0.145186
3.386267 0.443263 0.141496
3.387504 0.430730 0.142152
3.395170 0.463612 0.146933
3.384221 0.594336 0.141274
3.394972 0.598018 0.147680
3.262809 1.250176 0.164621
3.247210 1.243829 0.153537
3.275123 1.251123 0.172948
3.257504 1.291946 0.163156
3.269438 1.275753 0.171081
3.274406 1.289566 0.175317
3.244261 1.312161 0.153614
3.256773 1.305020 0.162742
3.273177 1.309285 0.175408
3.274303 1.311976 0.176331
3.239416 1.355542 0.155090
3.254194 1.368364 0.166813
3.275204 1.363845 0.179753
3.225730 1.416952 0.154860
3.221345 1.465002 0.158728
3.227355 1.443868 0.159497
3.208817 1.509377 0.155051
3.210737 1.492039 0.153959
3.218156 1.478921 0.158294
3.243110 1.404349 0.164700
3.269974 1.383122 0.178664
3.244505 1.437838 0.171018
3.246684 1.428055 0.170642
3.253394 1.458298 0.182038
3.391066 0.970558 0.168705
3.412292 0.954979 0.178426
3.385004 1.002039 0.175054
3.507590 0.196548 0.223634
3.505237 0.252410 0.222005
3.533273 0.175899 0.250781
3.531049 0.194139 0.249150
3.526971 0.194752 0.244303
3.511960 0.280355 0.229271
3.512386 0.311491 0.232187
3.514731 0.354121 0.238769
3.508890 0.331306 0.230655
3.508327 0.379880 0.235473
3.513420 0.357959 0.237803
3.604483 -0.507560 0.329978
3.602304 -0.461178 0.328757
3.599747 -0.415328 0.327421
3.600477 -0.343116 0.332811
3.600776 -0.352356 0.332616
3.600776 -0.340911 0.334438
3.595239 -0.253518 0.333390
3.592028 -0.208129 0.328142
3.591044 -0.189891 0.326470
3.584418 -0.044542 0.326135
3.579767 0.016834 0.327459
3.572882 0.121949 0.326978
3.570788 0.177457 0.329152
3.570776 0.166380 0.326723
3.568488 0.213773 0.328778
3.563449 0.279329 0.327564
3.559710 0.346571 0.330680
2.552938 1.322910 -0.368219
2.574883 1.317085 -0.349075
2.576196 1.314882 -0.348651
2.555088 1.342608 -0.358738
2.542393 1.397404 -0.350097
2.559669 1.375283 -0.342519
2.690992 1.657234 -0.154661
2.731469 1.654180 -0.137221
2.707474 1.697601 -0.134419
2.837883 1.514606 -0.139060
3.165222 0.150485 0.018391
3.180165 0.138939 0.026769
3.201800 0.130905 0.039051
3.179271 0.158627 0.026510
3.185276 0.167293 0.030115
3.168533 0.211232 0.021332
3.157557 0.236113 0.015330
3.167354 0.249279 0.020948
3.196006 0.188238 0.036298
3.186537 0.248794 0.031682
3.185925 0.231224 0.031235
3.204304 0.233625 0.041438
3.146713 0.273348 0.009526
3.165684 0.279461 0.020150
3.152096 0.305478 0.012747
3.160868 0.303052 0.017591
3.188518 0.253294 0.032811
3.197109 0.268316 0.037668
3.169536 0.314876 0.022495
3.201043 0.299061 0.039902
3.208128 0.309734 0.043815
3.150049 0.329173 0.011873
3.145363 0.359818 0.009555
3.166763 0.380496 0.021503
3.175085 0.348576 0.025905
3.191309 0.340869 0.034604
3.174718 0.374448 0.025789
3.184266 0.389223 0.030846
3.354853 1.159550 0.222381
3.374059 1.126528 0.220133
3.371620 1.192411 0.231790
3.377067 1.176431 0.233299
3.354633 1.214886 0.221900
3.363538 1.224584 0.226653
3.358813 1.251117 0.226326
3.346192 1.251965 0.219116
3.349118 1.270801 0.222955
3.361582 1.296272 0.230314
3.375261 1.330884 0.235359
3.358097 1.301487 0.228464
3.375243 1.344730 0.235747
3.369493 1.341186 0.232032
3.333423 1.393947 0.218584
3.347357 1.403792 0.229042
3.359126 1.384325 0.231707
3.327894 1.419846 0.220500
3.360367 1.433177 0.242741
3.324324 1.453887 0.223456
3.341591 1.466651 0.234852
3.348781 1.469717 0.239580
3.359935 1.454743 0.245078
3.328719 1.500461 0.232005
3.341472 1.504328 0.239453
3.444695 0.983315 0.225130
3.432016 1.004220 0.220033
3.465791 0.958436 0.238949
3.472061 0.952786 0.244383
3.451126 1.017583 0.246314
3.425194 1.042298 0.225053
3.438820 1.027436 0.235745
3.418463 1.072347 0.227038
3.397866 1.096715 0.219153
3.409628 1.094793 0.226850
3.431137 1.094955 0.247339
3.390763 1.137662 0.232957
3.390984 1.139216 0.233577
3.414747 1.149799 0.247396
3.397458 1.163758 0.241399
3.408098 1.177734 0.247074
3.383369 1.214484 0.237969
3.398591 1.212866 0.245407
3.399212 1.263487 0.247531
3.386324 1.244101 0.240637
3.395987 1.296680 0.246943
3.381140 1.274042 0.239720
3.435275 1.102976 0.254157
3.447860 1.092154 0.262805
3.428309 1.148169 0.257083
3.436109 1.138010 0.262226
3.454906 1.118602 0.276039
3.463560 1.108364 0.281782
3.425395 1.195320 0.258035
3.437338 1.173554 0.265290
3.418597 1.214927 0.254874
3.437263 1.207395 0.265859
3.450411 1.185032 0.275775
3.460242 1.208813 0.284417
3.436035 1.235193 0.265690
3.417001 1.269326 0.255632
3.445763 1.292013 0.269811
3.469869 1.262901 0.288044
3.453765 1.240272 0.276548
3.453529 1.294259 0.275166
3.464035 1.275742 0.283195
3.428696 1.316615 0.265727
3.440008 1.314439 0.270687
3.446696 1.339511 0.279188
3.430612 1.345715 0.269947
3.454446 1.324898 0.281733
3.394535 1.390456 0.255218
3.410522 1.388777 0.265541
3.435017 1.397609 0.286073
3.431636 1.373588 0.277684
3.382849 1.426031 0.255602
3.397116 1.415719 0.262855
3.429199 1.411720 0.284836
3.387795 1.466613 0.265960
3.404589 1.462904 0.278782
3.392083 1.502685 0.275947
3.410482 1.484451 0.287722
3.404062 1.478354 0.281062
2.353297 1.242844 -0.578491
2.373117 1.250119 -0.554828
2.358146 1.278233 -0.557279
2.335012 1.275841 -0.583135
2.324312 1.311537 -0.578225
2.311754 1.357115 -0.568126
2.323304 1.350653 -0.560606
2.325322 1.337726 -0.565092
2.346080 1.309840 -0.556309
2.287257 1.385722 -0.573878
2.293796 1.376938 -0.573588
2.314170 1.372405 -0.557913
2.529446 1.701492 -0.218440
2.520052 1.692733 -0.231980
2.651627 1.519461 -0.215390
2.639745 1.576036 -0.206681
2.654876 1.559769 -0.201050
2.608211 1.594521 -0.215279
2.599607 1.582623 -0.233079
2.553735 1.649353 -0.223927
2.550372 1.643723 -0.231373
2.570274 1.621106 -0.228016
2.578093 1.616058 -0.223154
2.623488 1.584924 -0.212489
2.551617 1.668106 -0.215038
2.569966 1.650590 -0.207436
2.541530 1.689603 -0.212794
2.960430 1.401501 -0.092869
2.993038 1.404446 -0.070135
2.983954 1.415197 -0.076918
2.974880 1.435171 -0.084570
2.978025 1.445712 -0.082933
2.967518 1.472141 -0.089576
2.964742 1.500523 -0.089750
2.989094 1.498696 -0.075749
3.007439 1.497154 -0.063230
2.998008 -1.002821 0.022478
3.057781 -0.978052 0.038219
3.035252 -0.989973 0.038998
3.053930 -0.947327 0.016391
3.057163 -0.943423 0.016043
3.080876 -0.964345 0.039441
3.079539 -0.953952 0.032513
3.063165 -0.926826 0.011334
3.064727 -0.930708 0.013453
3.096925 -0.910216 0.022369
3.088160 -0.891078 0.013096
3.096450 -0.862565 0.011750
3.133060 -0.908009 0.042296
3.119804 -0.910014 0.035552
3.114165 -0.932243 0.039738
3.122099 -0.887515 0.030497
3.125153 -0.876313 0.029526
3.146529 -0.866610 0.038460
3.135662 -0.876867 0.035213
3.114772 -0.839106 0.018658
3.119410 -0.847499 0.022066
3.143538 -0.847973 0.034701
3.101466 -0.823309 0.009909
3.128809 -0.828910 0.024894
3.157269 -0.803023 0.038386
3.151795 -0.827072 0.036961
3.112076 -0.777315 0.011961
3.128431 -0.770656 0.020034
3.153409 -0.770746 0.033690
3.134580 -0.772174 0.023341
3.123414 -0.750730 0.016038
3.119865 -0.727282 0.012807
3.159848 -0.755536 0.036245
3.165847 -0.741004 0.038555
3.171555 -0.728618 0.040841
3.221534 -0.005884 0.048234
3.229427 0.036380 0.052590
3.229244 0.070531 0.053030
3.227057 0.045729 0.051453
3.220170 0.110232 0.049187
3.239119 0.094505 0.058993
3.244958 0.001080 0.060466
3.248772 -0.022673 0.062483
3.258148 0.031873 0.067700
3.259224 0.024496 0.068205
3.275579 0.030414 0.076938
3.255229 0.055741 0.066476
3.270021 0.048782 0.074236
3.267529 0.081172 0.073607
3.247317 0.106483 0.063835
3.215181 0.145594 0.047070
3.234173 0.125367 0.057192
3.210986 0.164148 0.044815
3.236034 0.173869 0.058107
3.212005 0.205118 0.045533
3.257335 0.129114 0.069558
3.271191 0.141757 0.076823
3.274143 0.115565 0.078150
3.274696 0.128987 0.078513
3.269945 0.179521 0.075810
3.264102 0.149353 0.073185
3.249714 0.212503 0.065521
3.269810 0.193345 0.075830
3.270907 0.249352 0.077519
3.241636 0.238019 0.061685
3.229882 0.277656 0.055863
3.238259 0.275214 0.060364
3.215955 0.296185 0.048199
3.228568 0.309750 0.055031
3.228803 0.329122 0.055080
3.238001 0.369747 0.059704
3.269683 0.284505 0.077368
3.249554 0.257181 0.066224
3.262174 0.290097 0.073361
3.253632 0.334561 0.068524
3.268539 0.390189 0.076585
3.245500 -0.723544 0.080190
3.260928 -0.695008 0.086280
3.290791 -0.701062 0.099809
3.305973 -0.716518 0.107160
3.253873 -0.677151 0.082046
3.292051 -0.658779 0.098311
3.282956 -0.688607 0.095840
3.317328 -0.710510 0.112149
3.319866 -0.678987 0.112195
3.265229 -0.634198 0.084075
3.278215 -0.631766 0.090268
3.287351 -0.642603 0.095337
3.268737 -0.614672 0.084669
3.263976 -0.590054 0.080950
3.301169 -0.588555 0.099740
3.306196 -0.606446 0.102855
3.323229 -0.625463 0.112082
3.311472 -0.593814 0.105130
3.293486 -0.555909 0.094638
3.305527 -0.562975 0.101036
3.267348 -0.517316 0.079689
3.284981 -0.529937 0.089396
3.307477 -0.539878 0.101283
3.324218 -0.574362 0.111381
3.310304 -0.541964 0.102840
3.270366 -0.481534 0.080364
3.304708 -0.483201 0.098362
3.288922 -0.501883 0.090610
3.272996 -0.455752 0.081297
3.276359 -0.475900 0.083473
3.283894 -0.479121 0.087449
3.311105 -0.495768 0.102028
3.310241 -0.464866 0.100950
3.482150 -0.234949 0.193517
3.505539 -0.202565 0.211240
3.501996 -0.225296 0.208137
3.489644 -0.168918 0.199687
3.514942 -0.201263 0.218356
3.469268 -0.165801 0.185447
3.484380 -0.145223 0.195715
3.476770 -0.112086 0.190300
3.489955 -0.122274 0.200008
3.505305 -0.107503 0.211914
3.472884 -0.077756 0.187711
3.477897 -0.076735 0.191032
3.495045 -0.076380 0.203861
3.509828 -0.079941 0.215496
3.513231 -0.058676 0.218493
3.485103 -0.042855 0.196817
3.474860 -0.020613 0.190631
3.501301 0.000801 0.211720
3.497226 -0.022920 0.207331
3.466845 0.028064 0.186309
3.472121 0.017937 0.189931
3.504633 0.035778 0.215923
3.500315 0.016226 0.211551
3.487302 0.069239 0.202570
3.474768 0.108385 0.193757
3.477945 0.102720 0.196019
3.489385 0.100271 0.204958
3.496423 0.095614 0.210671
3.474672 0.127077 0.194081
3.503860 0.142058 0.217762
3.483976 0.118520 0.200872
3.477843 0.169374 0.197553
3.486615 0.180241 0.204578
3.486989 0.161028 0.204343
2.320554 1.291863 -0.589437
2.324513 1.281756 -0.589526
2.328360 1.276748 -0.588322
2.411710 1.179805 -0.539234
2.423146 1.186797 -0.518586
2.417416 1.199426 -0.520664
2.398751 1.262952 -0.515163
2.380788 1.246244 -0.547135
2.379767 1.252712 -0.544790
2.392747 1.233610 -0.537933
2.384552 1.276297 -0.527249
2.347008 1.326089 -0.547994
2.371936 1.318380 -0.525389
2.333544 1.359552 -0.546700
2.340480 1.355794 -0.541645
2.350898 1.338318 -0.538672
2.366379 1.340166 -0.522507
2.403222 1.241931 -0.518741
2.320855 1.381750 -0.546443
2.295377 1.417902 -0.546516
2.324645 1.422458 -0.519020
2.318722 1.413093 -0.529598
2.353570 1.382270 -0.517150
2.283121 1.458914 -0.525581
2.571639 0.403231 -0.448898
2.549368 0.400267 -0.473588
2.572139 0.450743 -0.445601
2.542388 0.456069 -0.478465
2.560166 0.471879 -0.457969
2.544852 0.531969 -0.473726
2.545069 0.507734 -0.474063
2.550711 0.555703 -0.466393
2.541580 0.533412 -0.477479
2.564437 0.583766 -0.449396
2.558448 0.567820 -0.457013
2.543956 0.636043 -0.471310
2.555305 0.606750 -0.459188
2.548542 0.670432 -0.465178
2.554138 0.647051 -0.459221
2.535749 0.881001 -0.474608
2.540286 0.870397 -0.469511
2.527845 0.940555 -0.477375
2.540105 0.943645 -0.463198
2.390265 1.610591 -0.368048
2.354386 1.649220 -0.352251
2.356459 1.627997 -0.366640
2.372650 1.649092 -0.346375
2.373597 1.627554 -0.361357
2.456706 1.529508 -0.372831
2.467539 1.565263 -0.353801
2.444177 1.549337 -0.373667
2.471410 1.523242 -0.365471
2.476600 1.531066 -0.359318
2.483964 1.566503 -0.342540
2.435263 1.594467 -0.360595
2.450161 1.587785 -0.355802
2.455950 1.588738 -0.352125
2.408248 1.628023 -0.350536
2.471665 1.585528 -0.344083
2.294878 1.659219 -0.368758
2.316372 1.649480 -0.366422
2.287224 1.694493 -0.349062
2.335915 1.671676 -0.342241
2.387345 1.651231 -0.340601
2.670875 0.852592 -0.338138
2.668708 0.888106 -0.338490
2.678910 0.910786 -0.328658
2.684874 0.818682 -0.326119
2.697347 0.873538 -0.312736
2.698625 0.852923 -0.312124
2.696893 0.913845 -0.311823
2.690411 0.890443 -0.318631
2.692405 0.934124 -0.315298
2.699997 0.919863 -0.308717
2.808873 0.557745 -0.220380
2.798245 0.533296 -0.230386
2.791141 0.598578 -0.234666
2.818633 0.596038 -0.209974
2.802236 0.636455 -0.223837
2.795923 0.602885 -0.230221
2.789862 0.641688 -0.234995
2.808048 0.669505 -0.218720
2.797058 0.684373 -0.228304
2.807609 0.674440 -0.219128
2.802974 0.740006 -0.221914
2.808743 0.727346 -0.217388
2.803857 0.772162 -0.219819
2.819289 0.774353 -0.206655
2.794936 0.795230 -0.226066
2.818442 0.779120 -0.207142
2.786327 0.839148 -0.230173
2.816039 0.838151 -0.206515
2.789410 0.860958 -0.225904
2.813252 0.861280 -0.207297
2.813389 0.896377 -0.205445
2.788660 0.902760 -0.224394
2.797374 0.883027 -0.218094
2.782189 0.924676 -0.229012
2.810613 0.944300 -0.203781
2.787762 0.929366 -0.224333
2.674022 1.539144 -0.193774
2.663602 1.551172 -0.197867
2.680185 1.557039 -0.185756
2.602398 1.622326 -0.198986
2.641592 1.613441 -0.186721
2.652428 1.601833 -0.186750
2.678157 1.610720 -0.173032
2.619023 1.638095 -0.183503
2.636721 1.636907 -0.178519
2.655509 1.625397 -0.177601
2.691118 1.526054 -0.186603
2.697479 1.512544 -0.186688
2.727756 1.523702 -0.169339
2.707029 1.557448 -0.170325
2.708550 1.550226 -0.171012
2.685150 1.585160 -0.176727
2.570020 1.678562 -0.197198
2.606185 1.651901 -0.183226
2.579547 1.683546 -0.190395
2.593461 1.689327 -0.181611
2.622740 1.674487 -0.171675
2.639648 1.676868 -0.165724
2.643197 1.654413 -0.170434
2.818828 1.396832 -0.159257
2.804503 1.427222 -0.162502
2.810694 1.413114 -0.162033
2.780908 1.465762 -0.162608
2.770522 1.489508 -0.161205
2.801315 1.494268 -0.151719
2.791570 1.477770 -0.156962
2.884497 0.414950 -0.161789
2.881741 0.459621 -0.162285
2.884528 0.434140 -0.161070
2.904804 0.405414 -0.146423
2.907683 0.460002 -0.142513
2.916789 0.437863 -0.136116
2.880132 0.476183 -0.162987
2.880424 0.465108 -0.163087
2.895012 0.480515 -0.151720
2.914297 0.477586 -0.137042
2.892817 0.518814 -0.152319
2.920689 0.507921 -0.131485
2.883223 0.598911 -0.157783
2.888585 0.573561 -0.154015
2.918464 0.553232 -0.131963
2.911552 0.537119 -0.137699
2.891296 0.568066 -0.152046
2.880353 0.623164 -0.159567
2.885045 0.638956 -0.155547
3.231125 0.435772 0.055816
3.237407 0.459847 0.059239
3.228664 0.491451 0.054814
3.221810 0.528391 0.051268
3.260116 0.410580 0.071830
3.242368 0.402635 0.061945
3.265054 0.450508 0.074303
3.268192 0.430007 0.076261
3.250350 0.490633 0.066367
3.258001 0.479123 0.070301
3.247745 0.527524 0.065227
3.255982 0.515139 0.069492
3.226422 0.559530 0.054170
3.207023 0.583729 0.044083
3.226198 0.574860 0.054220
3.217974 0.630456 0.050350
3.237584 0.626523 0.060632
3.214429 0.649364 0.048701
3.220247 0.645987 0.051717
3.403827 0.137282 0.147876
3.386764 0.180209 0.138546
3.394497 0.169761 0.142988
3.402513 0.202425 0.148332
3.384810 0.234440 0.138349
3.383563 0.220393 0.137334
3.391032 0.273557 0.143507
3.383053 0.255586 0.137960
3.379437 0.312536 0.139491
3.396789 0.384650 0.148534
3.128691 -1.023318 0.202400
3.118779 -1.027554 0.204278
3.161828 -1.007182 0.189836
3.153001 -1.021879 0.213793
3.173337 -1.007542 0.194912
3.231971 -1.007160 0.204213
3.220707 -1.005201 0.196851
3.257393 -1.005169 0.196289
3.269544 -1.008204 0.216851
3.293188 -1.008831 0.216673
3.316213 -1.009792 0.217346
3.310203 -1.005185 0.201213
3.356618 -1.009732 0.209462
3.348895 -1.009656 0.210041
3.231861 -1.002286 0.184071
3.245579 -1.003987 0.189514
3.250465 -1.004148 0.189844
3.302174 -1.003079 0.191922
3.354305 -1.002625 0.194162
3.386273 -1.008987 0.202584
3.514455 -0.659863 0.221304
3.514986 -0.607705 0.220818
3.544328 -0.690397 0.245544
3.539652 -0.713726 0.242591
3.522649 -0.668158 0.227761
3.545617 -0.677958 0.246574
3.538181 -0.622396 0.239933
3.537730 -0.647060 0.239857
3.552816 -0.635071 0.252169
3.530397 -0.588135 0.233003
3.542408 -0.594115 0.243224
3.545339 -0.613648 0.245793
3.513870 -0.557453 0.218809
3.531249 -0.571292 0.233600
3.519603 -0.565578 0.223485
3.542499 -0.573954 0.243098
3.534150 -0.530877 0.235531
3.535028 -0.538478 0.236384
3.531436 -0.482300 0.232506
3.544612 -0.499121 0.244254
3.540488 -0.451670 0.240158
3.533431 -0.466908 0.234122
3.516766 -0.433692 0.219078
3.518305 -0.386644 0.219819
3.521399 -0.430766 0.223045
3.552630 -0.422603 0.250976
3.542349 -0.382273 0.241698
3.549234 -0.384315 0.247965
3.520613 -0.361908 0.221724
3.552379 -0.374814 0.250802
3.525507 -0.308840 0.226384
3.553354 -0.334714 0.252275
3.235850 -1.029757 0.273114
3.215106 -1.028612 0.259857
3.265058 -1.018523 0.257004
3.290762 -1.025554 0.286358
3.288673 -1.021312 0.269471
3.343045 -1.017764 0.262913
3.321753 -1.016953 0.259224
3.372900 -1.020196 0.265729
3.351283 -1.018553 0.282294
3.407340 -1.019683 0.285528
3.386857 -1.019751 0.277541
3.441140 -1.019208 0.285661
3.476286 -1.005414 0.260416
3.465216 -1.009582 0.265746
3.511908 -0.977553 0.263605
3.523314 -0.980382 0.285162
3.531409 -0.949645 0.271983
3.539342 -0.922048 0.271948
3.538788 -0.894142 0.263999
3.557920 -0.886803 0.281246
3.556187 -0.899322 0.284434
3.543825 -0.843952 0.255640
3.578526 -0.834885 0.287767
3.556286 -0.855368 0.269043
3.562217 -0.809977 0.268786
3.560276 -0.829597 0.268453
3.568084 -0.771029 0.271992
3.565300 -0.794632 0.270618
3.563340 -0.736794 0.264529
3.566835 -0.747635 0.268856
3.610345 -0.706320 0.331858
3.608382 -0.586017 0.332811
3.606848 -0.615106 0.324544
3.606555 -0.561270 0.330632
3.604556 -0.519937 0.328888
2.536525 1.575876 -0.300875
2.528897 1.587655 -0.298824
2.540225 1.582798 -0.293967
2.483870 1.648462 -0.303990
2.523928 1.614804 -0.286180
2.522649 1.616746 -0.286350
2.452426 1.671575 -0.304121
2.464295 1.671294 -0.299423
2.412028 1.701272 -0.296710
2.436575 1.698997 -0.289797
2.468742 1.685096 -0.287210
2.463298 1.702180 -0.275828
2.494847 1.663632 -0.282849
2.476345 1.673765 -0.290629
2.476877 1.657291 -0.302899
2.772547 0.977968 -0.234443
2.780015 0.963377 -0.228769
2.808361 0.959514 -0.203779
2.806852 0.956255 -0.205762
2.774503 0.996243 -0.231559
2.804146 0.998809 -0.201137
2.802020 0.989097 -0.204053
2.771821 1.031090 -0.234109
2.776207 1.045584 -0.230655
2.802511 1.025551 -0.201994
2.788778 1.043862 -0.218706
2.806044 1.082322 -0.204324
2.783666 1.119590 -0.224935
2.797074 1.122381 -0.212535
2.793960 1.098427 -0.216192
2.771291 1.148371 -0.233306
2.776021 1.136978 -0.230226
2.793756 1.157952 -0.213470
2.805011 1.129383 -0.204889
2.773816 1.170208 -0.229436
2.785816 1.165746 -0.219862
2.794310 1.166457 -0.212378
2.761703 1.221859 -0.233891
2.785224 1.223284 -0.214550
2.795072 1.224147 -0.206309
2.800570 1.226533 -0.201469
2.742244 1.283206 -0.233871
2.772553 1.255875 -0.219054
2.777773 1.250100 -0.216026
2.769863 1.296025 -0.209507
2.751482 1.286259 -0.226243
2.770285 1.269321 -0.217414
2.712096 1.330526 -0.235212
2.718549 1.327640 -0.232198
2.740754 1.326417 -0.218862
2.748185 1.326359 -0.214054
2.705544 1.346111 -0.233955
2.731887 1.348327 -0.216240
2.747471 1.360826 -0.205005
2.756149 1.321988 -0.210614
2.770286 1.319539 -0.201679
2.677305 1.414536 -0.231896
2.655003 1.461048 -0.232310
2.675254 1.460759 -0.216777
2.669996 1.505435 -0.205345
2.672373 1.484438 -0.210707
2.650227 1.482542 -0.228546
2.705309 1.378880 -0.223515
2.687956 1.387852 -0.232788
2.733083 1.391493 -0.205404
2.703941 1.405128 -0.217521
2.697992 1.443232 -0.207799
2.886500 0.173001 -0.164418
2.908818 0.123346 -0.148478
2.915251 0.131922 -0.143269
2.918087 0.149608 -0.140706
2.922922 0.176098 -0.136482
2.885108 0.241490 -0.164545
2.893784 0.186713 -0.158376
2.895857 0.216792 -0.156321
2.904718 0.251313 -0.149581
2.905452 0.229215 -0.148991
2.926708 0.222760 -0.133187
2.888564 0.272938 -0.162121
2.899498 0.268524 -0.153532
2.922157 0.275896 -0.135971
2.929193 0.259631 -0.130889
2.898101 0.296645 -0.154716
2.901030 0.313674 -0.152207
2.926756 0.292104 -0.132288
2.884408 0.392143 -0.162679
2.896862 0.349109 -0.154558
2.915924 0.340723 -0.139876
2.893243 0.364679 -0.156882
2.917293 0.369681 -0.137940
2.814350 1.598341 -0.126228
2.758406 1.642108 -0.130079
2.794641 1.625152 -0.123090
2.807448 1.640180 -0.109932
2.952662 1.046864 -0.094462
2.950529 1.088902 -0.095689
2.977046 0.973092 -0.078847
2.994172 0.983852 -0.067342
2.979996 0.986513 -0.076759
2.990923 1.017774 -0.069590
2.962804 1.046622 -0.087966
2.976805 1.046943 -0.078750
2.974952 1.085796 -0.079444
2.994552 1.068293 -0.066738
2.997024 1.062610 -0.065096
2.956240 1.225931 -0.087553
2.967170 1.098119 -0.084373
2.987451 1.104601 -0.070467
2.977343 1.160093 -0.075852
2.990279 1.136137 -0.067548
2.963203 1.183540 -0.085032
2.983179 1.187061 -0.071058
2.996048 1.188062 -0.062076
2.972326 1.210362 -0.077532
2.983151 1.224842 -0.069686
2.994919 1.210927 -0.062261
2.996371 1.224988 -0.060819
2.943129 1.246168 -0.093361
2.956941 1.246382 -0.085086
2.941594 1.269897 -0.091739
2.946066 1.322434 -0.091574
2.980533 1.255392 -0.068825
2.972009 1.236172 -0.076424
2.964725 1.299690 -0.076919
2.973906 1.275311 -0.071914
2.967183 1.334341 -0.080246
2.967488 1.306988 -0.075618
2.976249 1.367394 -0.078391
2.965942 1.337316 -0.081574
3.057149 -0.697801 -0.023309
3.078258 -0.701056 -0.011037
3.099485 -0.694323 0.000524
3.081737 -0.666791 -0.011002
3.081307 -0.679974 -0.010465
3.066331 -0.621190 -0.022879
3.092164 -0.639265 -0.006731
3.070309 -0.586537 -0.022705
3.074572 -0.592229 -0.019878
3.068516 -0.603601 -0.022739
3.070820 -0.576972 -0.022860
3.087267 -0.557445 -0.014084
3.075717 -0.535069 -0.021806
3.072114 -0.516102 -0.024669
3.078465 -0.457735 -0.023342
3.087713 -0.462266 -0.017861
3.111991 -0.714123 0.008031
3.103790 -0.719874 0.004024
3.102946 -0.665498 0.000740
3.107510 -0.679688 0.003930
3.105879 -0.624575 0.000051
3.123537 -0.608215 0.008733
3.102901 -0.601838 -0.002808
3.118691 -0.574487 0.004272
3.106294 -0.529819 -0.004499
3.110677 -0.500220 -0.003374
3.111149 -0.468184 -0.004229
3.116879 -0.473711 -0.000932
3.079926 -0.382583 -0.025296
3.094284 -0.310008 -0.019176
3.089083 -0.296936 -0.022672
3.114540 -0.417842 -0.003972
3.117199 -0.437489 -0.001832
3.115055 -0.401059 -0.004255
3.116604 -0.392831 -0.003615
3.374906 1.090554 0.201755
3.349399 1.083726 0.186699
3.307508 1.137761 0.186567
3.342379 1.122656 0.203506
3.343060 1.092106 0.187646
3.360963 1.123061 0.212496
3.344825 1.111673 0.198939
3.313852 1.159806 0.196802
3.340580 1.149053 0.211960
3.359496 1.135400 0.216531
3.299073 1.218962 0.186319
3.312395 1.170111 0.195921
3.336374 1.180336 0.212464
3.309155 1.197233 0.193490
3.339764 1.212963 0.213496
3.305299 1.296741 0.197224
3.309874 1.246128 0.195607
3.328065 1.245304 0.206957
3.333508 1.297672 0.215070
3.322618 1.267076 0.206384
3.291384 1.326596 0.188101
3.300286 1.366744 0.195147
