-4.434649 1.864300 5.754871
-4.411083 1.864111 5.755991
-4.382558 1.865459 5.742438
-4.385987 1.864169 5.754934
-4.373453 1.865316 5.743403
-4.360844 1.864778 5.748485
-4.336109 1.862952 5.764450
-4.303507 1.863219 5.761940
-4.288333 1.863620 5.758338
-4.291746 1.862772 5.765958
-3.980126 1.846745 5.879755
-3.955611 1.845874 5.883301
-3.885237 1.842753 5.903526
-3.844504 1.842072 5.900556
-3.841694 1.843021 5.889948
-3.926215 1.843479 5.903259
-3.923391 1.843586 5.901567
-3.909367 1.844920 5.885161
-3.823710 1.842536 5.890086
-3.821009 1.843051 5.884059
-3.786235 1.842151 5.882445
-3.785684 1.841093 5.893118
-3.734328 1.839555 5.891161
-5.794898 1.748471 5.915131
-5.794502 1.763907 5.911938
-5.245500 1.838362 6.114914
-5.242279 1.838957 6.101384
-5.213605 1.838843 6.098599
-5.193709 1.837846 6.117702
-5.163590 1.838114 6.119013
-5.151071 1.838909 6.103549
-5.101172 1.840045 6.098933
-5.097904 1.839355 6.121994
-5.083685 1.840375 6.101488
-5.049603 1.840751 6.103018
-5.038919 1.840424 6.112333
-5.013966 1.840219 6.107302
-4.971027 1.839267 6.102713
-4.931973 1.837642 6.119355
-4.898103 1.839712 6.099285
-4.879682 1.838338 6.117173
-4.856682 1.839128 6.109990
-4.846828 1.838961 6.111935
-4.829016 1.840141 6.097029
-4.839880 1.838075 6.121679
-4.799917 1.838627 6.110723
-4.773361 1.837570 6.118282
-4.763776 1.838172 6.108449
-4.736557 1.836656 6.114655
-4.710734 1.835181 6.120056
-4.705070 1.835690 6.111832
-4.697761 1.835326 6.114141
-4.678239 1.835788 6.104286
-4.625408 1.834618 6.115407
-4.605999 1.835409 6.103719
-4.596425 1.835060 6.106315
-4.975209 1.827223 6.275006
-4.927389 1.826916 6.263944
-4.897568 1.826566 6.263280
-4.893687 1.825647 6.276868
-4.863464 1.825111 6.276971
-4.832656 1.824248 6.275845
-4.816170 1.824359 6.267655
-4.805276 1.822935 6.281512
-4.772871 1.822116 6.280993
-4.759979 1.823158 6.267320
-4.742495 1.821963 6.277113
-4.709873 1.821003 6.283740
-4.695371 1.822826 6.261441
-4.684258 1.822231 6.266975
-4.662466 1.822577 6.260826
-4.657018 1.821725 6.270852
-4.599466 1.821054 6.273128
-4.592347 1.798006 6.506407
-4.542665 1.796376 6.516950
-4.534617 1.797088 6.507149
-4.524596 1.795759 6.520194
-4.511088 1.795271 6.523391
-4.495368 1.794469 6.532248
-4.480859 1.794612 6.529751
-4.435230 1.794154 6.528562
-5.244944 1.757045 6.551258
-5.227018 1.774891 6.539337
-5.206295 1.773802 6.555450
-5.200603 1.778855 6.547986
-5.197219 1.785069 6.534287
-5.180605 1.781620 6.553153
-5.149028 1.786887 6.558517
-5.138672 1.790594 6.548223
-5.136751 1.790217 6.551195
-5.115231 1.795467 6.536847
-5.094978 1.797042 6.536058
-4.156540 1.773361 6.629735
-4.133623 1.773428 6.617227
-4.122623 1.770555 6.626826
-4.108672 1.768576 6.628312
-4.065264 1.760388 6.628995
-4.090139 1.763344 6.638970
-4.076550 1.763032 6.629609
-4.071493 1.763326 6.624007
-4.039232 1.752397 6.623859
-4.043335 1.747850 6.639252
-5.091352 1.749243 6.655591
-4.483909 1.782144 6.672049
-4.373540 1.778966 6.674642
-4.362761 1.778490 6.675497
-4.327179 1.776687 6.680825
-4.309394 1.776482 6.676871
-4.268742 1.774078 6.681469
-4.242496 1.773888 6.671909
-4.193640 1.770218 6.675702
-4.184749 1.767680 6.688971
-4.158673 1.764697 6.690823
-4.088455 1.749521 6.680580
-4.685371 1.787616 4.781291
-4.714619 1.807596 4.774105
-4.749544 1.839703 4.776139
-4.715641 1.833240 4.773750
-4.726403 1.843896 4.774633
-4.682975 1.815262 4.774937
-4.655360 1.815658 4.780425
-4.661732 1.818823 4.779776
-4.697803 1.847051 4.780880
-4.117002 1.760808 4.948729
-4.076815 1.746491 4.968745
-4.092741 1.764199 4.955520
-4.067652 1.767110 4.963505
-4.071780 1.779792 4.955679
-4.027865 1.787977 4.970866
-4.034991 1.796835 4.962430
-4.021042 1.795758 4.970043
-4.026841 1.817754 4.954984
-4.003425 1.839308 4.962379
-4.016194 1.843169 4.949911
-4.013347 1.848566 4.951162
-4.008798 1.868957 4.952033
-4.142282 1.915316 4.963072
-4.113075 1.915889 4.953694
-4.124050 1.918944 4.973230
-4.096443 1.916593 4.957664
-4.077777 1.915591 4.955441
-4.066442 1.913149 4.953106
-4.057966 1.912671 4.959863
-4.041457 1.907593 4.956802
-4.033405 1.908662 4.970995
-5.309894 1.785118 5.016120
-5.297088 1.750601 5.018892
-5.294136 1.777147 5.009314
-5.276437 1.762787 5.004832
-5.307228 1.808411 5.009600
-5.328453 1.793300 5.028310
-5.307821 1.872028 5.026143
-5.284680 1.861206 5.003441
-5.290675 1.870863 5.014573
-5.287597 1.874738 5.016508
-5.465681 1.900190 5.222118
-5.444095 1.906915 5.228448
-5.427701 1.909597 5.224277
-5.425956 1.912262 5.244029
-5.405523 1.913215 5.225735
-5.410319 1.913723 5.245571
-5.379223 1.915843 5.223499
-5.385787 1.915126 5.247369
-5.357222 1.917112 5.224829
-5.333338 1.917205 5.235587
-5.314694 1.917393 5.233114
-5.296880 1.917842 5.228000
-5.287105 1.916808 5.247529
-5.262573 1.918700 5.221917
-5.244570 1.918408 5.231851
-5.239091 1.918312 5.235541
-5.209678 1.919591 5.225982
-5.156960 1.920012 5.220486
-5.133067 1.918763 5.233453
-5.124232 1.918759 5.232515
-5.103471 1.918149 5.237222
-5.088214 1.917378 5.244195
-5.085894 1.917527 5.242205
-5.075990 1.919154 5.222696
-5.048514 1.916824 5.244731
-5.045763 1.918907 5.222146
-5.028073 1.917228 5.237950
-5.010779 1.916758 5.240547
-4.993991 1.918175 5.224139
-4.977489 1.916308 5.241398
-4.959556 1.916846 5.230113
-4.944946 1.916384 5.232733
-4.914740 1.915659 5.237226
-4.895592 1.915341 5.238577
-4.890617 1.916262 5.222766
-4.792584 1.913207 5.234967
-4.767525 1.912159 5.241451
-4.764833 1.912767 5.229297
-4.737626 1.912933 5.220591
-4.684999 1.911103 5.246706
-4.681701 1.911810 5.235013
-4.662552 1.912675 5.222053
-4.625656 1.913036 5.221364
-4.623638 1.912452 5.228466
-5.773965 1.754348 5.410806
-5.746107 1.743057 5.398585
-5.742513 1.776020 5.401960
-5.728319 1.784893 5.395086
-5.744729 1.836268 5.408255
-5.728112 1.794672 5.395729
-5.722672 1.797982 5.392872
-5.713919 1.814983 5.389050
-5.735501 1.817083 5.400860
-5.728167 1.834101 5.399482
-5.904480 1.756882 5.437256
-5.895789 1.760366 5.435691
-5.874469 1.742888 5.430271
-5.862107 1.767470 5.428741
-5.862984 1.784323 5.429208
-5.821794 1.754486 5.420354
-5.817938 1.761118 5.419755
-5.845883 1.775258 5.425693
-5.834041 1.769713 5.423113
-5.811570 1.769804 5.418869
-5.803406 1.771887 5.417570
-5.792953 1.749163 5.414861
-5.780700 1.784692 5.414656
-5.886265 1.807839 5.434276
-5.872701 1.793127 5.431286
-5.875387 1.832792 5.437243
-5.873294 1.832672 5.436964
-5.864480 1.835968 5.436620
-5.838337 1.792869 5.424982
-5.844196 1.807828 5.427538
-5.838455 1.819929 5.428774
-5.837684 1.842843 5.435631
-5.820559 1.833753 5.430183
-5.773903 1.788619 5.414042
-5.798597 1.830758 5.424889
-5.789456 1.821499 5.419744
-4.589124 1.895130 5.447897
-4.568604 1.894436 5.454255
-4.559833 1.895058 5.446837
-4.542560 1.895097 5.444588
-4.518934 1.892791 5.466566
-4.490036 1.894946 5.441988
-4.461385 1.894587 5.442590
-4.408714 1.894274 5.440375
-4.401680 1.892198 5.464857
-4.340915 1.892736 5.461148
-4.309775 1.893994 5.443508
-4.287714 1.892997 5.457868
-4.277203 1.893774 5.445454
-4.247118 1.892414 5.460558
-4.241295 1.892950 5.452879
-4.213172 1.892408 5.455719
-4.206995 1.893009 5.447831
-4.185498 1.893224 5.443230
-4.170662 1.891827 5.459970
-6.005675 1.691329 5.500229
-6.007705 1.696740 5.512457
-6.004237 1.724121 5.508708
-6.001628 1.753669 5.514003
-6.000504 1.759983 5.498172
-5.993821 1.801507 5.515535
-5.996423 1.801306 5.494912
-5.988800 1.830901 5.519689
-5.973934 1.870277 5.507090
-5.984100 1.858131 5.497966
-5.956774 1.880671 5.514659
-5.934716 1.890291 5.505778
-5.907046 1.895210 5.497753
-5.897284 1.896052 5.495693
-5.880445 1.897585 5.500895
-5.811543 1.897858 5.504804
-5.785346 1.896056 5.503347
-5.773242 1.895827 5.509839
-5.764366 1.895696 5.514225
-5.748637 1.894875 5.494722
-5.735953 1.894853 5.509975
-5.710881 1.894657 5.506537
-5.710482 1.894811 5.498361
-5.685940 1.894420 5.516634
-5.672709 1.894982 5.504343
-5.661869 1.895323 5.496770
-5.583766 1.897497 5.496176
-5.588964 1.895333 5.515316
-5.571644 1.896961 5.507479
-5.564673 1.896112 5.520363
-5.878076 1.898026 5.512527
-5.855126 1.899303 5.503697
-5.853858 1.899219 5.512053
-5.534272 1.898048 5.519964
-5.533308 1.900580 5.495441
-5.512254 1.900750 5.501433
-5.502422 1.899923 5.511480
-5.474650 1.899677 5.510162
-5.405170 1.895716 5.515958
-5.397500 1.896443 5.507627
-5.385982 1.894973 5.514438
-5.361689 1.893990 5.512166
-5.355906 1.894971 5.503296
-5.321012 1.893565 5.503870
-5.311572 1.893637 5.501243
-5.293462 1.893336 5.501859
-5.260923 1.893749 5.499588
-3.713525 1.800634 5.564528
-5.555184 1.891031 5.590893
-5.550688 1.892042 5.582472
-5.463997 1.891052 5.598467
-5.442155 1.891463 5.583667
-5.410389 1.889289 5.579272
-5.384796 1.887601 5.597583
-5.355744 1.887215 5.592371
-5.338598 1.887285 5.588923
-5.328019 1.886989 5.593947
-5.291556 1.886321 5.601789
-5.288316 1.887230 5.585599
-5.252483 1.885863 5.599408
-5.226970 1.887010 5.577713
-5.195259 1.885920 5.585506
-5.167528 1.885350 5.589549
-5.125755 1.885074 5.587427
-5.080868 1.882299 5.600990
-5.065425 1.884023 5.578527
-5.053392 1.881452 5.599345
-5.040068 1.883612 5.576993
-5.014008 1.880383 5.599704
-4.990132 1.881359 5.593118
-4.976332 1.881691 5.591873
-4.934432 1.883070 5.586485
-4.913049 1.882372 5.592490
-4.888687 1.881739 5.594690
-4.866496 1.881268 5.598263
-4.843104 1.881210 5.597676
-4.834675 1.881328 5.596157
-4.805343 1.880787 5.603055
-4.782824 1.881984 5.582507
-4.737923 1.882039 5.582681
-4.731037 1.881735 5.586227
-4.715289 1.882719 5.577696
-5.940079 1.782106 5.654171
-5.952791 1.769184 5.636239
-5.927114 1.813552 5.657007
-5.930360 1.820148 5.646684
-5.932170 1.834496 5.631262
-5.924855 1.836668 5.640372
-5.917222 1.845062 5.642897
-5.898011 1.859105 5.647031
-5.860794 1.882372 5.632504
-5.833251 1.884795 5.645030
-5.776932 1.885552 5.640005
-5.764260 1.885841 5.633729
-5.757974 1.883675 5.653490
-5.735959 1.884840 5.635935
-5.729205 1.883968 5.643517
-5.634934 1.876683 5.654653
-5.606081 1.878758 5.646518
-5.598968 1.882314 5.632974
-5.502780 1.885539 5.648068
-5.489157 1.885278 5.650901
-5.475174 1.887822 5.631098
-3.648233 1.782413 5.638515
-3.637874 1.778210 5.653503
-3.676080 1.806502 5.640256
-3.715806 1.831023 5.656590
-3.691282 1.816010 5.642581
-3.663419 1.801375 5.645891
-3.664810 1.796352 5.631028
-5.227329 1.855001 5.876037
-5.236518 1.856232 5.853440
-5.212968 1.856636 5.864136
-5.199386 1.857446 5.862838
-5.190540 1.858291 5.855435
-5.157565 1.859003 5.854962
-5.136186 1.857246 5.870433
-5.097060 1.856096 5.874836
-5.047783 1.855658 5.874249
-5.044266 1.856873 5.865347
-5.030634 1.856963 5.864826
-4.999340 1.857395 5.866294
-4.947496 1.857267 5.874523
-4.913102 1.858274 5.860007
-4.914620 1.857160 5.873466
-4.879844 1.858049 5.856401
-4.879471 1.856424 5.876716
-4.838193 1.856923 5.861088
-4.814586 1.857370 5.851412
-4.795834 1.856593 5.859873
-4.761880 1.855885 5.870703
-4.743883 1.855659 5.875244
-4.726283 1.857415 5.851481
-4.711574 1.856579 5.864828
-4.681627 1.857648 5.851700
-4.680533 1.857321 5.855889
-4.641531 1.855818 5.874082
-4.623216 1.856045 5.870389
-4.613233 1.856429 5.864530
-4.603358 1.857094 5.855471
-5.788974 1.800360 5.910870
-5.779506 1.806197 5.921797
-5.778745 1.820669 5.913967
-5.760273 1.824647 5.929824
-5.731200 1.841499 5.922767
-5.698633 1.849728 5.912231
-5.691955 1.851178 5.909716
-5.666298 1.853264 5.911782
-5.661332 1.855178 5.905323
-5.635410 1.856504 5.906888
-5.610859 1.856755 5.912906
-5.567865 1.856583 5.920419
-5.555718 1.856803 5.918915
-5.538153 1.856075 5.926448
-5.492132 1.857297 5.921365
-5.475209 1.857858 5.917091
-5.469350 1.858368 5.911037
-5.451818 1.857829 5.914849
-5.440076 1.857222 5.920125
-5.433164 1.858345 5.904780
-5.412542 1.856322 5.921553
-5.381960 1.855601 5.908990
-5.345346 1.851921 5.913972
-5.316504 1.849621 5.921228
-5.295162 1.850212 5.914984
-5.248811 1.851569 5.905711
-5.201011 1.853225 5.910034
-5.178008 1.850226 5.930003
-5.176795 1.851690 5.919809
-5.169990 1.849977 5.931147
-5.127151 1.851483 5.910343
-5.109241 1.849535 5.918488
-5.089532 1.846821 5.931588
-5.079243 1.848507 5.921052
-5.053815 1.850016 5.914236
-5.044704 1.850740 5.911145
-3.927996 1.820304 6.122416
-3.891194 1.821112 6.102017
-3.883510 1.819395 6.117156
-3.881129 1.821290 6.096909
-3.829926 1.818281 6.110354
-3.822915 1.819174 6.100523
-3.763181 1.812636 6.116139
-3.752738 1.811822 6.115323
-3.750870 1.812051 6.113240
-3.741386 1.813150 6.102836
-3.740217 1.813704 6.099758
-3.929708 1.819830 6.128081
-3.918092 1.818579 6.139277
-3.897744 1.817696 6.142711
-3.860444 1.816234 6.142941
-3.843631 1.816772 6.127803
-3.805740 1.812614 6.139185
-3.802077 1.813000 6.135267
-3.781501 1.809567 6.142065
-3.756962 1.807714 6.137177
-3.723874 1.801172 6.143921
-4.915168 1.833307 6.168606
-4.918568 1.834684 6.153149
-4.884373 1.834699 6.153450
-4.878932 1.832357 6.176794
-4.866500 1.832310 6.177465
-4.848770 1.834722 6.154963
-4.788168 1.834494 6.159026
-4.781898 1.832991 6.173684
-4.736292 1.833599 6.151062
-4.749243 1.831797 6.176473
-4.720147 1.831662 6.166006
-4.700640 1.831151 6.164852
-4.673849 1.829551 6.177037
-4.633236 1.830802 6.159272
-4.612727 1.829953 6.167162
-3.711021 1.758328 6.196380
-3.698920 1.746909 6.191546
-3.692257 1.745965 6.186415
-3.720106 1.767591 6.195050
-5.486852 1.763731 6.303071
-5.480306 1.765639 6.311531
-4.371918 1.769900 6.752676
-4.327007 1.765950 6.765718
-4.278677 1.762135 6.769003
-4.268301 1.762109 6.764376
-4.229404 1.759463 6.759858
-4.244894 1.762319 6.752640
-4.199783 1.752299 6.775445
-4.200585 1.756550 6.757960
-4.175702 1.750730 6.766581
-4.166346 1.752244 6.756619
-4.150496 1.746243 6.766236
-4.096523 1.908681 4.935528
-4.062799 1.904039 4.935750
-5.022160 1.924850 5.139835
-5.028422 1.923715 5.161207
-4.979129 1.923822 5.149202
-4.967861 1.923251 5.152664
-4.921414 1.923140 5.140458
-4.912382 1.921144 5.163433
-4.865898 1.921486 5.143094
-4.857806 1.920850 5.148334
-4.840863 1.920710 5.143483
-4.834388 1.920939 5.138320
-4.766636 1.919129 5.138753
-4.761187 1.917297 5.160719
-4.756777 1.917339 5.159345
-4.706225 1.916935 5.164326
-4.700745 1.917875 5.153384
-4.680905 1.917357 5.161089
-4.655710 1.918025 5.154813
-4.629596 1.918862 5.143159
-4.646341 1.917334 5.162895
-5.451343 1.896868 5.203886
-5.445229 1.902112 5.212949
-5.414592 1.909581 5.208426
-5.409593 1.911894 5.213877
-5.335959 1.918476 5.204592
-5.322911 1.919070 5.197768
-5.267097 1.919877 5.203962
-5.253457 1.919976 5.205707
-5.243908 1.920154 5.206549
-5.198157 1.920224 5.220232
-5.190173 1.920457 5.215919
-5.183377 1.921221 5.202455
-5.152618 1.921148 5.203228
-5.124373 1.920081 5.216380
-5.117953 1.921789 5.195512
-5.112321 1.921313 5.200916
-5.094338 1.920049 5.214279
-5.462301 1.911330 5.265275
-5.451229 1.912737 5.273058
-5.421061 1.913630 5.265362
-5.350986 1.915213 5.272996
-5.331196 1.915544 5.268832
-5.308008 1.916425 5.252054
-5.293875 1.916536 5.251467
-5.258962 1.916964 5.249897
-5.276951 1.915368 5.272649
-5.230026 1.916641 5.262646
-5.154813 1.917668 5.250861
-5.147817 1.917268 5.254906
-5.141055 1.917744 5.248161
-5.125507 1.915980 5.267532
-5.089167 1.916312 5.256984
-5.078466 1.916575 5.251916
-5.042037 1.916115 5.251831
-5.008974 1.915466 5.254376
-4.996803 1.915327 5.254674
-4.960095 1.913831 5.270607
-4.926396 1.913877 5.268166
-4.899614 1.913069 5.273335
-4.899289 1.913688 5.264105
-4.892948 1.914162 5.255343
-4.867727 1.912345 5.272161
-4.844219 1.912501 5.262691
-4.839482 1.913274 5.251347
-4.814007 1.912664 5.252595
-4.765960 1.911654 5.249487
-4.778917 1.910386 5.274751
-4.718979 1.909977 5.269560
-4.706080 1.909775 5.271620
-4.694904 1.910435 5.258432
-4.691474 1.910517 5.256563
-4.659169 1.909086 5.270706
-4.659770 1.910807 5.248468
-4.644114 1.908941 5.271224
-4.627404 1.910038 5.257235
-4.621068 1.908997 5.270215
-4.143921 1.893160 5.442881
-4.114820 1.893009 5.444645
-4.085278 1.892009 5.453744
-4.065259 1.890639 5.465544
-4.029826 1.890331 5.458618
-4.021742 1.889984 5.460395
-4.016193 1.889702 5.461338
-4.007546 1.891232 5.442375
-3.988153 1.888892 5.458133
-3.970211 1.887179 5.464799
-3.947591 1.887175 5.447581
-3.733119 1.758370 5.446587
-3.725793 1.745127 5.456371
-3.734162 1.770143 5.452426
-3.935416 1.886465 5.444842
-3.912718 1.884494 5.444092
-3.907228 1.881623 5.464426
-3.862084 1.875311 5.464612
-3.852829 1.875897 5.443851
-3.835299 1.871213 5.444790
-3.744031 1.791496 5.446759
-3.763415 1.822756 5.443819
-3.807824 1.859695 5.452892
-3.785867 1.845842 5.451362
-3.920011 1.866727 5.610821
-3.932182 1.866734 5.623958
-3.901642 1.865496 5.604897
-3.890546 1.863147 5.629632
-3.862213 1.860885 5.609108
-3.841258 1.857819 5.616282
-3.762604 1.839881 5.617654
-3.753118 1.836693 5.618738
-3.735869 1.827151 5.609512
-3.729879 1.828087 5.624116
-3.818951 1.854230 5.618362
-5.917938 1.759940 5.709938
-5.923995 1.778023 5.687228
-5.912463 1.777090 5.711021
-5.910978 1.798224 5.697604
-4.688433 1.863357 5.788852
-4.655764 1.864371 5.775821
-4.628526 1.864388 5.772532
-4.619341 1.863723 5.779392
-4.613434 1.864375 5.771727
-5.848649 1.763697 5.818496
-5.849117 1.820786 5.802488
-5.790903 1.857700 5.806281
-5.782814 1.860633 5.801249
-5.764537 1.863416 5.803219
-5.739695 1.865996 5.803009
-5.728154 1.866040 5.807753
-5.699870 1.866203 5.817585
-5.690971 1.867753 5.807336
-5.679881 1.867853 5.810232
-5.664409 1.868978 5.802907
-5.640598 1.868265 5.817913
-5.657139 1.869695 5.797266
-5.617407 1.868501 5.819407
-5.581505 1.869978 5.805557
-5.612288 1.870858 5.795924
-5.585553 1.870694 5.798631
-5.580463 1.870713 5.798406
-5.561028 1.869109 5.811179
-5.509592 1.869569 5.796904
-5.492198 1.867934 5.808394
-5.452168 1.866673 5.802098
-5.442731 1.866653 5.795517
-3.720209 1.840665 5.868009
-3.708125 1.839915 5.868305
-3.678101 1.838456 5.859042
-3.675024 1.838056 5.866749
-3.660026 1.837147 5.870681
-3.647542 1.836706 5.860750
-3.619815 1.834952 5.852767
-3.614527 1.834625 5.875336
-3.539516 1.823222 5.855032
-3.504422 1.816270 5.871865
-3.452702 1.746259 5.850257
-3.469448 1.785658 5.862788
-3.467654 1.770252 5.850533
-3.460800 1.777574 5.867434
-3.454482 1.763284 5.861263
-3.481318 1.801396 5.869649
-3.483079 1.798587 5.862452
-5.812956 1.747628 5.891627
-5.806112 1.756502 5.899466
-5.816124 1.770201 5.879525
-5.799290 1.784042 5.902592
-4.909830 1.846130 5.994337
-4.862069 1.846050 6.004608
-4.851052 1.845702 6.011586
-4.828214 1.847256 5.994780
-4.786651 1.847702 5.988775
-4.772005 1.847781 5.987331
-4.721689 1.846851 5.995356
-4.668129 1.844395 6.013525
-4.613131 1.843886 6.012707
-5.644975 1.767394 6.114068
-5.640704 1.773768 6.117755
-5.644943 1.786857 6.108139
-5.637610 1.797948 6.107092
-5.609739 1.815378 6.116630
-5.631299 1.801859 6.108691
-5.620045 1.817427 6.099744
-5.583935 1.822882 6.122691
-5.600408 1.818391 6.118356
-5.578432 1.825668 6.117443
-5.554705 1.833496 6.096551
-5.550154 1.832551 6.102849
-5.547488 1.833579 6.098318
-5.489891 1.830166 6.114450
-5.481160 1.830946 6.107509
-5.465649 1.831758 6.103171
-5.409480 1.834492 6.121723
-5.338899 1.838271 6.120387
-5.346142 1.838984 6.110982
-5.319173 1.839059 6.110223
-5.306251 1.839666 6.102126
-5.281431 1.839274 6.103703
-5.275179 1.839247 6.103176
-5.541379 1.756936 6.216362
-5.534401 1.775214 6.216444
-5.528855 1.785916 6.216813
-5.518113 1.781143 6.230456
-5.524953 1.795628 6.210769
-5.454853 1.815688 6.226911
-5.417008 1.821746 6.220773
-5.397565 1.823685 6.223935
-5.393716 1.826379 6.205153
-5.362067 1.828868 6.207255
-5.357457 1.826662 6.229339
-5.341280 1.828258 6.222820
-5.322973 1.828437 6.227229
-5.316585 1.829363 6.220385
-5.284847 1.831560 6.205363
-5.272676 1.829199 6.229043
-5.252483 1.831751 6.207479
-5.229231 1.829873 6.228854
-5.171988 1.832250 6.209429
-5.152632 1.832493 6.211042
-5.159105 1.831362 6.222936
-5.131266 1.831271 6.230747
-5.113060 1.833737 6.207523
-5.092348 1.832314 6.228272
-5.074258 1.832993 6.223191
-5.043870 1.834430 6.208205
-5.044516 1.832529 6.228134
-4.480138 1.823630 6.223283
-4.360391 1.822337 6.208321
-4.365214 1.820822 6.226797
-4.335739 1.820528 6.226431
-4.323082 1.820844 6.220774
-4.304788 1.820330 6.224139
-4.274784 1.820871 6.213447
-4.255286 1.820540 6.213672
-4.220638 1.819998 6.212182
-4.202795 1.818260 6.229338
-4.169284 1.819567 6.206109
-4.176508 1.818006 6.226322
-4.104936 1.815109 6.227167
-4.134674 1.817199 6.218788
-4.091553 1.815922 6.206412
-4.066175 1.813544 6.227466
-4.038403 1.812840 6.226154
-4.033245 1.814181 6.208417
-4.005239 1.811917 6.224711
-3.973571 1.811598 6.217241
-3.947119 1.808932 6.231705
-3.955015 1.811038 6.216157
-5.015364 1.831599 6.233721
-5.019571 1.830300 6.248115
-4.988422 1.829341 6.252532
-4.922224 1.828265 6.241135
-4.885814 1.826740 6.257629
-4.878304 1.827598 6.239045
-4.859169 1.826968 6.244157
-4.845873 1.827262 6.236588
-4.826576 1.825288 6.259675
-4.820558 1.826298 6.244262
-4.788857 1.826731 6.234999
-4.782025 1.825547 6.246271
-4.745628 1.826023 6.235539
-4.720484 1.825134 6.239499
-4.662490 1.824780 6.234575
-4.653871 1.824253 6.239635
-4.639282 1.823171 6.251257
-4.614116 1.824433 6.233012
-4.619475 1.822401 6.259268
-5.184062 1.818479 6.353432
-5.179577 1.818578 6.353236
-5.168828 1.816994 6.368690
-5.137328 1.819169 6.353684
-5.015477 1.819310 6.364341
-5.005860 1.819154 6.365848
-4.991049 1.819921 6.357462
-4.961568 1.819063 6.365353
-4.938013 1.818860 6.364207
-4.938522 1.820106 6.350984
-4.897553 1.818763 6.357763
-4.885074 1.818579 6.356378
-4.857061 1.818814 6.346612
-4.842765 1.817970 6.350022
-4.831978 1.816416 6.361404
-4.822341 1.816963 6.352987
-4.797517 1.815024 6.364460
-4.776712 1.815392 6.356085
-4.801548 1.817237 6.343959
-4.784973 1.816857 6.343163
-4.723668 1.815861 6.343331
-4.707503 1.813588 6.365313
-4.698379 1.813863 6.361974
-4.676744 1.814705 6.352972
-4.650795 1.814006 6.357319
-4.638058 1.815107 6.344295
-4.621078 1.813853 6.353340
-4.611465 1.814786 6.342455
-5.363638 1.750320 6.444310
-5.320789 1.787635 6.442378
-5.308907 1.793875 6.435530
-5.301956 1.794096 6.440854
-5.266867 1.804374 6.425435
-5.245901 1.803854 6.440051
-5.224957 1.804263 6.446697
-5.207808 1.808697 6.424747
-5.186106 1.806586 6.442043
-5.171247 1.806650 6.444051
-5.164312 1.806474 6.446368
-5.162123 1.809511 6.426058
-5.134443 1.807347 6.445928
-5.098818 1.810689 6.430116
-5.072183 1.811145 6.433511
-5.036326 1.811857 6.436020
-5.031497 1.810467 6.449509
-4.988909 1.811486 6.443474
-4.997931 1.813294 6.425893
-4.976751 1.810929 6.448516
-4.954563 1.811869 6.436969
-4.932639 1.812086 6.431168
-4.906345 1.812178 6.425083
-4.896067 1.810258 6.441440
-4.870387 1.810613 6.429150
-4.838419 1.809722 6.427862
-4.953718 1.804794 6.509314
-4.941544 1.803700 6.519595
-4.905409 1.803613 6.513806
-4.875160 1.802633 6.514023
-4.862884 1.801111 6.528021
-4.845350 1.800758 6.525766
-4.821842 1.800502 6.520893
-4.740969 1.799908 6.511047
-4.734981 1.798027 6.530776
-4.723376 1.798687 6.521701
-4.713857 1.797920 6.529121
-4.676261 1.797217 6.531835
-4.650721 1.798774 6.509804
-4.637803 1.798346 6.512702
-4.608408 1.797200 6.520505
-4.087647 1.769230 6.608347
-4.064704 1.769699 6.588135
-4.029591 1.761024 6.589015
-4.015663 1.743690 6.610628
-4.045479 1.762458 6.602964
-4.258293 1.768606 6.718621
-4.264874 1.771621 6.699233
-4.216331 1.767791 6.705248
-4.187341 1.763402 6.716701
-4.171478 1.761259 6.718625
-4.151505 1.760949 6.705765
-4.114476 1.754632 6.698601
-4.100210 1.749167 6.702014
-4.089047 1.742959 6.702090
-4.771697 1.760352 4.802948
-4.761915 1.763834 4.798174
-4.711163 1.756291 4.791767
-4.753924 1.766055 4.795050
-4.732646 1.762023 4.792076
-4.730133 1.763427 4.791367
-4.682071 1.745728 4.796671
-4.683297 1.762355 4.790525
-4.664179 1.766554 4.790757
-4.650699 1.775944 4.789367
-4.275161 1.858037 4.880013
-4.308424 1.892637 4.883280
-4.274279 1.871102 4.891260
-4.234068 1.790519 4.881532
-4.261540 1.841116 4.878175
-4.255139 1.828005 4.878710
-4.235111 1.819999 4.891088
-4.254605 1.849799 4.890321
-4.584796 1.913565 4.879095
-4.577312 1.914315 4.877678
-4.550075 1.923273 4.883585
-4.532366 1.923802 4.867908
-4.525104 1.926638 4.871036
-4.503151 1.935724 4.865948
-4.501229 1.935400 4.889636
-4.480949 1.940164 4.879870
-4.454318 1.937572 4.883671
-4.447311 1.935715 4.891430
-4.384907 1.922653 4.866925
-4.429360 1.933139 4.876288
-4.420851 1.931648 4.888165
-4.374977 1.924175 4.876420
-4.342304 1.916983 4.884381
-4.322171 1.901885 4.878446
-4.249524 1.917829 5.006923
-4.247140 1.918188 5.027771
-4.188640 1.918234 5.028549
-4.190871 1.917541 5.018342
-4.172470 1.917961 5.002869
-4.178957 1.918682 5.026398
-4.003486 1.758770 5.007629
-4.013594 1.748266 5.006964
-3.986188 1.757509 5.026570
-3.970950 1.788134 5.019878
-3.980028 1.783413 5.012247
-3.964726 1.809266 5.012492
-3.956924 1.839534 5.014112
-3.961856 1.821844 5.009282
-3.994816 1.896346 5.003423
-3.961228 1.868209 5.019226
-3.957998 1.862100 5.021245
-3.974118 1.873236 5.002720
-4.131390 1.920299 5.005032
-4.119697 1.920047 5.005253
-4.118991 1.919692 5.022812
-4.091719 1.919291 5.004102
-4.069502 1.918205 5.010503
-4.040576 1.914834 5.015926
-4.029623 1.913305 5.024431
-4.590324 1.922832 5.087859
-4.585114 1.921763 5.103029
-4.546263 1.922360 5.100503
-4.475683 1.922007 5.099358
-4.479072 1.921456 5.109037
-4.457198 1.921368 5.106615
-4.435323 1.921842 5.098642
-4.379070 1.922248 5.083624
-4.375940 1.921268 5.100435
-4.352839 1.921427 5.092205
-4.326463 1.920496 5.093884
-4.311236 1.919791 5.102466
-4.281350 1.919183 5.102909
-4.277736 1.919567 5.088711
-4.256098 1.919015 5.098213
-4.240318 1.919109 5.090662
-4.219446 1.918018 5.110944
-4.195471 1.917642 5.105182
-5.645791 1.777775 5.319897
-5.639618 1.783096 5.315229
-5.633394 1.812872 5.316027
-5.628697 1.827318 5.315457
-5.612996 1.848088 5.306333
-5.609133 1.855578 5.307715
-5.598611 1.867234 5.306829
-5.590098 1.881273 5.311721
-5.591707 1.884921 5.319821
-5.556223 1.903325 5.316516
-5.545672 1.906967 5.317913
-4.587154 1.890974 5.490333
-4.545485 1.891528 5.482279
-4.535446 1.892501 5.471050
-4.499913 1.892098 5.472095
-4.493246 1.891512 5.477622
-4.450315 1.891851 5.471698
-4.442012 1.891228 5.478049
-4.405493 1.891950 5.467832
-4.386333 1.889845 5.493737
-4.354873 1.891118 5.481388
-4.343410 1.890558 5.490207
-4.328425 1.892124 5.470690
-4.308853 1.891180 5.485373
-4.298743 1.891025 5.488040
-4.268217 1.892071 5.469894
-4.237315 1.890027 5.491128
-4.231101 1.891121 5.475120
-4.205972 1.891351 5.468021
-3.716691 1.814928 5.599961
-3.691555 1.793647 5.589763
-3.664747 1.788393 5.618182
-3.658470 1.772016 5.608045
-3.692094 1.811024 5.627712
-3.676776 1.796368 5.615692
-5.901589 1.770318 5.735087
-5.907118 1.771239 5.724381
-5.896739 1.806088 5.716677
-5.893500 1.807027 5.722019
-5.865332 1.836266 5.737610
-5.862250 1.843974 5.729961
-5.826280 1.865241 5.729202
-5.776448 1.875701 5.713559
-5.758307 1.873299 5.738951
-5.744484 1.876283 5.715151
-5.737700 1.875209 5.724669
-5.723963 1.874254 5.736156
-5.671616 1.873031 5.734918
-5.684846 1.874483 5.717330
-5.661210 1.874097 5.718069
-5.638693 1.873372 5.732502
-5.624303 1.873763 5.732197
-5.600135 1.874390 5.724250
-5.580008 1.875150 5.716583
-5.553180 1.876275 5.720755
-5.551584 1.876105 5.725280
-5.500683 1.875909 5.736251
-5.477409 1.876587 5.727054
-5.894259 1.770644 5.747789
-5.878990 1.787519 5.767168
-5.877108 1.795166 5.766578
-5.878660 1.802642 5.757285
-5.858740 1.837597 5.751784
-5.879778 1.817315 5.740364
-5.835297 1.850695 5.767446
-5.833734 1.856181 5.747799
-5.844507 1.852141 5.740582
-5.813170 1.861219 5.761836
-5.809206 1.866088 5.741888
-5.794028 1.867600 5.751725
-5.757594 1.871831 5.750808
-5.739274 1.873648 5.743905
-5.711680 1.872952 5.752315
-5.697294 1.872211 5.760327
-5.674524 1.871856 5.759022
-5.643013 1.872710 5.742300
-5.615202 1.873281 5.748723
-5.597742 1.873565 5.755753
-5.558733 1.874969 5.743611
-5.557580 1.873484 5.765362
-5.552552 1.873805 5.761326
-5.535131 1.874606 5.752063
-5.523247 1.874377 5.753065
-5.522278 1.875594 5.740152
-5.492025 1.873780 5.754731
-5.414137 1.863541 5.802508
-5.378655 1.860374 5.814886
-5.367109 1.859915 5.811305
-5.332074 1.858157 5.816271
-5.299732 1.859208 5.802902
-5.284374 1.858641 5.812646
-5.271827 1.861224 5.795923
-5.227561 1.863350 5.796700
-5.193523 1.861571 5.820336
-5.175703 1.864786 5.800552
-5.165487 1.865533 5.796769
-5.151105 1.864567 5.807044
-5.134611 1.863320 5.818890
-5.129323 1.865853 5.797534
-5.083229 1.863268 5.817106
-5.067271 1.863518 5.813513
-5.048992 1.863798 5.809401
-5.034834 1.863453 5.811624
-5.006985 1.862475 5.819145
-5.005003 1.863687 5.807864
-4.975138 1.863703 5.807409
-4.953036 1.864356 5.800466
-4.939720 1.864029 5.802401
-4.933266 1.862574 5.816420
-4.896590 1.861835 5.819235
-4.887289 1.862177 5.813957
-4.862702 1.863030 5.801852
-4.863170 1.861443 5.816841
-4.817514 1.860152 5.820555
-4.802299 1.861200 5.806182
-4.775018 1.861562 5.799768
-4.770856 1.859958 5.817340
-4.734255 1.859949 5.820716
-4.715255 1.860429 5.818418
-4.718647 1.862216 5.798924
-4.588041 1.850586 5.931144
-4.559906 1.850478 5.923816
-4.546727 1.850415 5.920928
-4.523091 1.850240 5.919430
-4.491477 1.850227 5.917707
-4.478956 1.851052 5.908451
-4.439281 1.848795 5.927147
-4.444825 1.850776 5.908428
-4.429963 1.849095 5.922496
-4.414859 1.849936 5.909213
-4.387074 1.847352 5.921175
-4.374335 1.848407 5.906596
-4.311184 1.844821 5.928617
-4.308192 1.847198 5.906472
-4.278658 1.844992 5.929461
-4.281330 1.846491 5.914392
-4.251293 1.846010 5.922733
-4.227932 1.846461 5.919451
-4.196193 1.845858 5.923680
-4.205205 1.847396 5.906589
-4.178464 1.846622 5.911058
-4.158354 1.845055 5.924630
-4.147909 1.845107 5.921529
-4.139348 1.846525 5.905054
-4.118258 1.844808 5.918253
-4.099742 1.843609 5.927104
-4.089473 1.844774 5.914473
-4.062595 1.844648 5.911908
-4.044591 1.842620 5.930518
-4.021431 1.842284 5.931321
-3.971112 1.843232 5.913838
-3.983164 1.842025 5.928500
-3.949156 1.842706 5.915416
-5.757547 1.759265 5.948462
-5.772591 1.776006 5.933969
-5.754848 1.780746 5.948905
-5.747745 1.812072 5.947148
-5.761950 1.802656 5.939312
-5.757698 1.816470 5.939616
-5.742119 1.824919 5.941520
-5.722319 1.830477 5.942530
-5.721505 1.820603 5.954339
-5.716346 1.829504 5.946597
-5.703324 1.839249 5.938164
-4.832507 1.847980 5.984400
-4.772081 1.848377 5.979493
-4.733142 1.849755 5.959346
-4.731543 1.847933 5.983248
-4.714105 1.848357 5.974849
-4.704638 1.849241 5.962341
-4.666631 1.847897 5.974319
-4.653041 1.847810 5.973999
-4.641513 1.847020 5.981429
-4.620884 1.846427 5.985241
-4.601841 1.848357 5.959231
-3.612585 1.817374 6.033682
-3.573807 1.815010 6.027319
-3.556012 1.815023 6.018319
-3.544467 1.812613 6.022491
-3.537985 1.811441 6.023702
-3.506657 1.801143 6.024291
-3.475731 1.765060 6.038893
-3.469531 1.779087 6.021651
-3.497401 1.798442 6.022574
-3.570627 1.757691 6.107008
-3.591568 1.770922 6.110619
-3.581884 1.784643 6.097114
-3.555210 1.755128 6.099702
-3.718220 1.809280 6.112423
-3.698668 1.809302 6.103629
-3.662547 1.802252 6.109657
-3.632174 1.797186 6.105145
-3.610889 1.797235 6.097366
-3.588388 1.789997 6.095891
-4.587008 1.822722 6.250252
-4.570560 1.823381 6.239011
-4.557658 1.822070 6.251827
-4.546145 1.821949 6.250659
-4.517587 1.821434 6.252133
-4.956130 1.825839 6.287948
-4.957881 1.823875 6.311843
-4.928568 1.824624 6.297457
-4.903426 1.824159 6.299396
-4.878991 1.822549 6.314385
-4.853364 1.822200 6.310483
-4.836390 1.821961 6.306519
-4.814700 1.821105 6.306728
-4.812783 1.822708 6.287354
-4.804727 1.820941 6.305006
-4.775205 1.819344 6.313791
-4.771611 1.820365 6.300796
-4.741047 1.819185 6.307794
-4.748805 1.820168 6.297764
-4.729863 1.820740 6.288862
-4.703109 1.819123 6.305588
-4.660926 1.820345 6.288860
-4.637462 1.818699 6.306234
-4.633234 1.820144 6.288791
-4.602528 1.817547 6.313241
-4.597600 1.819872 6.287236
-5.319054 1.758821 6.486171
-5.303338 1.758142 6.504189
-5.306609 1.765384 6.492828
-5.286375 1.776044 6.497351
-5.273382 1.781075 6.497536
-5.252411 1.791389 6.488464
-5.237867 1.793077 6.488118
-5.206242 1.792280 6.505699
-5.203330 1.796565 6.489220
-5.192642 1.794477 6.501980
-5.169491 1.797168 6.497905
-5.151884 1.800252 6.488682
-5.104916 1.801092 6.504169
-5.086036 1.803991 6.488903
-5.047001 1.803777 6.504629
-5.029178 1.804466 6.504518
-5.002881 1.805294 6.503268
-4.985126 1.807342 6.485349
-4.563678 1.798111 6.500361
-4.541125 1.798088 6.495599
-4.528173 1.797077 6.505878
-4.535706 1.799154 6.480073
-4.499463 1.797227 6.499368
-4.474340 1.798449 6.480780
-5.175374 1.753227 6.609417
-5.184925 1.749174 6.603891
-5.170690 1.770902 6.591346
-5.154454 1.762593 6.613944
-5.133457 1.779272 6.592711
-5.092410 1.785024 6.593785
-5.081997 1.785270 6.597284
-5.061907 1.783940 6.614048
-5.038554 1.789628 6.602469
-5.041945 1.792192 6.588725
-4.997155 1.792242 6.602841
-4.984376 1.791521 6.609363
-4.975042 1.794298 6.594963
-4.944450 1.792849 6.606515
-4.931890 1.794703 6.594866
-4.916430 1.795224 6.591393
-4.885288 1.795228 6.589373
-4.875448 1.793427 6.601866
-4.867499 1.792840 6.605982
-4.849493 1.791477 6.615010
-4.790243 1.771403 6.765074
-4.781053 1.771677 6.765523
-4.764376 1.772734 6.761981
-4.755162 1.771195 6.773279
-4.743495 1.772372 6.767707
-4.731367 1.774696 6.752567
-4.701480 1.772823 6.765822
-4.669765 1.772005 6.770182
-4.632417 1.770787 6.776816
-4.634793 1.772745 6.761673
-4.620655 1.771207 6.772875
-5.063751 1.802347 4.890837
-5.052775 1.789002 4.890124
-5.048190 1.849994 4.889773
-4.992191 1.742521 4.888489
-4.981496 1.757944 4.882725
-5.005546 1.744351 4.891239
-5.020219 1.768639 4.889102
-5.021452 1.775289 4.887599
-5.005502 1.783512 4.882695
-4.995713 1.782796 4.881121
-4.968081 1.765124 4.878494
-4.945084 1.772393 4.872655
-4.927165 1.786409 4.868028
-4.919321 1.758908 4.865412
-4.923604 1.781511 4.867125
-5.007883 1.796875 4.881524
-4.985564 1.815758 4.878543
-5.023106 1.826142 4.882183
-5.015794 1.822990 4.881380
-4.971146 1.789548 4.876912
-4.959975 1.815143 4.876300
-4.942302 1.803974 4.872675
-4.951840 1.835707 4.878261
-4.950392 1.829535 4.877309
-4.944408 1.842528 4.878714
-4.991907 1.851749 4.880895
-4.990827 1.863721 4.882154
-5.032537 1.874677 4.890674
-5.001078 1.888895 4.889719
-4.944006 1.855454 4.881412
-4.955623 1.882773 4.889657
-4.940904 1.871508 4.885739
-4.915715 1.789863 4.865182
-4.896154 1.825819 4.866831
-4.922770 1.848086 4.878945
-4.890301 1.854455 4.877190
-4.889924 1.846336 4.872604
-4.915952 1.874049 4.887682
-4.897784 1.880564 4.891082
-4.874580 1.870724 4.882997
-4.859716 1.861391 4.872020
-4.862047 1.874799 4.883982
-4.856946 1.879529 4.887387
-4.832896 1.872154 4.873685
-4.579792 1.927439 4.949522
-4.581839 1.927697 4.971014
-4.549440 1.929460 4.946960
-4.553344 1.929003 4.965357
-4.516757 1.931120 4.947609
-4.508563 1.931023 4.955770
-4.471843 1.930453 4.972610
-4.455710 1.930616 4.967593
-4.435025 1.930107 4.971985
-4.429390 1.930869 4.956471
-4.416309 1.929595 4.973313
-4.380269 1.928257 4.958817
-4.336877 1.921528 4.948056
-4.308856 1.917385 4.958803
-4.296832 1.916440 4.960807
-4.292749 1.914403 4.954153
-4.273608 1.915477 4.967660
-4.205339 1.905090 4.953929
-4.189625 1.905374 4.954258
-4.164226 1.907427 4.949560
-4.158759 1.908768 4.950929
-4.588781 1.927458 4.975110
-4.588993 1.927270 4.997361
-4.565371 1.928246 4.975821
-4.520152 1.929823 4.976683
-4.536406 1.928711 5.000950
-4.505672 1.929983 4.980139
-4.492325 1.929559 4.993421
-4.445086 1.928713 5.000074
-4.447216 1.929508 4.985033
-4.317492 1.922653 4.994153
-4.302871 1.921149 4.989670
-4.275416 1.917653 4.974631
-4.268426 1.918134 4.986854
-4.246568 1.917099 4.997033
-4.190375 1.915448 4.992613
-4.183349 1.914686 4.984936
-4.177883 1.917305 5.000661
-3.947943 1.895397 5.085707
-3.922254 1.780961 5.100636
-3.928571 1.773099 5.097208
-3.914625 1.792227 5.104833
-3.920417 1.828782 5.083916
-3.914222 1.852134 5.100739
-3.925896 1.879313 5.103172
-4.152933 1.917369 5.096075
-4.125826 1.917642 5.085983
-4.083434 1.916523 5.103848
-4.057674 1.915853 5.101733
-4.025398 1.914783 5.087755
-4.021699 1.914766 5.106651
-4.017758 1.914325 5.092652
-3.998637 1.913027 5.109574
-3.973593 1.906972 5.086627
-3.943350 1.899400 5.108270
-5.506434 1.746485 5.186685
-5.500735 1.747097 5.181971
-5.493669 1.750439 5.176156
-5.513094 1.779100 5.192413
-5.496361 1.782480 5.178495
-5.503980 1.795177 5.185483
-5.508021 1.806700 5.189840
-5.496105 1.789537 5.178448
-5.507472 1.817544 5.190584
-5.491864 1.838357 5.183555
-5.478147 1.818758 5.167550
-4.921194 1.895568 5.447051
-4.888663 1.895084 5.449929
-4.876533 1.893756 5.462958
-4.853262 1.896069 5.441802
-4.770460 1.895769 5.445191
-4.736861 1.894121 5.463315
-4.744106 1.895139 5.452235
-4.730781 1.894940 5.454433
-4.722088 1.895798 5.445377
-4.695709 1.894332 5.461696
-4.692459 1.895271 5.450676
-4.673493 1.894776 5.454895
-4.656633 1.895443 5.446137
-4.644060 1.893621 5.463727
-4.596558 1.895842 5.441118
-5.026536 1.898210 5.447800
-4.999524 1.898416 5.441517
-4.583170 1.870187 5.699772
-4.556585 1.869527 5.703393
-4.555545 1.869998 5.697615
-4.579285 1.871268 5.686468
-4.535292 1.870185 5.692784
-4.448682 1.869559 5.706558
-4.478650 1.870687 5.688941
-4.416447 1.869072 5.712044
-4.380966 1.870594 5.696144
-4.349504 1.869917 5.703095
-4.372758 1.871492 5.687270
-4.335102 1.870827 5.696111
-4.269513 1.869749 5.704248
-4.243465 1.869790 5.699767
-4.219038 1.867995 5.710838
-4.196856 1.869493 5.696135
-4.176658 1.869010 5.698729
-3.501964 1.752861 5.802576
-3.503015 1.765207 5.808183
-3.511103 1.767627 5.801980
-3.700816 1.841509 5.806586
-3.697056 1.837960 5.894634
-3.668244 1.837442 5.877026
-3.659038 1.836246 5.892645
-3.628030 1.834710 5.892419
-3.626441 1.834564 5.893936
-3.558528 1.829197 5.896022
-3.536548 1.826117 5.896005
-3.422166 1.754952 5.897187
-3.413963 1.743702 5.897461
-3.444493 1.781302 5.897954
-3.484454 1.808523 5.891343
-3.481208 1.807932 5.894532
-3.462533 1.798676 5.901872
-3.470140 1.796598 5.878224
-5.581012 1.796773 6.173787
-5.573014 1.815042 6.152521
-5.576015 1.797039 6.176745
-5.526969 1.822907 6.150753
-5.515822 1.816794 6.174899
-5.507036 1.818696 6.171736
-5.482992 1.823020 6.162626
-5.453817 1.825777 6.157517
-5.423397 1.827047 6.173817
-5.417982 1.829116 6.161877
-5.405182 1.830441 6.161709
-5.390956 1.832174 6.158186
-5.363034 1.834241 6.155849
-5.349276 1.832724 6.176830
-5.342219 1.834824 6.158405
-5.296768 1.834297 6.175725
-5.280312 1.835518 6.163257
-5.266812 1.835896 6.159308
-5.232328 1.834927 6.170591
-5.215898 1.834656 6.173649
-5.181081 1.834770 6.174689
-5.148096 1.835422 6.172899
-5.144127 1.835393 6.174475
-5.140162 1.835783 6.169617
-5.120042 1.836475 6.166358
-5.074063 1.838350 6.155353
-5.067374 1.838011 6.162685
-5.059005 1.838313 6.160129
-5.046333 1.838476 6.157606
-5.023139 1.837257 6.171258
-5.005005 1.836779 6.170661
-4.979964 1.835927 6.165022
-4.962549 1.835402 6.160380
-4.970459 1.834645 6.176507
-4.940959 1.834401 6.161810
-3.695399 1.783849 6.159681
-3.676842 1.771243 6.158284
-3.718886 1.793124 6.160886
-4.266730 1.823303 6.183526
-4.243649 1.821352 6.201411
-4.239821 1.822993 6.180964
-4.213340 1.821803 6.189510
-4.174102 1.821853 6.179053
-4.168937 1.820692 6.191657
-4.156657 1.820289 6.192342
-4.123171 1.819213 6.185545
-4.123865 1.818137 6.199346
-4.052742 1.815540 6.195988
-4.102179 1.818111 6.184193
-4.030494 1.814452 6.204500
-4.022624 1.815112 6.194166
-4.018090 1.815408 6.189260
-4.004148 1.815139 6.189113
-3.991905 1.815222 6.185631
-3.752668 1.785487 6.198182
-3.736208 1.785646 6.186244
-3.740653 1.777656 6.199864
-3.913732 1.813644 6.186732
-3.905927 1.812222 6.195837
-3.880125 1.811488 6.192722
-3.881100 1.813508 6.178759
-3.832073 1.804906 6.204108
-3.840081 1.807969 6.191129
-3.818852 1.803323 6.199583
-3.811314 1.802985 6.193871
-3.773356 1.790677 6.204811
-3.765726 1.794581 6.187435
-3.728311 1.755301 6.211289
-3.765861 1.777877 6.220315
-3.935436 1.808824 6.228691
-3.924432 1.810980 6.209637
-3.900309 1.808356 6.220729
-3.889793 1.807981 6.219932
-3.875008 1.806869 6.219947
-3.858116 1.805927 6.216991
-3.840591 1.804397 6.211706
-3.803730 1.798521 6.207896
-3.799666 1.791606 6.224679
-4.571991 1.805147 6.421882
-4.567630 1.807411 6.399171
-4.551696 1.805396 6.414685
-4.533742 1.806637 6.397899
-4.515409 1.805097 6.408090
-4.500593 1.805065 6.404174
-4.501211 1.803728 6.418084
-4.473886 1.805100 6.397152
-4.465764 1.804282 6.404030
-4.457892 1.803223 6.415638
-4.437113 1.803721 6.408838
-4.421314 1.803451 6.412158
-4.412342 1.803709 6.408918
-4.393001 1.803066 6.416479
-4.372714 1.803031 6.415627
-4.362201 1.803906 6.403745
-4.336366 1.801898 6.420804
-4.325209 1.802740 6.410057
-4.312707 1.801976 6.414832
-4.282971 1.800505 6.422935
-4.205906 1.799467 6.419561
-4.188483 1.799896 6.413454
-4.177700 1.799490 6.415909
-4.169148 1.799032 6.419695
-4.001176 1.788285 6.417137
-3.993151 1.786538 6.421742
-3.983740 1.788325 6.406204
-3.957160 1.781343 6.421709
-3.949043 1.782764 6.408386
-4.154180 1.798598 6.422091
-4.124490 1.799045 6.408881
-4.119616 1.799323 6.403835
-4.073189 1.794449 6.421324
-4.066861 1.796339 6.400123
-4.044232 1.792873 6.412092
-4.028380 1.791092 6.414629
-4.010814 1.789126 6.417568
-3.897553 1.760968 6.414527
-3.932670 1.778326 6.410672
-3.905318 1.768668 6.408314
-3.893678 1.762705 6.404942
-4.571859 1.780646 6.674411
-4.849810 1.750258 4.837087
-4.826149 1.752113 4.825466
-4.816390 1.755879 4.820461
-4.844472 1.787844 4.830300
-4.854987 1.789684 4.837094
-4.820051 1.802892 4.812622
-4.818255 1.790308 4.812694
-4.833212 1.829193 4.830688
-4.829122 1.823140 4.822583
-4.826963 1.844714 4.836424
-4.805305 1.748243 4.816863
-5.368674 1.757064 5.052423
-5.355193 1.746532 5.047041
-5.332777 1.760723 5.033741
-5.353983 1.806455 5.047173
-5.350948 1.835028 5.051680
-5.342348 1.858169 5.049274
-5.326623 1.879365 5.046576
-5.285501 1.897730 5.039676
-4.174448 1.897983 5.384015
-4.574161 1.902247 5.362326
-4.568603 1.902280 5.362827
-4.560939 1.902638 5.358572
-4.545385 1.901688 5.371148
-4.535117 1.900665 5.383222
-4.525064 1.901703 5.369675
-4.492442 1.901570 5.369741
-4.470894 1.901262 5.373457
-4.429201 1.901314 5.372437
-4.402801 1.900823 5.378418
-4.392656 1.902260 5.365014
-4.376077 1.901587 5.371757
-4.355909 1.900413 5.379899
-4.340930 1.901171 5.368267
-4.325804 1.901439 5.361001
-4.314676 1.900470 5.368308
-4.291613 1.899275 5.376965
-4.276985 1.899710 5.370100
-4.257365 1.899797 5.367263
-4.253859 1.900549 5.358452
-4.222185 1.899975 5.363882
-4.203154 1.898584 5.378645
-4.186692 1.898980 5.374147
-3.951678 1.894126 5.376541
-3.939297 1.894005 5.368144
-3.782698 1.784414 5.362079
-3.767868 1.783482 5.382208
-3.931451 1.892913 5.372000
-3.915299 1.890775 5.378738
-3.889211 1.889854 5.358283
-3.877484 1.886840 5.370945
-3.860563 1.883609 5.371086
-3.844407 1.877084 5.371070
-4.241934 1.894036 5.438645
-4.258937 1.895576 5.419318
-4.227274 1.894360 5.432765
-4.195114 1.894057 5.433687
-4.191493 1.894276 5.430581
-4.166623 1.895204 5.417115
-4.150799 1.894297 5.428105
-4.116639 1.893427 5.439059
-4.087432 1.894268 5.425982
-4.061149 1.893450 5.431358
-4.060290 1.894665 5.416574
-4.044549 1.892515 5.438994
-4.030808 1.893105 5.428669
-4.000491 1.891535 5.436819
-3.995279 1.892922 5.420506
-3.978401 1.891307 5.427420
-3.973807 1.891731 5.420302
-3.962867 1.891100 5.419544
-3.954422 1.889204 5.432428
-3.746295 1.748334 5.412184
-3.746045 1.788554 5.432022
-3.746296 1.777320 5.422567
-3.743391 1.762026 5.421705
-3.906650 1.886891 5.412416
-3.753860 1.801312 5.422822
-3.754564 1.810081 5.439022
-3.798748 1.858379 5.412175
-3.787275 1.848436 5.434737
-4.571579 1.888137 5.521584
-4.570012 1.885860 5.546435
-4.551855 1.885555 5.547703
-4.533023 1.885618 5.543530
-4.497487 1.886062 5.531872
-4.469142 1.885625 5.535917
-4.446830 1.885470 5.538833
-4.425374 1.884775 5.546678
-4.407050 1.885072 5.544767
-4.395440 1.885197 5.544437
-4.350976 1.885533 5.548472
-4.355494 1.887580 5.524340
-4.335026 1.887110 5.533121
-4.248657 1.866961 5.724285
-4.208990 1.865139 5.733231
-4.186291 1.866937 5.716420
-4.167282 1.863942 5.738419
-4.167893 1.865236 5.728159
-4.151142 1.864516 5.731783
-4.136513 1.866294 5.715320
-4.113607 1.863430 5.732946
-4.070365 1.862955 5.727150
-4.071664 1.861778 5.738049
-4.025790 1.861432 5.731141
-3.992901 1.859894 5.735680
-3.946755 1.858993 5.728511
-3.934552 1.858883 5.726149
-3.899328 1.858620 5.714530
-3.865952 1.856471 5.721056
-3.870598 1.855820 5.735852
-3.833328 1.853757 5.734539
-3.819525 1.853817 5.712817
-3.791544 1.851573 5.713699
-3.751740 1.847822 5.722664
-3.738502 1.846237 5.735136
-5.422077 1.870377 5.749830
-5.460709 1.872713 5.754466
-5.402726 1.866264 5.765273
-5.368463 1.864866 5.761002
-5.339369 1.865173 5.752403
-5.325655 1.863349 5.762927
-5.326965 1.866057 5.746178
-5.286247 1.866998 5.743824
-5.258343 1.867697 5.748496
-5.228754 1.868363 5.756200
-5.215132 1.869714 5.745415
-5.198658 1.870302 5.744272
-5.156507 1.870946 5.746511
-5.138645 1.869496 5.763256
-5.123523 1.869438 5.761765
-5.113189 1.869900 5.754017
-5.098104 1.869956 5.748060
-5.135097 1.871045 5.744713
-5.074595 1.868039 5.767063
-5.056035 1.868507 5.755178
-5.044950 1.868725 5.751363
-4.665781 1.862030 5.802248
-4.654923 1.860365 5.819642
-4.639222 1.861412 5.806826
-4.625348 1.861095 5.809760
-4.620611 1.860353 5.818031
-4.605510 1.861322 5.805765
-5.302895 1.855917 5.834808
-5.284403 1.855895 5.837799
-5.252903 1.855783 5.849382
-5.234776 1.859154 5.824940
-5.201574 1.860526 5.826523
-5.180587 1.859264 5.847354
-5.168792 1.860819 5.836497
-5.134023 1.861479 5.834408
-5.123968 1.861347 5.835698
-5.094100 1.861257 5.834441
-5.070936 1.860606 5.837424
-5.041033 1.862201 5.823328
-4.978952 1.859533 5.848330
-4.937488 1.860050 5.842829
-4.899950 1.859526 5.844154
-4.889309 1.858899 5.848668
-4.874612 1.859425 5.839628
-4.863049 1.860373 5.827555
-4.846514 1.858720 5.841615
-4.820449 1.858268 5.841813
-4.761221 1.857329 5.848908
-4.738044 1.859365 5.827084
-4.732420 1.858846 5.833684
-4.722988 1.859080 5.832518
-4.721002 1.857618 5.849360
-4.644791 1.858316 5.842826
-5.019952 1.850493 5.922801
-5.021464 1.851395 5.914618
-4.993863 1.852418 5.917325
-4.934891 1.853397 5.918284
-4.905345 1.853976 5.910962
-4.900834 1.853214 5.919105
-4.886846 1.852058 5.931462
-4.853541 1.852950 5.918247
-4.817824 1.851996 5.930264
-4.806058 1.852560 5.922458
-4.806352 1.853503 5.908832
-4.781551 1.853369 5.910802
-4.718646 1.852256 5.925038
-4.728962 1.853603 5.906716
-4.701156 1.853156 5.911973
-4.681807 1.852997 5.913118
-4.647738 1.852648 5.915951
-4.647303 1.853458 5.905405
-4.613018 1.851726 5.923053
-4.611676 1.852697 5.910683
-5.580604 1.773490 6.182873
-5.507194 1.749952 6.278052
-5.499558 1.766296 6.277283
-5.479432 1.784006 6.283785
-5.467477 1.786002 6.299701
-5.448101 1.794197 6.307858
-5.363905 1.817659 6.295679
-5.355929 1.817033 6.305148
-5.315165 1.819440 6.307719
-5.324883 1.820449 6.294939
-5.294031 1.821233 6.300385
-5.279501 1.822296 6.294003
-5.266462 1.822139 6.298541
-5.245544 1.821145 6.312802
-5.221025 1.823158 6.295753
-5.218895 1.821628 6.313248
-5.197183 1.822540 6.309684
-5.187389 1.822772 6.309546
-5.168347 1.822721 6.314096
-5.144432 1.824233 6.303423
-5.142311 1.823988 6.306460
-5.107446 1.825481 6.296197
-5.100595 1.825238 6.299616
-5.058234 1.826815 6.287574
-5.024573 1.825794 6.298561
-5.008111 1.824663 6.309538
-4.992583 1.825840 6.294654
-4.580390 1.819035 6.292329
-4.575973 1.818637 6.295546
-4.563730 1.818181 6.297497
-4.543985 1.816588 6.309606
-4.524854 1.818233 6.287626
-4.511232 1.816995 6.296939
-4.465824 1.814853 6.306884
-4.420639 1.814631 6.301211
-4.409114 1.814333 6.302027
-4.376945 1.813973 6.302456
-4.415926 1.816002 6.288007
-4.366941 1.814702 6.294138
-4.357957 1.814333 6.297194
-4.335083 1.813717 6.301568
-4.309959 1.814628 6.288523
-4.290664 1.812439 6.308995
-4.232985 1.812188 6.298394
-4.194385 1.811599 6.295101
-4.159196 1.810443 6.296647
-4.147558 1.808931 6.306586
-4.110701 1.806977 6.313308
-4.121631 1.809851 6.289864
-4.093367 1.808336 6.294646
-4.077862 1.806538 6.305450
-4.065078 1.805224 6.313338
-4.020354 1.805515 6.295222
-3.991226 1.802963 6.305800
-3.979307 1.803049 6.297425
-3.952986 1.799095 6.314052
-3.943865 1.800177 6.300074
-4.959634 1.813325 6.423122
-4.929714 1.815029 6.400712
-4.901934 1.814669 6.397817
