3.031525 1.928837 0.479645
3.078549 1.931030 0.478540
3.078341 1.931435 0.485314
3.330526 1.924683 0.480504
3.364451 1.911048 0.473729
3.372595 1.904758 0.476288
3.108932 1.931559 0.463761
3.138706 1.933435 0.479044
3.160480 1.934370 0.486641
3.193163 1.934679 0.468939
3.189748 1.935448 0.493670
3.218927 1.935103 0.470500
3.235812 1.935333 0.477532
3.248496 1.935019 0.481346
3.258778 1.934489 0.472947
3.294903 1.931441 0.496645
3.284064 1.932917 0.468463
3.425873 1.711678 0.489502
3.432646 1.724254 0.464049
3.428555 1.728165 0.476009
3.419637 1.760139 0.494048
3.426656 1.777072 0.465228
3.413223 1.819040 0.488852
3.417208 1.799190 0.486216
3.419641 1.814778 0.470867
3.407543 1.856754 0.474186
3.411468 1.841161 0.476683
3.409470 1.833116 0.489113
3.415576 1.835403 0.469471
1.708561 1.836361 0.500152
1.720221 1.838175 0.522159
1.747546 1.840273 0.521847
1.749663 1.839490 0.498494
1.774083 1.841671 0.508904
1.801453 1.843566 0.510110
1.813986 1.844324 0.508578
1.835328 1.845730 0.509234
1.705956 1.841420 0.628484
1.716795 1.842041 0.624434
1.787130 1.847193 0.631302
1.799718 1.847920 0.626445
1.823547 1.848851 0.607964
1.876866 1.851971 0.604303
1.892076 1.853692 0.619139
1.901643 1.854273 0.617283
1.927958 1.856323 0.618506
1.914326 1.856009 0.635731
1.962685 1.859298 0.625338
2.007439 1.861830 0.615083
2.018453 1.862278 0.610043
2.043264 1.864120 0.620349
2.896346 1.928386 0.647924
2.909454 1.930230 0.671975
2.908154 1.929032 0.647391
2.956860 1.931686 0.647050
2.962373 1.931738 0.641794
2.985274 1.933798 0.668924
3.011135 1.934993 0.672388
3.046164 1.935647 0.655668
3.051848 1.935750 0.653790
3.073016 1.936738 0.665644
3.234396 1.927428 0.672266
3.338606 1.810710 0.664495
3.347711 1.796410 0.651087
3.328740 1.844314 0.668151
3.262597 1.917242 0.669579
3.267657 1.919339 0.650461
3.284996 1.909929 0.653060
3.313037 1.885368 0.658093
3.105889 1.936922 0.651913
3.163013 1.936614 0.669553
3.161521 1.936348 0.639701
3.180474 1.935490 0.663201
3.225097 1.929734 0.664103
1.565154 1.835548 0.753870
1.589821 1.837659 0.755807
1.634678 1.840883 0.746510
1.641352 1.842609 0.776628
1.680256 1.844332 0.744173
3.228971 1.787819 0.874884
3.241286 1.717786 0.868107
3.240202 1.721685 0.869309
3.246496 1.761758 0.850991
3.242343 1.778164 0.854470
2.837686 1.932457 0.858053
2.851984 1.932946 0.851170
2.883056 1.935284 0.877455
2.893599 1.934984 0.850411
2.924930 1.936909 0.881052
2.958336 1.938123 0.881767
2.975859 1.938281 0.847646
2.990126 1.938931 0.862507
3.009320 1.939546 0.870280
3.027486 1.940054 0.869041
3.033379 1.940179 0.869445
3.095771 1.939349 0.871415
3.236436 1.820333 0.853949
3.217361 1.844639 0.878307
3.234220 1.837520 0.851678
3.205898 1.887189 0.873309
3.213344 1.887009 0.859116
3.188933 1.915627 0.855233
3.182235 1.915349 0.870767
3.110165 1.937668 0.877984
3.151558 1.932560 0.852523
1.703375 1.853117 0.955657
1.720964 1.854489 0.952470
1.755418 1.857836 0.964540
1.788087 1.860705 0.975058
1.790472 1.860337 0.962089
1.815730 1.862488 0.972675
1.820782 1.862916 0.975650
1.858912 1.865097 0.975475
1.877051 1.865440 0.958366
1.880965 1.866381 0.976922
1.904611 1.867170 0.960133
1.925400 1.869493 0.986663
1.931528 1.869158 0.965196
1.953092 1.871073 0.974055
1.971238 1.872469 0.971385
1.994758 1.874983 0.984615
2.002580 1.874315 0.952891
2.025114 1.877082 0.971291
2.028516 1.876445 0.951916
2.066157 1.879885 0.957189
2.120668 1.885860 0.984741
2.137437 1.886659 0.972499
2.140336 1.886591 0.966682
2.190979 1.891577 0.981591
2.067821 1.884069 1.041412
2.083751 1.885384 1.039818
2.111779 1.888534 1.054002
2.103679 1.886415 1.025540
2.125508 1.889410 1.047536
2.153179 1.891080 1.032689
2.178976 1.892978 1.027124
2.190250 1.894529 1.038562
2.203933 1.895923 1.041456
2.237068 1.898867 1.040556
2.238770 1.898338 1.028016
2.284452 1.903316 1.046694
2.272086 1.901145 1.026718
2.317899 1.906359 1.055479
2.331526 1.906422 1.038808
2.364683 1.909118 1.047117
2.383907 1.910713 1.050268
2.416649 1.911888 1.022415
2.454906 1.915070 1.033732
2.455853 1.915734 1.049935
2.480762 1.916855 1.040464
2.491051 1.917340 1.036801
2.510670 1.918941 1.052686
2.536299 1.920085 1.040811
2.560396 1.922107 1.053558
2.562268 1.921167 1.023041
2.595557 1.923438 1.022026
2.601421 1.924945 1.052099
2.623554 1.926088 1.040745
2.643564 1.926931 1.026252
2.653245 1.928383 1.054174
2.668899 1.928975 1.041488
2.687799 1.929555 1.023241
2.713987 1.931135 1.027151
2.728161 1.932172 1.035211
2.746505 1.933494 1.045496
2.756696 1.933716 1.033888
2.771028 1.934701 1.041713
2.797767 1.935752 1.032436
2.798343 1.936275 1.055497
1.722674 1.862479 1.134012
1.749693 1.864798 1.146651
1.749038 1.865111 1.157969
1.798017 1.868281 1.156629
1.809850 1.868269 1.131799
1.859144 1.871382 1.131004
1.877400 1.873578 1.156919
1.898286 1.874379 1.137950
1.917923 1.876193 1.145326
1.936200 1.877216 1.135340
2.057060 1.891500 1.214551
2.069703 1.892308 1.208603
2.078143 1.892545 1.197508
2.103367 1.894863 1.201509
2.144952 1.899497 1.224959
2.163597 1.900808 1.220705
2.252440 1.907357 1.208595
2.284256 1.910455 1.226603
2.321403 1.912871 1.225336
2.332215 1.912995 1.210011
2.347611 1.914312 1.215856
2.377501 1.916624 1.221640
2.412876 1.918385 1.200019
2.433668 1.920221 1.216656
2.449996 1.921137 1.213494
2.495049 1.923396 1.198226
2.523856 1.926021 1.223221
2.527643 1.925970 1.213511
2.556170 1.927873 1.212351
2.573419 1.928845 1.205209
2.584500 1.929981 1.215451
2.602765 1.931332 1.217687
2.633368 1.932906 1.200946
2.626060 1.932933 1.222125
2.648332 1.933890 1.209665
2.663911 1.934783 1.230418
2.689986 1.935615 1.221911
2.719029 1.936553 1.218662
2.757378 1.937445 1.212043
2.785182 1.937680 1.200907
2.792545 1.937619 1.217090
2.818500 1.937681 1.210955
1.079021 1.821007 1.252136
1.082550 1.819257 1.232979
1.117135 1.823636 1.248988
1.126260 1.825343 1.259107
1.148429 1.824854 1.240690
1.206665 1.828450 1.234094
1.191559 1.829471 1.254356
1.242435 1.831207 1.232262
1.262121 1.833772 1.242719
1.265688 1.834964 1.253364
1.290899 1.835889 1.241139
1.291052 1.837623 1.264625
1.324676 1.839412 1.253363
1.336586 1.840329 1.252410
1.361426 1.841325 1.235110
1.377616 1.843516 1.252725
1.389808 1.844156 1.247182
1.414930 1.845883 1.248380
1.437043 1.846966 1.242610
1.481740 1.850056 1.263975
1.501110 1.851195 1.256933
1.513823 1.851402 1.232817
1.538656 1.853280 1.232488
1.548181 1.855074 1.264101
1.575229 1.856771 1.249616
1.584538 1.857282 1.242433
1.604519 1.859673 1.265299
1.600089 1.858985 1.255359
1.628688 1.860444 1.234279
1.637622 1.861392 1.242686
1.663588 1.863234 1.244848
1.671470 1.863834 1.247604
1.700459 1.865271 1.242355
2.912697 1.818926 1.300571
2.939308 1.790606 1.276783
2.926596 1.811184 1.286710
2.906434 1.851176 1.297401
2.923958 1.840551 1.281477
2.937935 1.833548 1.267698
2.925365 1.855548 1.274911
2.841357 1.927247 1.289923
2.857843 1.926265 1.273993
2.889513 1.907802 1.275785
2.913071 1.890472 1.269389
2.898849 1.879827 1.292669
2.834366 1.929913 1.285782
2.897271 1.792801 1.323155
2.890252 1.806079 1.327955
2.901887 1.843896 1.304805
2.856670 1.891394 1.333309
2.870920 1.864910 1.331283
2.885612 1.859456 1.317671
2.823199 1.918643 1.332915
2.832778 1.911179 1.333124
2.859328 1.901093 1.319081
2.898883 1.859503 1.302909
1.152960 1.838186 1.419646
1.226001 1.842460 1.419306
1.275136 1.844641 1.410092
1.281485 1.845556 1.421569
1.292052 1.845569 1.408019
1.292550 1.847000 1.437164
1.335627 1.849666 1.432408
1.343865 1.850168 1.430140
1.404687 1.854792 1.435924
1.393475 1.852207 1.407437
1.431702 1.855117 1.418845
1.452086 1.854411 1.406562
1.469103 1.858319 1.436777
1.473580 1.855932 1.414055
1.491644 1.857536 1.422686
1.510786 1.858382 1.417373
1.549697 1.861341 1.415003
1.583168 1.866285 1.440432
1.608615 1.866802 1.415288
1.633903 1.868664 1.411898
1.663728 1.872288 1.428863
1.670851 1.871785 1.411764
1.686336 1.874666 1.434971
1.711984 1.880480 1.489092
1.722870 1.881765 1.497155
1.762759 1.884600 1.498028
1.785650 1.885095 1.476669
1.807742 1.886955 1.482510
1.840096 1.889112 1.480678
1.857162 1.890180 1.478143
1.874216 1.892126 1.495310
1.905947 1.893476 1.477819
1.905861 1.894697 1.504353
1.919541 1.894826 1.486539
1.932661 1.896477 1.502272
1.956686 1.898457 1.506588
1.960685 1.897863 1.486734
2.679776 1.809868 1.536829
2.669762 1.842426 1.537097
2.541230 1.921537 1.545142
2.573474 1.919688 1.527599
2.587580 1.913120 1.533997
2.584305 1.923410 1.511051
2.656130 1.870204 1.537259
2.652286 1.863768 1.544144
2.612525 1.902859 1.540189
2.626328 1.909537 1.518255
2.653644 1.895240 1.522322
2.689149 1.800794 1.530024
2.698217 1.820321 1.517904
2.693587 1.849040 1.513434
2.690287 1.858436 1.513453
2.277908 1.921592 1.582310
2.300348 1.921973 1.610501
2.328226 1.922929 1.593048
2.342276 1.922573 1.610729
2.372375 1.924446 1.582731
2.384275 1.923146 1.605497
2.408108 1.923995 1.591707
2.423987 1.925029 1.582710
2.448984 1.924721 1.581056
2.483004 1.919918 1.588033
2.527023 1.913821 1.582083
2.537732 1.894388 1.611934
2.608288 1.802196 1.599960
2.592592 1.794573 1.614469
2.585926 1.854975 1.602408
2.610564 1.850755 1.583583
2.590302 1.824534 1.609844
2.623706 1.796592 1.588398
2.548527 1.883612 1.612180
2.550399 1.891972 1.603814
2.577166 1.861280 1.606020
2.565572 1.895245 1.587181
1.708737 1.885678 1.630663
1.745456 1.889109 1.649926
1.765640 1.890161 1.633318
1.789257 1.891919 1.626590
1.815820 1.894681 1.640671
1.816913 1.894705 1.639124
1.833520 1.895584 1.628396
1.859409 1.896995 1.617934
1.881096 1.899073 1.629737
1.922094 1.901134 1.616884
1.936177 1.903206 1.645355
1.961532 1.904014 1.623491
1.965505 1.905197 1.649676
2.013782 1.908604 1.649647
2.024369 1.908215 1.616818
2.043247 1.910036 1.639275
2.063765 1.910727 1.625937
2.081240 1.912251 1.648422
2.092202 1.912079 1.622653
2.145943 1.915524 1.646759
2.173437 1.917015 1.624983
2.177936 1.917253 1.634309
2.231784 1.919713 1.628674
2.258765 1.920498 1.638461
2.576524 1.714711 1.639467
2.571697 1.737042 1.639396
2.559144 1.744645 1.648209
2.589971 1.731568 1.625829
2.580122 1.739976 1.632182
2.562743 1.783001 1.639436
2.572807 1.758736 1.634779
1.717191 1.887366 1.657618
1.727780 1.888316 1.661586
1.764852 1.891036 1.659641
1.793106 1.893349 1.657403
1.793734 1.894142 1.677573
1.808318 1.895343 1.673834
1.826679 1.896167 1.654232
1.874527 1.901070 1.681965
1.891693 1.901965 1.677445
1.928063 1.903336 1.659593
1.938891 1.904821 1.681368
1.969887 1.905725 1.655579
1.972831 1.906539 1.671295
1.982867 1.907636 1.682629
2.036880 1.910326 1.661892
2.070099 1.911884 1.655399
2.076252 1.912470 1.672693
2.092873 1.913201 1.674855
2.114256 1.914065 1.681195
2.133908 1.914953 1.670771
2.146764 1.915424 1.677641
2.173982 1.916680 1.661745
2.186065 1.916612 1.682063
2.216767 1.918407 1.655849
2.227472 1.918489 1.660345
0.329050 1.715647 1.766263
0.331628 1.729372 1.764907
0.334067 1.740141 1.764085
0.340865 1.747371 1.756981
0.329861 1.758309 1.779693
0.367896 1.775071 1.757448
0.360511 1.779943 1.773795
0.360763 1.784596 1.787869
0.384915 1.788123 1.770235
0.385602 1.805201 1.917246
0.400067 1.806696 1.914392
0.436288 1.809973 1.903684
0.421886 1.809596 1.923581
0.446811 1.811346 1.909479
0.467708 1.813057 1.904943
0.502663 1.816024 1.904328
0.551517 1.819642 1.902353
0.593125 1.822135 1.896901
0.648385 1.827405 1.925127
0.651465 1.826242 1.901595
0.658004 1.827564 1.916269
0.683672 1.829031 1.909366
0.695996 1.829858 1.908194
0.716154 1.832201 1.924662
0.729930 1.832010 1.902650
0.744764 1.833685 1.914966
0.768691 1.835233 1.914764
0.786395 1.835518 1.900277
0.805318 1.837208 1.911158
0.815975 1.837964 1.913500
0.858337 1.840097 1.906310
0.886231 1.843014 1.927185
0.904630 1.843249 1.907350
0.932561 1.845902 1.918282
0.945976 1.847201 1.923808
0.962416 1.847836 1.912837
0.991583 1.848896 1.895056
0.997038 1.850293 1.913613
1.025033 1.851313 1.896653
1.019542 1.852091 1.918075
1.065986 1.855770 1.926461
1.055425 1.853399 1.896497
1.076097 1.855693 1.912558
1.119201 1.857674 1.897910
1.125556 1.859627 1.925311
1.159944 1.860506 1.900632
1.178650 1.861533 1.896889
1.181386 1.863034 1.929020
1.217766 1.864481 1.905328
1.236814 1.866025 1.912747
1.253449 1.867270 1.915127
1.310801 1.871944 1.924246
1.310692 1.871098 1.904369
1.320508 1.872661 1.923965
1.349567 1.873959 1.907137
1.365979 1.875194 1.911016
1.386339 1.876736 1.918542
1.393558 1.876668 1.906237
1.414487 1.878639 1.922925
0.737766 1.834209 1.934270
0.735118 1.835111 1.954610
0.780652 1.838150 1.957536
0.789519 1.838627 1.956371
0.798068 1.838766 1.949184
0.827144 1.839491 1.929795
0.835440 1.841829 1.964119
0.872328 1.843501 1.953136
0.907095 1.845481 1.947299
0.945951 1.848146 1.942080
0.951061 1.848441 1.940281
0.981022 1.850421 1.935972
1.057027 1.856728 1.952983
1.067816 1.856570 1.937840
1.088847 1.858558 1.946898
1.093797 1.859827 1.961761
1.125014 1.861184 1.952295
1.140890 1.861460 1.940725
1.168012 1.862938 1.940339
1.153677 1.863104 1.957071
1.189215 1.864074 1.941688
1.200826 1.864812 1.942789
1.220144 1.865748 1.938224
1.231035 1.867252 1.958173
1.273263 1.870165 1.954909
1.292155 1.870813 1.932959
1.306451 1.872836 1.958205
1.333234 1.874046 1.936449
1.353976 1.875423 1.934224
1.361540 1.875942 1.936239
1.405209 1.879198 1.954467
1.406735 1.878465 1.930387
1.496528 1.884681 1.941357
1.515573 1.885824 1.946391
1.529418 1.886365 1.932626
1.540095 1.887255 1.957401
1.571566 1.888992 1.955701
1.590632 1.889835 1.938503
1.604057 1.890530 1.937821
1.620007 1.891388 1.949024
1.636729 1.892069 1.958087
1.652936 1.892831 1.945949
1.689767 1.893714 1.956171
1.694657 1.894453 1.935508
1.725906 1.721870 2.119231
1.707139 1.750384 2.122395
1.754317 1.753358 2.104388
1.742077 1.750543 2.109505
1.733725 1.768295 2.109766
1.729137 1.787467 2.107963
1.726915 1.794976 2.107113
0.463355 1.830391 2.190260
0.468405 1.831168 2.197979
0.487910 1.832326 2.195760
0.540345 1.835589 2.192593
0.573168 1.837901 2.198693
0.583495 1.837530 2.182233
0.595234 1.837799 2.175711
0.625776 1.840219 2.188946
0.649211 1.840932 2.180868
0.658844 1.842468 2.197494
0.668727 1.841895 2.180146
0.708940 1.844916 2.189933
0.722997 1.845347 2.182272
0.743419 1.848166 2.201780
0.767847 1.849415 2.193830
0.784930 1.850984 2.200799
0.803878 1.852020 2.197013
0.814971 1.852632 2.195516
0.849894 1.853992 2.179178
0.863005 1.855718 2.199183
0.866602 1.855350 2.186038
0.885756 1.856964 2.196534
0.907813 1.857906 2.186823
0.907725 1.858668 2.207150
0.943969 1.860343 2.192782
0.953383 1.860888 2.191708
0.970901 1.861934 2.192507
1.001721 1.863322 2.186100
1.009978 1.863722 2.186146
1.035874 1.865233 2.195472
1.045357 1.865702 2.196238
1.050977 1.865466 2.183117
1.102193 1.867977 2.185616
1.111360 1.868631 2.193060
1.098682 1.807673 2.392846
1.096956 1.800467 2.397432
1.113379 1.805743 2.384861
-0.135691 1.725199 3.039005
-0.132853 1.742327 3.019696
-0.113964 1.786775 3.024018
-0.114011 1.784296 3.038181
-0.112248 1.789269 3.027087
-0.097689 1.799929 3.025536
-0.053275 1.821427 3.044698
-0.045151 1.823954 3.033231
-0.022631 1.828459 3.033534
-0.020651 1.828719 3.021481
-0.000274 1.832178 3.038564
0.019194 1.834292 3.017872
0.509343 1.711295 3.038403
0.519005 1.714793 3.029523
0.509589 1.729686 3.034281
0.497804 1.723611 3.045209
0.494269 1.782832 3.031948
0.497983 1.766975 3.034267
0.500637 1.760741 3.034131
0.518287 1.767658 3.016807
0.034965 1.836285 3.029432
0.056619 1.838284 3.025770
0.087172 1.841859 3.042982
0.096251 1.842763 3.043497
-0.127814 1.747299 3.197296
-0.119917 1.771352 3.215862
-0.091858 1.804918 3.208439
-0.056915 1.823062 3.188715
-0.070060 1.820180 3.219628
-0.028229 1.830962 3.200019
-0.014679 1.833697 3.212581
0.002313 1.836215 3.203668
0.022224 1.838690 3.198552
0.295435 1.735494 3.212833
0.293542 1.719717 3.219295
0.290357 1.787508 3.198658
0.276142 1.777858 3.218435
0.301910 1.763022 3.197056
0.323726 1.715616 3.187454
2.411703 1.847901 -0.168202
2.428444 1.840327 -0.192335
2.455789 1.841021 -0.186799
2.465005 1.847340 -0.173235
2.526540 1.821991 -0.200431
2.475114 1.846715 -0.173554
2.491400 1.847961 -0.170666
2.507976 1.836404 -0.188208
2.519663 1.843656 -0.174437
2.550368 1.805544 -0.197989
2.573406 1.797020 -0.190234
2.577240 1.809276 -0.185565
2.607782 1.807979 -0.171368
2.551222 1.832641 -0.181058
2.598066 1.831120 -0.165770
1.766560 1.725478 -0.147052
1.772435 1.730521 -0.152287
1.788338 1.760719 -0.157636
1.793073 1.778535 -0.138447
1.741777 1.735988 -0.111288
1.746195 1.757417 -0.100583
1.777004 1.776848 -0.111522
1.782341 1.784160 -0.106120
1.712887 1.794991 -0.000209
1.730683 1.798268 -0.004290
1.745499 1.805571 0.007002
1.790125 1.810959 -0.013182
1.800748 1.814421 -0.002453
1.818727 1.816918 -0.005901
1.825813 1.818206 -0.002695
1.727035 1.820449 0.159371
1.730847 1.821905 0.179056
1.779813 1.825892 0.167589
1.793591 1.827854 0.182757
1.809292 1.827435 0.148891
1.827868 1.830369 0.175688
1.856275 1.831876 0.158094
1.853904 1.832726 0.179160
1.886761 1.834718 0.163405
1.896665 1.836141 0.176182
1.929769 1.837935 0.157997
1.944156 1.839422 0.168303
1.953409 1.839608 0.157449
1.982100 1.841479 0.156560
1.414582 1.722557 0.287686
1.439011 1.735970 0.277258
1.448350 1.755114 0.286903
1.466581 1.766775 0.282361
1.500069 1.782028 0.269644
3.118172 1.928645 0.401313
3.308653 1.928050 0.406105
3.312798 1.928643 0.418872
3.326070 1.925043 0.413048
3.318789 1.924477 0.396059
3.346730 1.918099 0.404554
3.362028 1.914429 0.426435
3.107267 1.928941 0.418932
3.152644 1.930303 0.402921
3.150228 1.931208 0.424290
3.181006 1.932279 0.423084
3.191272 1.931040 0.395599
3.205634 1.931605 0.401422
3.220104 1.932382 0.415610
3.261154 1.931769 0.414693
3.277921 1.931351 0.415420
3.277238 1.931777 0.419758
3.277083 1.932467 0.427654
3.449216 1.717284 0.398076
3.447560 1.731224 0.399141
3.447168 1.725522 0.404402
3.445718 1.757782 0.393348
3.438670 1.775742 0.418833
3.449250 1.721831 0.395302
3.432711 1.806911 0.421025
3.416506 1.852895 0.406665
3.423291 1.837640 0.400450
3.403551 1.871527 0.400063
3.404980 1.874258 0.412092
3.384405 1.900073 0.421131
3.384252 1.895701 0.404120
1.734139 1.835776 0.439934
1.768041 1.837780 0.428506
1.789392 1.839343 0.428810
1.825872 1.842913 0.453170
1.838138 1.842893 0.432381
1.845311 1.843427 0.433244
1.867049 1.845877 0.455535
1.885741 1.846220 0.432040
1.901827 1.847913 0.447179
1.925487 1.849034 0.434931
1.946088 1.851363 0.460233
1.974006 1.852429 0.434683
1.991290 1.853822 0.437719
2.029048 1.857179 0.450566
2.018451 1.856840 0.462817
2.847069 1.920064 0.529890
2.844420 1.919111 0.512826
2.872529 1.921885 0.532539
2.879502 1.920680 0.498191
2.891785 1.922086 0.510344
2.929830 1.924517 0.509030
2.941331 1.924683 0.499261
2.990634 1.928723 0.529007
3.016370 1.929417 0.511586
3.060288 1.931854 0.510910
3.076501 1.933017 0.522445
3.315875 1.926499 0.503060
3.323846 1.920709 0.520173
3.371755 1.896498 0.501082
3.104621 1.933999 0.522753
3.109858 1.934288 0.526793
3.149769 1.934725 0.506108
3.194200 1.936333 0.532304
3.206669 1.936379 0.528497
3.221314 1.935959 0.504763
3.246546 1.935330 0.519804
3.269859 1.934406 0.501336
3.277441 1.932393 0.528717
3.300008 1.929936 0.504781
3.417914 1.711409 0.511283
3.414846 1.783554 0.500097
3.406862 1.812695 0.508415
3.407103 1.803895 0.511796
3.390367 1.846722 0.526486
3.400801 1.834558 0.510512
1.184209 1.717335 0.660120
1.195844 1.731585 0.660828
1.214162 1.752409 0.660684
1.231197 1.756548 0.641361
1.239847 1.767452 0.653504
1.273104 1.788653 0.663575
1.286192 1.788616 0.641240
1.282478 1.791435 0.661598
1.314584 1.800563 0.670775
1.308180 1.796200 0.652947
1.323978 1.798059 0.640229
1.330812 1.803985 0.672223
1.358965 1.804801 0.639444
1.372090 1.809306 0.656625
1.410245 1.814177 0.646084
1.405941 1.816095 0.672006
1.429738 1.818145 0.660602
1.455168 1.820623 0.656373
1.459120 1.820536 0.648608
1.474914 1.822557 0.658014
1.488460 1.824084 0.661514
1.507104 1.825625 0.658217
1.557094 1.829276 0.637595
1.545427 1.829042 0.655322
2.348294 1.889865 0.704363
2.351939 1.888993 0.686188
2.390014 1.891714 0.678768
2.430113 1.896472 0.702995
2.465816 1.897663 0.673894
2.462084 1.898679 0.696027
2.516842 1.903841 0.702375
2.537394 1.904114 0.672593
2.558350 1.906223 0.680817
2.545736 1.906475 0.703613
2.596892 1.908784 0.674394
2.595499 1.910019 0.699813
2.619630 1.911504 0.694569
2.623242 1.911952 0.698210
2.667159 1.914535 0.684947
2.673456 1.915398 0.693381
2.681086 1.916474 0.704305
2.705550 1.917956 0.698989
2.731485 1.919879 0.699959
2.746029 1.920793 0.696726
2.768995 1.921766 0.683248
2.779053 1.922789 0.691056
2.801233 1.924905 0.705714
3.336318 1.709139 0.694664
3.341943 1.744184 0.675930
3.336483 1.734944 0.688861
3.329644 1.768334 0.695022
3.337981 1.774427 0.676897
2.825831 1.926092 0.695158
2.846168 1.927075 0.687476
2.873474 1.928640 0.685102
2.875277 1.928969 0.690415
2.920129 1.931895 0.700348
2.943688 1.933253 0.705554
2.952323 1.933206 0.692630
2.978588 1.934917 0.706163
3.001913 1.935310 0.690022
3.009070 1.935713 0.693148
3.029698 1.936072 0.682796
3.076602 1.937254 0.680653
3.089196 1.938009 0.704393
1.153237 1.706204 0.720958
1.163567 1.734217 0.725449
1.171593 1.750083 0.729989
1.208423 1.771686 0.711808
1.212111 1.776097 0.719929
1.239996 1.787571 0.714356
1.240154 1.788468 0.719006
1.266104 1.795982 0.716431
1.253927 1.795960 0.739245
1.286169 1.801242 0.717880
1.308818 1.806165 0.723756
1.353206 1.812016 0.709714
1.377514 1.815804 0.716501
1.375573 1.816504 0.733807
1.416367 1.820158 0.719181
1.428277 1.821493 0.724041
1.441135 1.822316 0.713655
1.470382 1.826325 0.741863
1.470255 1.825132 0.715495
1.520182 1.830712 0.734785
1.527902 1.830360 0.714986
1.545529 1.832041 0.717389
1.552845 1.833301 0.729369
1.574744 1.835172 0.728994
1.586349 1.836085 0.727865
1.598570 1.836265 0.710658
1.631083 1.839895 0.729568
1.657454 1.841268 0.711478
1.666010 1.842786 0.731880
1.694244 1.843786 0.707653
3.142767 1.717909 1.024933
3.132711 1.750404 1.034479
3.132543 1.728813 1.038137
3.126511 1.781720 1.037414
3.095854 1.888404 1.041302
3.033105 1.927321 1.056067
3.080167 1.911905 1.032483
3.076941 1.910020 1.040810
3.088620 1.896316 1.044159
2.821047 1.937151 1.052940
2.830228 1.937450 1.052627
2.872965 1.938270 1.026607
2.885063 1.938580 1.037960
2.948320 1.938712 1.052524
2.958579 1.938846 1.039478
2.967240 1.938044 1.053123
2.995816 1.937167 1.034664
3.025701 1.932206 1.041059
3.128443 1.819010 1.026611
3.114198 1.797165 1.051577
3.119710 1.791416 1.045134
3.105611 1.830578 1.055330
3.116624 1.842282 1.036177
3.108402 1.891419 1.022989
2.058023 1.885449 1.087253
2.108746 1.888809 1.064415
2.100564 1.889490 1.091385
2.132519 1.890666 1.060682
2.178328 1.895760 1.083618
2.200749 1.897918 1.086939
2.206585 1.897634 1.069998
2.232059 1.899333 1.057623
2.261274 1.902665 1.072674
2.277093 1.903458 1.061225
2.267669 1.903814 1.085459
2.301764 1.905552 1.062914
2.350587 1.909944 1.082867
2.359531 1.910224 1.076496
2.367683 1.911270 1.086387
2.397453 1.912652 1.071128
2.405920 1.913886 1.087414
2.409797 1.912951 1.056846
2.457601 1.917057 1.080584
2.480721 1.918548 1.084730
2.490268 1.918116 1.061396
2.511670 1.919658 1.069390
2.522376 1.919842 1.058543
2.570054 1.922957 1.058706
2.569825 1.923143 1.063598
2.580623 1.924933 1.091281
2.616519 1.926606 1.070726
2.672697 1.930565 1.083120
2.681895 1.930655 1.068863
2.705433 1.931620 1.058660
2.742035 1.934323 1.077844
2.758677 1.935351 1.082597
2.803964 1.936896 1.070499
2.797054 1.936919 1.083856
3.098292 1.729931 1.086693
3.090763 1.782978 1.087373
3.098165 1.771982 1.078965
0.921070 1.791063 1.144703
0.941028 1.791906 1.136465
0.972007 1.800490 1.154794
1.002197 1.802644 1.154858
1.008686 1.799602 1.136518
1.032616 1.801064 1.138781
1.057981 1.804445 1.147915
1.064815 1.803316 1.141088
1.081282 1.803040 1.134825
1.107937 1.806613 1.140700
1.115564 1.807488 1.141395
1.142059 1.810328 1.143188
1.156611 1.809162 1.129363
1.173517 1.813361 1.142901
1.194199 1.816052 1.145869
1.215925 1.818462 1.149750
1.261473 1.822596 1.138062
1.276709 1.824639 1.138863
1.284898 1.826131 1.143484
1.316759 1.831168 1.155913
1.322307 1.831708 1.154314
1.321759 1.832037 1.159250
1.359028 1.836172 1.158053
1.361169 1.834155 1.127357
1.408037 1.838995 1.130100
1.417637 1.840135 1.134245
1.424931 1.840911 1.137011
1.444916 1.842682 1.141831
1.471010 1.844186 1.137576
1.484263 1.845802 1.150849
1.504655 1.846580 1.138100
1.513148 1.847702 1.147477
1.530209 1.848935 1.147697
1.537889 1.849819 1.153379
1.582573 1.853675 1.158720
1.607910 1.855244 1.148830
1.621161 1.855324 1.129984
1.635921 1.857857 1.159576
1.653390 1.858035 1.138888
1.660783 1.858214 1.132362
1.676552 1.859673 1.140753
3.028497 1.717456 1.181021
3.026391 1.784681 1.171406
2.950235 1.920332 1.179474
3.025521 1.814307 1.166029
3.008344 1.807818 1.188166
3.012417 1.856477 1.169853
3.019100 1.847932 1.164160
2.983452 1.884531 1.188313
3.003499 1.876361 1.167194
2.961812 1.918004 1.169874
2.970101 1.902838 1.184467
2.834582 1.938465 1.161884
2.861900 1.938100 1.171999
2.865420 1.938274 1.165555
2.918765 1.931201 1.190603
2.910890 1.936052 1.162619
2.925940 1.931417 1.183394
1.721061 1.870341 1.320799
1.715073 1.869210 1.309862
1.767336 1.873252 1.311383
1.776264 1.873401 1.303590
1.797017 1.876459 1.322874
1.819538 1.877813 1.314845
1.840204 1.879468 1.313727
1.851155 1.880115 1.308887
1.866778 1.882797 1.333990
1.877643 1.882083 1.303557
1.900273 1.884514 1.314521
1.938202 1.887043 1.305145
1.945127 1.888790 1.334336
1.964632 1.889343 1.315980
1.975001 1.890468 1.329002
1.988419 1.890810 1.314749
2.021008 1.893037 1.316805
2.038584 1.895337 1.335622
2.050336 1.895252 1.313607
2.060921 1.896520 1.320070
2.069755 1.897759 1.329499
2.105987 1.900460 1.319780
2.122169 1.902046 1.328624
2.153630 1.903845 1.305121
2.190857 1.907670 1.327224
2.201422 1.908489 1.324412
2.221267 1.910162 1.326798
2.234780 1.910974 1.319499
1.717365 1.872525 1.360042
1.730567 1.873397 1.356873
1.746959 1.873645 1.341033
1.762904 1.876342 1.361271
1.792762 1.877725 1.346208
1.806200 1.880193 1.366753
1.807755 1.878609 1.341592
1.838763 1.881091 1.342847
1.860484 1.883323 1.352404
1.895313 1.886393 1.361956
1.930465 1.887809 1.336568
1.941569 1.889367 1.354873
1.971743 1.891349 1.356204
1.985440 1.892495 1.362437
2.007076 1.893677 1.354581
2.023628 1.894069 1.336532
2.070406 1.898834 1.349288
2.099890 1.901061 1.347472
2.134344 1.903736 1.352245
2.141351 1.904593 1.363351
2.165641 1.906372 1.353826
2.184532 1.907771 1.347033
2.201226 1.909169 1.348290
2.223476 1.911129 1.360963
2.227161 1.911211 1.352201
2.245640 1.912650 1.362519
1.997842 1.898434 1.446418
2.040336 1.902595 1.465016
2.050266 1.902060 1.441687
2.072805 1.905488 1.472048
2.072399 1.904051 1.448684
2.088700 1.905837 1.458778
2.121521 1.908432 1.461981
2.153654 1.909547 1.441622
2.155961 1.910184 1.449891
2.163831 1.912099 1.475146
2.206764 1.912989 1.442524
2.203821 1.914072 1.465367
2.228982 1.914819 1.450137
2.760029 1.729659 1.473917
2.771464 1.730079 1.462404
2.756111 1.780809 1.469912
2.778887 1.766543 1.449332
2.263105 1.917763 1.462307
2.279046 1.918841 1.459006
2.303927 1.920587 1.460427
2.318184 1.921480 1.458630
2.352634 1.923530 1.454225
2.347908 1.923402 1.464414
2.372442 1.924518 1.449268
2.381981 1.924924 1.444867
2.412428 1.926418 1.445986
2.417202 1.926848 1.461954
2.451622 1.928342 1.448551
2.459170 1.928704 1.444441
2.481930 1.929548 1.452580
2.498797 1.929932 1.457729
2.511173 1.930251 1.460914
2.513368 1.930250 1.469330
0.439829 1.715020 1.553913
0.440130 1.732103 1.570108
0.452115 1.744546 1.554724
0.464381 1.759727 1.555478
0.480746 1.774219 1.561554
0.510187 1.787040 1.577954
0.532597 1.791146 1.575395
0.566917 1.794951 1.562589
0.588620 1.796550 1.551375
0.639476 1.803837 1.556635
0.642338 1.805737 1.575947
0.671508 1.807701 1.559878
0.683169 1.809467 1.567978
0.696681 1.809298 1.546377
0.714306 1.812520 1.569465
0.743519 1.814561 1.557140
0.767656 1.816728 1.552530
0.766969 1.818020 1.576632
0.820316 1.822449 1.552686
0.840208 1.825124 1.565688
0.850122 1.825558 1.556103
0.880137 1.828200 1.563073
0.882532 1.827906 1.556268
0.905689 1.829035 1.553187
0.926423 1.831467 1.571245
0.948572 1.832222 1.560661
0.989260 1.834439 1.553698
1.010947 1.835695 1.551981
1.032063 1.837713 1.567535
1.041643 1.838620 1.574791
1.065301 1.839621 1.567172
1.101290 1.840833 1.549486
1.108790 1.841088 1.545889
1.110173 1.842556 1.579173
1.130512 1.843094 1.564609
0.299822 1.712879 1.811522
0.295875 1.731989 1.819724
0.304638 1.730749 1.805646
1.298694 1.875978 2.093668
1.320899 1.877054 2.100679
1.347727 1.877912 2.084371
1.383664 1.879273 2.070516
1.381508 1.878230 2.103971
1.394800 1.878801 2.093778
1.420356 1.878974 2.089211
1.443581 1.879266 2.088597
1.472847 1.878884 2.085539
1.490979 1.877568 2.094697
1.516527 1.874749 2.103380
1.525254 1.879200 2.078383
1.551176 1.871372 2.100003
1.549618 1.877470 2.079162
1.578917 1.870723 2.090734
1.597303 1.866266 2.097176
1.603904 1.872965 2.081574
1.630108 1.870617 2.083848
1.653071 1.861052 2.097588
1.651516 1.869348 2.083571
1.680541 1.862361 2.091060
1.700251 1.860706 2.089028
0.069003 1.736479 2.266798
0.064548 1.757515 2.268799
0.074534 1.770571 2.268291
0.103444 1.793255 2.273999
0.121365 1.795963 2.267524
0.156732 1.804481 2.272464
0.180204 1.804845 2.246745
0.199788 1.808597 2.256550
0.207966 1.809525 2.255798
0.223639 1.812939 2.276747
0.239457 1.814590 2.274994
0.268727 1.817024 2.257935
0.273199 1.816810 2.244338
0.299626 1.821151 2.267550
0.323896 1.823354 2.258094
0.336972 1.825334 2.265476
0.356324 1.826907 2.259421
0.370187 1.828687 2.266991
0.379614 1.828483 2.251458
0.384200 1.830328 2.274699
0.417520 1.830804 2.245311
0.435981 1.833196 2.266566
0.457932 1.833743 2.254912
0.479043 1.834554 2.248836
0.485244 1.836099 2.272602
0.501960 1.837116 2.273482
0.536138 1.838371 2.255201
0.540590 1.839605 2.275730
0.564535 1.840424 2.260803
0.581161 1.841190 2.255610
0.990661 1.741879 2.486864
0.981741 1.770126 2.484567
1.031298 1.740569 2.459603
1.021989 1.726838 2.469053
1.018076 1.768982 2.460694
0.598161 1.853663 2.475014
0.616069 1.854650 2.477163
0.627895 1.855501 2.479903
0.636806 1.855531 2.468270
0.705971 1.859634 2.470158
0.692593 1.858976 2.463395
0.856293 1.855293 2.476269
0.747369 1.860852 2.458444
0.758065 1.861330 2.480747
0.765889 1.861449 2.481215
0.767943 1.861382 2.486523
0.811792 1.860145 2.475748
0.827939 1.860288 2.460710
0.888817 1.845546 2.481418
0.909078 1.847001 2.463195
0.923680 1.839496 2.470070
0.963072 1.806364 2.479135
1.000251 1.809667 2.454525
0.981088 1.818186 2.459494
0.981199 1.796069 2.473807
0.948694 1.827165 2.471622
0.969419 1.830408 2.455418
0.984327 1.823992 2.454137
0.347123 1.840270 2.528257
0.368561 1.843386 2.556071
0.395486 1.843673 2.524503
0.409893 1.845847 2.551254
0.422926 1.846184 2.539197
0.452783 1.848472 2.550867
0.472452 1.849286 2.538913
0.481346 1.850063 2.544251
0.498479 1.851188 2.542534
0.560725 1.854529 2.530261
0.581689 1.856407 2.553365
0.945131 1.712149 2.529710
0.929698 1.735178 2.536661
0.908042 1.734115 2.554731
0.929820 1.776685 2.523216
0.931734 1.766482 2.525855
0.919346 1.762794 2.537307
0.947903 1.730270 2.523194
0.608621 1.856771 2.528309
0.619158 1.857973 2.554765
0.639602 1.858248 2.525136
0.639985 1.858676 2.545579
1.936635 1.706602 -0.373555
1.921204 1.715726 -0.358435
1.915967 1.749612 -0.350512
1.925541 1.730812 -0.362152
1.937408 1.755296 -0.370448
1.933915 1.767135 -0.353829
1.958184 1.769770 -0.369913
1.969763 1.775488 -0.371018
2.000826 1.785315 -0.370985
2.084454 1.783209 -0.371614
2.243868 1.708898 -0.367431
1.802239 1.709997 -0.196863
1.794128 1.746089 -0.178927
1.806640 1.771185 -0.175666
1.807601 1.766058 -0.182465
1.815272 1.776657 -0.176758
1.827294 1.770298 -0.200272
1.837381 1.796964 -0.166400
1.858791 1.800814 -0.172288
1.859194 1.796657 -0.184757
1.856887 1.792247 -0.199944
1.887581 1.802642 -0.200061
1.907744 1.809206 -0.189819
1.920023 1.811461 -0.187541
1.922080 1.814357 -0.166339
1.964182 1.816429 -0.195691
1.972153 1.819544 -0.172543
1.984774 1.821264 -0.168233
1.988536 1.819050 -0.196140
2.048265 1.827155 -0.170255
2.063116 1.826119 -0.200261
2.101966 1.831370 -0.172018
2.121060 1.831086 -0.195566
2.134916 1.833035 -0.183559
2.146109 1.834003 -0.181381
2.189094 1.834938 -0.199560
2.626541 1.737965 -0.159881
2.639560 1.742651 -0.154383
2.630083 1.778958 -0.162337
2.644666 1.770574 -0.153485
2.653970 1.772958 -0.148475
2.656318 1.764816 -0.146325
2.682772 1.748875 -0.134228
2.270958 1.842355 -0.161054
2.303895 1.844169 -0.156946
2.352042 1.849514 -0.136567
2.358732 1.849116 -0.141996
2.399384 1.851397 -0.143374
2.423606 1.854217 -0.134460
2.448632 1.854028 -0.143816
2.502765 1.858086 -0.134322
2.518727 1.853657 -0.150452
2.524492 1.855897 -0.141549
2.542316 1.848731 -0.164932
2.574388 1.851561 -0.145524
2.580324 1.847821 -0.148722
2.604955 1.855967 -0.130861
2.633123 1.823261 -0.156400
2.639445 1.798696 -0.157146
2.671319 1.791448 -0.140033
2.658238 1.818904 -0.144074
2.611452 1.837443 -0.151082
2.616182 1.848577 -0.136183
2.635543 1.839322 -0.139891
2.669206 1.829680 -0.132725
2.154420 1.841563 -0.058948
2.166657 1.842969 -0.044918
2.190359 1.844725 -0.046674
2.211028 1.847021 -0.038229
2.219540 1.847383 -0.045496
2.248301 1.850150 -0.040363
2.817901 1.751511 -0.048673
2.793954 1.788762 -0.057255
2.292446 1.852040 -0.059873
2.282714 1.853528 -0.026775
2.305948 1.853007 -0.059255
2.320729 1.855773 -0.032104
2.349146 1.857184 -0.041662
2.340967 1.855346 -0.060455
2.392012 1.861184 -0.028604
2.399686 1.859664 -0.060368
2.421279 1.861845 -0.050230
2.436054 1.862358 -0.058163
2.439274 1.863388 -0.045373
2.456681 1.865368 -0.031446
2.474595 1.865148 -0.052402
2.489450 1.866442 -0.046373
2.518186 1.868431 -0.041193
2.534934 1.867965 -0.059267
2.566137 1.870704 -0.045476
2.600985 1.873187 -0.033182
2.609287 1.873002 -0.039067
2.614203 1.873766 -0.031778
2.633095 1.871719 -0.059634
2.652423 1.872538 -0.050097
2.676436 1.870930 -0.055911
2.817813 1.808403 -0.031467
2.794364 1.799724 -0.053676
2.791707 1.796188 -0.057043
2.783233 1.826959 -0.052355
2.790183 1.833126 -0.042363
2.687076 1.870633 -0.051482
2.696614 1.872336 -0.035381
2.747445 1.868260 -0.030568
2.752746 1.864174 -0.036754
1.534555 1.730305 0.148528
1.570261 1.775760 0.139373
1.571960 1.765473 0.114036
1.597396 1.792831 0.139255
1.609933 1.798388 0.147706
1.632095 1.802827 0.130805
1.637862 1.803131 0.122447
1.663081 1.810051 0.139179
1.669966 1.810639 0.132869
1.691735 1.813227 0.125041
1.485490 1.709177 0.199368
1.484235 1.720803 0.210356
1.505629 1.726571 0.186094
1.522870 1.766648 0.208361
1.527796 1.760057 0.189456
1.539363 1.773308 0.197023
1.560826 1.785121 0.186483
1.736652 1.828284 0.285824
1.741290 1.827730 0.269536
1.772090 1.829903 0.261705
1.773524 1.829820 0.257873
1.786007 1.832135 0.284219
1.815866 1.833342 0.260861
1.871721 1.838128 0.269891
1.890128 1.840173 0.285836
1.930435 1.841923 0.255844
1.944408 1.843106 0.260498
1.979409 1.846267 0.279686
1.992123 1.846461 0.263798
2.037995 1.849867 0.277027
2.036567 1.849090 0.261474
2.053882 1.850014 0.260496
2.073106 1.850818 0.255868
2.088391 1.852789 0.277677
2.116386 1.854548 0.275957
1.448464 1.796045 0.387630
1.464542 1.797339 0.364929
1.482722 1.804963 0.389142
1.517478 1.809341 0.368305
1.515034 1.810516 0.390277
1.530177 1.810636 0.360413
1.586282 1.817657 0.359172
1.597443 1.820748 0.386448
1.613856 1.821599 0.372198
1.628679 1.823316 0.374401
1.652034 1.825495 0.373234
1.677025 1.827784 0.371451
1.699245 1.830718 0.392449
1.397838 1.790247 0.440177
1.429877 1.798137 0.436108
1.487785 1.809375 0.430924
1.482349 1.810522 0.462248
1.545891 1.817397 0.435675
1.542250 1.818148 0.456733
1.598233 1.823138 0.432202
1.616525 1.825173 0.436118
1.617552 1.825717 0.447087
1.648894 1.828754 0.447364
1.701501 1.833971 0.458717
1.713950 1.838906 0.551184
1.733211 1.840927 0.565070
1.744486 1.840989 0.545521
1.768735 1.843485 0.564356
1.120954 1.734635 0.804161
1.128388 1.735395 0.793527
1.138082 1.741536 0.783586
1.174106 1.772513 0.800473
1.146381 1.754508 0.791318
1.179683 1.774939 0.795794
1.243444 1.797193 0.786002
1.237642 1.795194 0.783001
1.279766 1.806445 0.793098
1.286243 1.808463 0.806957
1.314781 1.813107 0.811942
1.331170 1.814251 0.791089
1.340632 1.816071 0.809750
1.369610 1.817995 0.784073
1.371828 1.818983 0.805265
1.420357 1.823632 0.804993
1.394273 1.820021 0.777273
1.396370 1.821452 0.810983
1.450250 1.825859 0.781086
1.472078 1.828687 0.791682
1.509219 1.832352 0.788285
1.525335 1.833587 0.782273
1.535211 1.834597 0.787154
1.551488 1.836765 0.809060
1.713644 1.853444 0.939808
1.724197 1.854125 0.934482
1.745440 1.856432 0.950393
1.747509 1.855416 0.923909
1.787051 1.858245 0.919854
1.790908 1.859775 0.947813
1.807951 1.860434 0.935449
1.832800 1.862527 0.947376
1.861946 1.863032 0.916939
1.859075 1.864051 0.947433
1.907522 1.866023 0.920572
1.902205 1.866637 0.949574
1.946065 1.869027 0.931134
1.961626 1.870922 0.951394
1.979165 1.871878 0.939769
1.992645 1.872858 0.936952
2.017628 1.874589 0.929906
2.033496 1.875730 0.925916
2.060393 1.879097 0.951207
2.058393 1.877369 0.918077
2.104196 1.881700 0.928840
2.106157 1.882881 0.950746
2.127805 1.883538 0.925380
2.154865 1.886627 0.944162
2.167930 1.887438 0.937678
2.168508 1.886733 0.921797
2.196347 1.889089 0.926547
2.204205 1.890636 0.942874
2.252069 1.893547 0.919172
2.245974 1.893584 0.930016
2.245678 1.894013 0.938553
0.961965 1.788199 1.113102
0.951263 1.778206 1.092422
0.974054 1.783560 1.094113
0.983051 1.793424 1.119485
1.012722 1.791510 1.103619
1.019956 1.793184 1.108268
1.051059 1.795738 1.112317
1.063929 1.796192 1.111453
1.094552 1.797121 1.105705
1.103233 1.797551 1.104268
1.141902 1.801200 1.102043
1.162681 1.806837 1.112319
1.188583 1.807174 1.094265
1.190875 1.812274 1.124841
1.226824 1.813412 1.095957
1.256092 1.818096 1.101557
1.256943 1.817487 1.093108
1.297031 1.824207 1.102552
1.328008 1.829005 1.110456
1.347812 1.831610 1.112657
1.365026 1.834318 1.123822
1.365402 1.832571 1.098297
1.394399 1.835020 1.092048
1.422448 1.839734 1.122866
1.433836 1.839855 1.111947
1.425613 1.840205 1.125948
1.492842 1.843032 1.092072
1.496476 1.844017 1.103509
1.525860 1.847187 1.116464
1.548909 1.848637 1.105211
1.537413 1.848586 1.126209
1.564748 1.850263 1.112587
1.595230 1.851997 1.101095
1.614707 1.854192 1.116702
1.616757 1.853573 1.102075
1.639803 1.855399 1.106711
1.691130 1.858500 1.097034
1.701702 1.860366 1.120226
2.279032 1.912685 1.283331
2.284693 1.913258 1.288663
2.299007 1.913972 1.284510
2.325401 1.915886 1.287448
2.343878 1.917598 1.297804
2.366170 1.918659 1.287622
2.373058 1.918579 1.276356
2.398609 1.920949 1.295499
2.410838 1.921165 1.283092
2.421308 1.922333 1.298136
2.459460 1.924246 1.290668
2.443158 1.922411 1.266691
2.474060 1.924446 1.272394
2.493896 1.925718 1.271556
2.519654 1.927239 1.266289
2.569180 1.931045 1.295650
2.556761 1.929861 1.271526
2.598723 1.932306 1.266737
2.607034 1.932854 1.281444
2.635899 1.934024 1.275478
2.623261 1.933579 1.294034
2.660226 1.934949 1.280306
2.680203 1.935552 1.292927
2.684816 1.935740 1.269311
2.717115 1.936587 1.269550
2.745641 1.936609 1.286897
2.752413 1.936338 1.294064
2.775476 1.936063 1.283460
2.816878 1.932597 1.288161
2.933895 1.716750 1.293508
2.941000 1.707790 1.286618
2.932180 1.753133 1.290594
2.943606 1.736227 1.279778
2.931634 1.760885 1.290091
1.988086 1.899943 1.488170
2.094939 1.907849 1.485510
2.114293 1.909864 1.501403
2.134764 1.910227 1.476100
2.149956 1.912316 1.505175
2.180450 1.914339 1.506377
2.187086 1.914627 1.502611
2.196719 1.915458 1.509308
2.203867 1.914995 1.486905
2.745055 1.751556 1.484678
2.728697 1.731047 1.502583
2.723541 1.782050 1.500832
2.720566 1.764331 1.505949
2.730489 1.757122 1.497515
2.750364 1.735796 1.482023
2.263085 1.918491 1.483804
2.292375 1.920771 1.494648
2.330313 1.922704 1.483420
2.338506 1.923360 1.498605
2.345160 1.923752 1.509121
2.377200 1.925197 1.499701
2.424019 1.927203 1.480628
2.458912 1.928449 1.495687
2.464666 1.928831 1.486260
2.494476 1.928841 1.504318
2.500811 1.929084 1.498661
2.516065 1.929420 1.487578
2.539002 1.929968 1.479804
2.523280 1.712234 1.682690
2.532358 1.738567 1.671547
2.515676 1.781352 1.677088
2.514266 1.754310 1.683323
2.550868 1.732334 1.657358
2.544445 1.741842 1.661034
2.549937 1.772596 1.650908
2.276772 1.919245 1.671391
2.308141 1.918336 1.681164
2.318537 1.919201 1.664083
2.341816 1.917389 1.671736
2.359168 1.917211 1.665148
2.384658 1.911844 1.676456
2.371997 1.917861 1.654344
2.508531 1.813581 1.676579
2.499841 1.857864 1.669896
2.518391 1.824513 1.666473
2.508087 1.838725 1.670124
2.441064 1.891887 1.684692
2.424117 1.899282 1.684514
2.445914 1.903241 1.662135
2.486301 1.873098 1.668821
2.504026 1.864731 1.662365
2.506201 1.863245 1.662168
2.398919 1.844447 1.746948
2.262097 1.914808 1.722584
2.280646 1.909107 1.737561
2.319011 1.908805 1.727504
2.326161 1.907946 1.726709
2.360607 1.893820 1.735064
2.379761 1.869634 1.746135
2.399065 1.881327 1.723614
2.352726 1.896199 1.734923
2.360023 1.901072 1.722547
2.373419 1.897646 1.721179
2.415953 1.815034 1.744926
2.452495 1.790067 1.724117
2.418149 1.855293 1.729422
2.419457 1.843524 1.732877
2.408666 1.840769 1.741511
1.450081 1.873780 1.755922
1.464331 1.875885 1.781845
1.476182 1.876704 1.783038
1.495360 1.877259 1.767758
1.570231 1.882817 1.784400
1.593952 1.883568 1.762637
1.601647 1.885316 1.789202
1.626907 1.886174 1.765833
1.638872 1.886686 1.756391
1.639071 1.888135 1.787706
1.677006 1.890056 1.762264
1.676910 1.891136 1.789528
0.318505 1.760816 1.799711
0.337609 1.781461 1.810236
0.357098 1.791953 1.824659
0.391070 1.798361 1.823684
0.413531 1.797630 1.790876
0.457596 1.805241 1.812703
0.478001 1.807662 1.816270
0.492997 1.809331 1.818764
0.533462 1.811676 1.801935
0.553126 1.814529 1.814931
0.582975 1.815507 1.795515
0.586061 1.816258 1.802815
0.608840 1.818872 1.813658
0.632867 1.820243 1.804837
0.629738 1.820579 1.815551
0.710923 1.825770 1.808282
0.738266 1.827978 1.818584
0.741705 1.827443 1.804324
0.776232 1.828929 1.792630
0.805012 1.831197 1.799779
0.823475 1.832586 1.802021
0.833040 1.833515 1.808200
0.861034 1.835918 1.819417
0.896949 1.837603 1.797869
0.920916 1.839360 1.794786
0.923218 1.840119 1.807204
0.940782 1.840894 1.794192
0.959591 1.843592 1.823216
0.978063 1.843729 1.793375
0.981305 1.845225 1.824192
1.006948 1.846350 1.805489
1.036293 1.848520 1.811219
1.055577 1.849510 1.806587
1.059125 1.849115 1.791402
1.076700 1.850298 1.796003
1.089469 1.851095 1.796847
1.124006 1.853842 1.810398
1.142136 1.854758 1.804147
1.159487 1.855591 1.795004
1.164538 1.856661 1.810579
1.194129 1.858119 1.796075
1.202995 1.858802 1.797422
1.840822 1.781303 2.062337
1.838883 1.761111 2.067063
1.909767 1.709273 2.043518
1.850709 1.752914 2.063599
1.868673 1.747442 2.057096
1.901579 1.737260 2.043464
1.880581 1.729758 2.054561
1.862567 1.775788 2.054366
1.851279 1.761031 2.061844
1.879044 1.768188 2.048938
1.920496 1.735269 2.034467
1.253517 1.775416 2.312777
1.276896 1.765199 2.303313
1.317532 1.747417 2.286128
1.291997 1.747168 2.299531
1.307888 1.785718 2.283915
1.285577 1.784866 2.294410
1.319620 1.775407 2.280465
1.165350 1.853798 2.308662
1.198470 1.838869 2.313204
1.245034 1.799538 2.310297
1.280291 1.801507 2.290929
1.249417 1.794063 2.309942
1.235635 1.844925 2.284696
1.261068 1.834308 2.282015
1.158990 1.859412 2.299124
1.156565 1.864587 2.281441
1.292902 1.806632 2.282714
0.692171 1.860324 2.525353
0.698869 1.860325 2.549790
0.763257 1.858158 2.553890
0.776051 1.857815 2.545200
0.795017 1.855272 2.544742
0.807036 1.854054 2.542088
0.815601 1.849606 2.548450
0.839717 1.849343 2.526236
0.860977 1.830414 2.543816
0.855733 1.825248 2.557333
0.726082 1.860777 2.524784
0.769117 1.859661 2.534066
0.877855 1.820487 2.540201
0.881535 1.808087 2.546463
0.893362 1.814724 2.528980
0.894394 1.818607 2.525274
0.921030 1.790080 2.524542
-0.064427 1.710777 2.611959
-0.069366 1.721739 2.620032
-0.063449 1.740605 2.613611
-0.045554 1.780411 2.624973
-0.032564 1.781894 2.602776
-0.021063 1.788667 2.597724
-0.016283 1.792922 2.607172
0.003678 1.801521 2.609457
0.030523 1.807635 2.598918
0.045023 1.812122 2.614344
0.073434 1.816454 2.613252
0.095448 1.820418 2.626614
0.107524 1.820093 2.598735
0.125877 1.822495 2.599056
0.129730 1.824076 2.615416
0.185430 1.830003 2.605784
0.200510 1.832620 2.622544
0.208966 1.832918 2.613871
0.223127 1.834602 2.621758
0.248286 1.836010 2.606575
0.250329 1.837037 2.626816
0.289595 1.839299 2.606715
0.302375 1.840638 2.617702
0.327292 1.842801 2.625234
0.357938 1.844269 2.596953
0.373601 1.845402 2.601862
0.384869 1.846190 2.606390
0.409070 1.847472 2.604041
0.417801 1.848521 2.621671
0.441071 1.849064 2.595155
0.714713 1.749304 2.766172
0.714144 1.780772 2.750844
0.737155 1.720021 2.744888
0.603127 1.857427 2.764803
0.618982 1.857332 2.737612
0.649918 1.843864 2.766296
0.654493 1.843503 2.759784
0.691093 1.820317 2.745965
0.699292 1.807086 2.748227
0.665497 1.834451 2.764008
0.670751 1.832394 2.754953
0.660661 1.845704 2.732810
-0.132841 1.754782 2.927382
-0.118255 1.780732 2.921181
-0.128771 1.760715 2.941651
-0.100104 1.797472 2.933232
-0.111463 1.790156 2.926667
-0.059488 1.817245 2.936019
-0.068046 1.813841 2.908813
-0.029371 1.824361 2.935496
-0.010618 1.826328 2.913102
-0.000236 1.828308 2.925023
2.205243 1.833455 -0.215982
2.211457 1.830444 -0.234488
2.240710 1.832228 -0.221869
2.241365 1.836245 -0.202488
2.513835 1.718558 -0.223735
2.519084 1.711827 -0.223346
2.469923 1.783533 -0.233773
2.486397 1.751796 -0.231476
2.538448 1.719735 -0.203704
2.524009 1.741048 -0.210711
2.480809 1.787573 -0.228606
2.492839 1.768245 -0.225527
2.521337 1.758437 -0.211732
2.546775 1.788910 -0.203030
2.279414 1.829961 -0.227521
2.279123 1.835231 -0.206663
2.317241 1.828045 -0.227747
2.312971 1.834835 -0.206746
2.334345 1.825551 -0.233165
2.344427 1.836642 -0.202448
2.369505 1.827826 -0.222469
1.722038 1.753202 -0.080527
1.720974 1.766612 -0.061352
1.753455 1.770763 -0.089036
1.740550 1.777789 -0.064484
1.757770 1.781825 -0.075808
1.761317 1.786218 -0.068709
1.830730 1.808282 -0.091008
1.823972 1.809852 -0.067127
1.860353 1.814207 -0.092506
1.844841 1.815210 -0.060834
1.884581 1.817829 -0.089094
1.907345 1.821037 -0.078506
1.930993 1.822478 -0.087962
1.939039 1.824577 -0.072432
1.953459 1.824295 -0.090783
1.971966 1.825606 -0.094330
1.988013 1.828026 -0.077192
1.990111 1.829010 -0.063307
2.026167 1.830075 -0.084261
2.048517 1.832284 -0.066573
2.065194 1.832740 -0.084351
2.078749 1.834125 -0.077722
2.091060 1.835672 -0.064220
1.983206 1.840204 0.129187
2.011408 1.842205 0.134703
2.048002 1.843495 0.122539
2.079748 1.845008 0.118899
2.066695 1.845773 0.148124
2.113615 1.847140 0.118184
2.143102 1.849584 0.126697
2.153622 1.850896 0.139338
2.181159 1.853344 0.146354
2.183713 1.853200 0.138469
2.214011 1.854668 0.119259
2.200447 1.854875 0.147352
2.240309 1.857470 0.137626
2.268548 1.858853 0.118485
2.278355 1.859903 0.125282
2.292877 1.860944 0.121633
2.319649 1.864174 0.148102
2.310720 1.862357 0.120817
2.334522 1.864431 0.125058
2.355562 1.866837 0.142819
2.368870 1.867695 0.138108
2.393321 1.869043 0.125346
2.409437 1.870582 0.137394
2.436063 1.872544 0.143142
2.449175 1.873648 0.147986
2.464415 1.874520 0.141848
2.476451 1.874547 0.119843
2.505719 1.876700 0.122501
2.515131 1.877922 0.136885
2.525161 1.878303 0.128306
2.572883 1.882469 0.147642
2.578102 1.881650 0.123432
2.598638 1.882560 0.116571
2.610862 1.884002 0.128996
2.648006 1.886861 0.142588
2.672759 1.886373 0.115324
2.686352 1.887940 0.129345
2.702124 1.889886 0.147006
2.719415 1.889513 0.125183
2.736989 1.891259 0.137506
2.780156 1.892355 0.118139
2.793526 1.893005 0.119142
2.819936 1.894514 0.123149
3.096488 1.785658 0.117255
1.845545 1.841077 0.382434
1.867055 1.841898 0.367493
1.880338 1.843364 0.378391
1.910006 1.844825 0.364310
1.916400 1.845612 0.371928
1.946910 1.848527 0.390113
1.950115 1.847414 0.361544
1.971651 1.849727 0.377699
2.031297 1.854673 0.389640
2.049098 1.855646 0.382788
2.062214 1.855398 0.358600
2.090498 1.858592 0.382251
2.103989 1.859706 0.386828
2.144428 1.861444 0.368581
2.188808 1.863965 0.360816
2.187271 1.863970 0.363138
2.199545 1.864568 0.358388
2.224002 1.866360 0.361948
