-2.404202 1.906892 1.121614
-2.393630 1.906157 1.111703
-2.271092 1.898286 1.104048
-2.368214 1.904447 1.095615
-2.356062 1.903756 1.098376
-2.336603 1.902914 1.120919
-2.328744 1.902243 1.102881
-2.299127 1.900273 1.100113
-2.293527 1.900097 1.117280
-2.287852 1.899618 1.111647
-2.288298 1.899604 1.107967
-2.253611 1.897246 1.112334
-2.236303 1.895931 1.102920
-2.220782 1.895180 1.118560
-2.175741 1.892017 1.103256
-2.164714 1.891220 1.096989
-2.150708 1.890688 1.116914
-2.130608 1.889278 1.109761
-2.090061 1.886047 1.107112
-2.056646 1.883125 1.111360
-2.032061 1.880971 1.125269
-2.001755 1.877882 1.113083
-1.989909 1.876720 1.109186
-1.968029 1.874696 1.113514
-1.959450 1.873880 1.096599
-1.941986 1.872451 1.108013
-1.890985 1.869350 1.112718
-1.839504 1.866649 1.105489
-1.850288 1.866935 1.125687
-1.881610 1.868976 1.109278
-1.879141 1.868631 1.121090
-1.822394 1.865360 1.116375
-1.798935 1.863527 1.120776
-1.768531 1.861301 1.096819
-1.775208 1.861687 1.112896
-1.751891 1.859812 1.113270
-1.720675 1.857092 1.095219
-1.722611 1.857540 1.123016
-1.682091 1.853978 1.106539
-1.652019 1.851646 1.109573
-1.634809 1.850504 1.122604
-3.243199 1.651920 1.127332
-3.214013 1.665686 1.134890
-3.205139 1.704699 1.131684
-3.218786 1.694038 1.128019
-3.180272 1.664342 1.148956
-3.199913 1.660210 1.141164
-3.164623 1.656795 1.156505
-3.180219 1.710849 1.144484
-3.200173 1.690892 1.136613
-3.204745 1.713952 1.130084
-3.203408 1.745348 1.127374
-1.148178 1.735433 1.245055
-1.152640 1.752311 1.228064
-1.150054 1.744935 1.239151
-1.210567 1.823305 1.223322
-1.196655 1.817907 1.229092
-1.177164 1.800486 1.228345
-1.162293 1.779228 1.230697
-1.188926 1.815248 1.250362
-1.182124 1.805918 1.224342
-2.829305 1.781337 1.317809
-2.799695 1.782263 1.337889
-2.824260 1.780407 1.321204
-2.796016 1.835458 1.323988
-2.797589 1.807849 1.332161
-2.813875 1.807474 1.322726
-2.790314 1.835462 1.327454
-2.780730 1.847174 1.324804
-2.763311 1.840597 1.340001
-2.735676 1.860301 1.343469
-2.734088 1.883307 1.314491
-2.727757 1.875767 1.329308
-2.720783 1.880231 1.325568
-2.714683 1.873091 1.340247
-2.688900 1.880441 1.344954
-2.670978 1.891797 1.329258
-2.655995 1.898312 1.317191
-2.619129 1.897707 1.338514
-2.616342 1.899275 1.333900
-2.609468 1.899630 1.335784
-2.594880 1.903010 1.323574
-2.589553 1.900772 1.340620
-2.564230 1.903603 1.337510
-2.556149 1.904874 1.331353
-2.522752 1.904825 1.340289
-2.520033 1.906746 1.316621
-2.294622 1.675602 1.733286
-2.314702 1.663169 1.725106
-2.323417 1.656164 1.722129
-2.291409 1.670355 1.738860
-2.267295 1.696054 1.744298
-2.279353 1.698281 1.731995
-1.487505 1.867102 2.013069
-1.471700 1.866114 2.015824
-1.468767 1.866145 2.035548
-1.436984 1.863831 2.009135
-1.416661 1.862606 2.016832
-1.394189 1.861025 2.010234
-1.386674 1.860787 2.030956
-1.368767 1.859246 2.009833
-1.353168 1.858146 2.010106
-1.339457 1.857164 2.019768
-1.315713 1.855018 2.012386
-1.313818 1.855193 2.029814
-1.276604 1.851297 2.017881
-1.263716 1.850497 2.035505
-1.199249 1.831954 2.006234
-1.149743 1.798366 2.024964
-1.194931 1.829784 2.004622
-1.181455 1.826716 2.033746
-1.159833 1.813120 2.034125
-1.119152 1.740485 2.022953
-1.116660 1.715651 2.022857
-1.244129 1.847564 2.035321
-1.212070 1.840063 2.031206
-1.217041 1.839625 2.011058
-1.113369 1.676600 2.055447
-1.119468 1.666655 2.038266
-1.112039 1.696529 2.043679
-1.500057 1.867760 2.052225
-1.491856 1.867571 2.036114
-1.473251 1.866390 2.038254
-1.448176 1.864805 2.056368
-1.430718 1.863742 2.038993
-1.424903 1.863351 2.046015
-1.400171 1.861785 2.046121
-1.401525 1.861970 2.059652
-1.376996 1.860253 2.040969
-1.360954 1.859223 2.045904
-1.332727 1.856921 2.036597
-1.345740 1.858427 2.065894
-1.309431 1.855335 2.053717
-1.290189 1.853924 2.056318
-1.285027 1.852971 2.040564
-1.272936 1.852416 2.064960
-1.138733 1.792826 2.042074
-1.163880 1.821081 2.049981
-1.147898 1.810309 2.060791
-1.110266 1.724121 2.041443
-1.120684 1.772934 2.051895
-1.125926 1.778365 2.046694
-1.245512 1.848046 2.042118
-1.239112 1.847659 2.054821
-1.208381 1.840736 2.050393
-1.880685 1.652801 -0.702102
-1.833065 1.670632 -0.694982
-1.688784 1.733588 -0.606737
-1.690009 1.713444 -0.608777
-1.693660 1.769220 -0.602149
-1.749854 1.793665 -0.614516
-1.737509 1.780528 -0.625683
-1.723404 1.786849 -0.610661
-2.252002 1.721708 -0.444980
-2.215309 1.725191 -0.469626
-2.207675 1.748238 -0.449092
-2.193080 1.741243 -0.468928
-2.171735 1.750137 -0.472607
-2.169934 1.769827 -0.444702
-2.148575 1.766413 -0.464439
-2.143096 1.768085 -0.465778
-2.121973 1.783465 -0.454120
-2.103553 1.794558 -0.446712
-2.088408 1.799783 -0.445415
-2.051797 1.800907 -0.465820
-2.055236 1.797821 -0.469479
-2.018290 1.818170 -0.453884
-2.011107 1.821661 -0.452102
-1.648318 1.667590 -0.460817
-1.634683 1.706376 -0.445428
-1.643271 1.686168 -0.465418
-1.638549 1.707837 -0.473617
-1.508361 1.765752 -0.177880
-1.756510 1.849900 -0.149916
-1.735149 1.848925 -0.138917
-1.715586 1.848227 -0.147045
-1.709471 1.848188 -0.154966
-1.669840 1.845375 -0.130981
-1.680814 1.846887 -0.160639
-1.636879 1.842782 -0.149702
-1.619649 1.840063 -0.141674
-1.499091 1.735259 -0.139280
-1.504217 1.736006 -0.156511
-1.492772 1.754673 -0.139460
-1.499379 1.760033 -0.160122
-1.504863 1.799035 -0.156097
-1.492520 1.781900 -0.146476
-2.498989 1.893061 -0.028668
-2.487346 1.892976 -0.022084
-2.451068 1.889968 -0.035147
-2.471706 1.892917 -0.011587
-2.442772 1.890622 -0.020577
-2.439525 1.891568 -0.008325
-2.415506 1.887506 -0.032115
-2.394679 1.887340 -0.019424
-2.386244 1.886157 -0.024668
-2.359112 1.885037 -0.020135
-2.345572 1.885256 -0.010758
-2.328789 1.884207 -0.013633
-2.318011 1.882693 -0.026719
-2.307482 1.882162 -0.029801
-2.273028 1.882072 -0.012288
-2.261338 1.880264 -0.032380
-2.215120 1.878501 -0.011069
-1.524334 1.833475 0.053272
-1.512447 1.831434 0.041658
-1.744000 1.849212 0.029769
-1.731472 1.848584 0.054635
-1.711576 1.847452 0.041451
-1.709167 1.847447 0.051021
-1.671627 1.845104 0.029675
-1.673992 1.845480 0.042086
-1.644211 1.843809 0.039991
-1.631536 1.843251 0.044820
-1.616420 1.841907 0.029351
-1.602343 1.841474 0.045528
-1.576277 1.839758 0.052070
-1.566409 1.838813 0.041570
-1.547027 1.836955 0.028126
-1.499478 1.706306 0.037312
-1.481791 1.730709 0.040420
-1.463736 1.764109 0.046259
-1.460300 1.768941 0.054768
-1.464486 1.802505 0.032708
-1.460504 1.783399 0.044367
-1.500156 1.827345 0.050876
-1.492501 1.824996 0.029372
-2.694629 1.904575 0.061549
-2.664010 1.903131 0.058971
-2.659031 1.903540 0.080612
-2.546782 1.898620 0.076438
-2.540209 1.898583 0.082497
-2.516039 1.897777 0.086050
-2.635025 1.901976 0.062946
-2.616130 1.901516 0.070516
-2.588394 1.900168 0.067616
-2.559062 1.899716 0.089857
-2.257622 1.883042 0.097683
-2.230917 1.880912 0.109939
-2.228734 1.880716 0.116076
-2.199064 1.878385 0.102761
-2.180386 1.876865 0.101218
-2.178166 1.876945 0.118684
-2.150427 1.874600 0.099027
-2.150677 1.874828 0.111985
-2.113839 1.871868 0.099011
-2.127314 1.873183 0.116311
-2.104185 1.871140 0.097754
-2.077659 1.869369 0.108421
-2.054805 1.867714 0.112044
-2.035427 1.866314 0.114867
-2.015047 1.864884 0.107695
-1.512595 1.655331 0.104144
-2.004318 1.864238 0.104754
-1.958779 1.861743 0.112581
-1.951154 1.861246 0.099299
-1.931984 1.860152 0.093647
-1.932340 1.860314 0.113757
-1.915322 1.859238 0.094990
-1.902770 1.858568 0.100008
-1.871600 1.856764 0.099050
-1.852849 1.855588 0.102535
-1.824103 1.853600 0.112619
-1.799536 1.852258 0.094470
-1.781468 1.850812 0.118336
-2.474616 1.898518 0.164545
-2.443805 1.896919 0.171775
-2.420040 1.895555 0.179219
-2.400398 1.893961 0.176949
-2.394555 1.893317 0.165669
-2.491548 1.899640 0.176242
-2.498051 1.899688 0.162373
-2.369176 1.891478 0.179242
-2.338719 1.889122 0.181136
-2.339035 1.889008 0.154384
-2.321072 1.887765 0.169925
-2.295746 1.885951 0.169367
-2.281793 1.884921 0.164635
-3.442997 1.942300 0.315792
-3.415266 1.946519 0.329239
-3.411572 1.947453 0.337691
-3.363560 1.947185 0.333036
-3.354270 1.947257 0.335361
-3.353757 1.945839 0.314508
-3.320028 1.946478 0.333078
-3.297446 1.945578 0.325717
-3.292277 1.945261 0.323341
-3.288239 1.945634 0.335617
-3.242895 1.942601 0.314479
-3.258107 1.944438 0.338099
-3.232431 1.943161 0.339099
-3.210373 1.940925 0.322160
-3.195061 1.939864 0.318271
-3.174857 1.939005 0.320765
-3.168776 1.938475 0.316808
-3.159380 1.938811 0.332814
-3.116413 1.936341 0.335590
-3.108988 1.935696 0.332527
-3.075881 1.933818 0.336377
-3.021373 1.930814 0.328554
-2.999117 1.929289 0.323933
-3.006791 1.929626 0.320040
-2.977829 1.928159 0.338076
-2.952831 1.926102 0.332274
-2.949954 1.926090 0.339762
-2.920921 1.923898 0.332390
-2.919151 1.923759 0.330660
-2.895239 1.922092 0.314889
-2.887255 1.921806 0.324861
-2.858499 1.920388 0.330803
-2.855036 1.920013 0.321981
-2.827108 1.918456 0.313103
-2.816256 1.918123 0.325144
-2.810338 1.918040 0.336512
-2.780987 1.916429 0.332041
-2.760775 1.914976 0.313973
-2.692931 1.911578 0.324423
-2.676391 1.910688 0.323817
-2.659881 1.909747 0.339560
-2.612767 1.906814 0.340566
-2.608792 1.906735 0.315116
-2.581847 1.904993 0.315085
-2.562548 1.903769 0.313108
-2.559699 1.903652 0.335423
-2.528485 1.901930 0.341031
-3.595875 1.789180 0.382704
-3.601278 1.803530 0.393532
-3.600920 1.825377 0.397944
-3.587382 1.824557 0.376131
-3.584077 1.862583 0.380593
-3.580685 1.873455 0.380664
-3.574933 1.901205 0.391148
-3.555552 1.922359 0.394772
-3.554760 1.910880 0.372865
-3.558712 1.924614 0.402931
-3.542533 1.935631 0.404056
-3.527202 1.935294 0.382193
-2.506473 1.901355 0.447732
-2.485361 1.900590 0.453921
-2.477597 1.900327 0.448433
-2.458326 1.899463 0.463190
-2.362534 1.894119 0.439609
-2.359374 1.893947 0.442100
-2.353281 1.893625 0.449644
-2.325089 1.892233 0.446969
-2.310325 1.891495 0.444482
-2.298460 1.891000 0.457592
-2.288273 1.890392 0.437712
-2.255462 1.888848 0.463647
-2.229712 1.887030 0.458718
-2.213921 1.885949 0.458623
-2.191443 1.884431 0.457213
-2.172148 1.883200 0.459502
-2.156790 1.882010 0.447933
-2.145754 1.881464 0.460390
-2.123470 1.879817 0.450097
-2.101228 1.878314 0.447230
-2.100770 1.878639 0.465867
-2.060338 1.875681 0.450385
-2.053318 1.875228 0.451106
-2.042068 1.874177 0.438738
-2.013767 1.872839 0.461956
-1.989938 1.870830 0.447584
-1.964628 1.869155 0.449928
-1.953260 1.868685 0.462324
-1.931801 1.866714 0.446552
-1.903735 1.865150 0.465230
-1.893878 1.863657 0.437160
-1.878335 1.863145 0.462508
-1.862342 1.861573 0.443782
-1.835965 1.859873 0.457158
-1.837573 1.859823 0.444113
-1.813802 1.858166 0.463567
-1.799863 1.856587 0.435715
-1.781502 1.854870 0.448496
-1.759917 1.852641 0.443644
-1.753546 1.851921 0.441460
-1.731050 1.849537 0.439556
-1.723727 1.849120 0.445901
-1.707642 1.848129 0.454218
-1.672336 1.845399 0.446788
-1.655536 1.844717 0.449478
-1.643154 1.844604 0.456152
-1.623460 1.842955 0.441791
-1.617347 1.844478 0.466333
-1.597703 1.842265 0.442336
-1.576993 1.842238 0.448485
-1.568027 1.842062 0.448344
-1.540641 1.842161 0.455473
-1.537604 1.841611 0.446180
-1.517558 1.842412 0.458974
-3.651466 1.967252 0.650504
-3.664012 1.963755 0.634416
-3.645766 1.966832 0.635547
-3.639963 1.966838 0.625079
-3.603567 1.969043 0.645377
-3.580377 1.968568 0.631350
-3.573269 1.968800 0.643665
-3.524975 1.967991 0.652484
-3.523904 1.967750 0.636079
-3.367328 1.960796 0.628353
-3.348050 1.959743 0.639593
-3.341874 1.959397 0.635758
-3.328336 1.958688 0.638967
-3.300663 1.957099 0.647318
-3.292918 1.956658 0.649652
-3.269803 1.955442 0.642584
-3.257418 1.954599 0.627117
-3.239806 1.953701 0.639941
-3.232291 1.953197 0.635932
-3.196591 1.951003 0.642366
-3.173087 1.949434 0.635523
-3.169280 1.949297 0.640037
-3.149922 1.947912 0.634432
-3.132103 1.946527 0.625444
-3.116791 1.946000 0.640371
-3.106778 1.945523 0.643655
-3.077773 1.943411 0.631652
-3.060489 1.943040 0.647182
-3.070457 1.942821 0.626518
-3.030650 1.941389 0.648844
-3.020252 1.940451 0.637401
-3.007020 1.939474 0.633926
-2.993149 1.938742 0.645247
-2.974139 1.937385 0.646034
-2.959606 1.936260 0.644969
-2.945046 1.934855 0.632058
-2.925796 1.933341 0.636643
-2.911278 1.932106 0.638748
-2.904997 1.931483 0.637320
-2.874681 1.928562 0.634548
-2.870886 1.928644 0.651431
-2.834228 1.925554 0.653042
-2.833925 1.924935 0.629584
-2.814772 1.923576 0.635200
-2.798131 1.922171 0.629166
-2.794897 1.921865 0.626623
-2.768993 1.920916 0.653995
-2.754528 1.919660 0.645213
-2.737123 1.918378 0.642329
-2.710520 1.916921 0.646545
-2.724660 1.917162 0.625627
-2.670750 1.914471 0.624188
-2.657928 1.913919 0.638216
-2.643347 1.913222 0.650766
-2.637962 1.912777 0.643877
-2.622742 1.911695 0.636000
-2.604805 1.910442 0.626710
-2.596848 1.910330 0.654222
-2.572261 1.908242 0.635374
-2.568155 1.908393 0.652065
-2.523631 1.905647 0.653313
-2.524407 1.905117 0.635227
-3.493818 1.966460 0.624392
-3.491482 1.966802 0.655039
-3.478307 1.965837 0.629980
-3.463675 1.965428 0.647182
-3.439162 1.964083 0.635401
-3.428945 1.963520 0.630510
-3.421685 1.963132 0.627740
-3.398609 1.962397 0.640164
-3.400137 1.962678 0.650547
-2.500943 1.905922 0.749204
-2.462300 1.904402 0.777465
-2.449267 1.903152 0.763152
-2.426817 1.901332 0.749773
-2.380800 1.898816 0.767550
-2.360609 1.897557 0.765365
-2.351733 1.897263 0.775140
-2.328383 1.895822 0.762861
-2.310519 1.895239 0.777397
-2.285356 1.893689 0.757673
-2.273605 1.893162 0.755265
-2.255834 1.892608 0.777981
-2.237401 1.891602 0.763449
-2.211665 1.890023 0.750733
-2.206678 1.889853 0.764454
-2.197730 1.889384 0.769795
-2.168015 1.887295 0.760056
-2.145962 1.886110 0.778097
-2.123153 1.884430 0.764176
-2.118384 1.884173 0.767050
-2.103135 1.883377 0.776791
-2.085023 1.882092 0.756327
-2.055373 1.880738 0.777519
-2.027061 1.879133 0.780321
-1.990581 1.876721 0.759808
-1.941218 1.873347 0.755053
-1.932500 1.872643 0.779607
-1.905730 1.870676 0.761978
-1.885917 1.869331 0.776684
-1.857999 1.867432 0.779246
-1.849872 1.866859 0.770756
-1.843517 1.866507 0.775751
-1.883065 1.869054 0.751385
-1.798527 1.863944 0.773913
-1.808441 1.864309 0.750718
-1.765533 1.862491 0.777178
-1.764890 1.862450 0.769482
-2.001081 1.877632 0.822874
-1.980762 1.876237 0.839466
-1.971869 1.875560 0.821499
-1.962009 1.874846 0.816845
-1.943784 1.873553 0.834709
-1.935194 1.872966 0.839211
-1.912479 1.871304 0.816070
-1.897823 1.870439 0.833806
-1.847447 1.867297 0.840934
-1.843988 1.866934 0.818269
-1.812300 1.865194 0.816450
-1.792125 1.864077 0.840140
-1.788560 1.863841 0.838427
-1.766065 1.862407 0.825864
-1.746879 1.861112 0.832731
-1.729357 1.859929 0.835228
-1.698304 1.858303 0.813068
-1.705047 1.858555 0.826129
-1.693003 1.857785 0.835604
-1.661635 1.856596 0.820191
-1.643744 1.855636 0.837997
-1.630053 1.854998 0.841585
-1.628527 1.855151 0.816169
-1.601896 1.853674 0.835436
-1.577714 1.852667 0.819596
-1.563064 1.851647 0.841684
-1.548011 1.851226 0.820189
-1.539440 1.850759 0.823620
-1.514672 1.849352 0.833237
-1.222658 1.667446 0.832949
-1.226681 1.697139 0.813586
-1.225975 1.690787 0.835321
-2.607838 1.915308 0.864926
-2.603137 1.914854 0.856180
-2.599520 1.914860 0.867578
-2.566335 1.912538 0.848772
-2.546028 1.911888 0.870701
-2.534486 1.910639 0.845021
-2.526377 1.910686 0.865474
-3.643667 1.673695 0.896703
-3.656476 1.710546 0.879349
-3.656362 1.699759 0.879516
-3.639327 1.668057 0.902488
-3.642258 1.697273 0.899553
-3.659700 1.738292 0.877007
-3.644936 1.763416 0.888692
-3.649951 1.770637 0.883618
-3.644479 1.799254 0.881497
-3.652461 1.794519 0.877357
-3.639693 1.712005 0.903103
-3.627653 1.767583 0.902018
-3.621104 1.790878 0.899404
-3.612711 1.800208 0.901452
-3.617707 1.821713 0.889813
-3.605446 1.813876 0.900419
-3.623220 1.695390 0.925958
-3.629155 1.691900 0.917433
-3.623317 1.716030 0.923577
-3.633900 1.722816 0.908585
-3.621497 1.749978 0.914869
-3.609897 1.758295 0.923105
-3.614511 1.778923 0.908969
-3.590170 1.778727 0.929704
-3.582574 1.788112 0.930751
-3.601922 1.783386 0.916659
-3.591966 1.805851 0.913494
-3.563551 1.814765 0.929478
-3.576205 1.811737 0.922096
-3.551234 1.850962 0.918019
-3.559747 1.857956 0.908702
-3.533185 1.838617 0.935241
-3.543324 1.858636 0.918104
-3.528412 1.881051 0.912771
-3.536170 1.871519 0.914359
-3.504714 1.874923 0.928916
-3.516785 1.886060 0.916101
-3.492821 1.910336 0.912611
-3.482529 1.902245 0.923726
-3.473078 1.926515 0.910248
-3.455912 1.917130 0.925885
-3.453712 1.917807 0.926627
-3.423411 1.933422 0.927817
-3.447032 1.940381 0.907472
-3.419904 1.937401 0.923873
-3.407036 1.935152 0.934924
-3.398749 1.945962 0.921012
-3.366471 1.947855 0.934009
-3.375714 1.953452 0.912074
-3.357404 1.952571 0.920994
-3.338995 1.955807 0.910411
-3.316469 1.951588 0.936826
-3.311157 1.956046 0.908879
-3.280138 1.954057 0.917193
-3.267243 1.953924 0.919191
-3.236646 1.952773 0.917894
-3.218189 1.951344 0.922580
-2.318986 1.900122 0.990816
-2.249341 1.895573 0.993374
-2.230891 1.894222 0.980702
-2.224502 1.893806 0.969171
-2.200718 1.892176 0.974693
-2.181843 1.891066 0.969161
-2.155423 1.889335 0.970304
-2.142625 1.888440 0.990879
-2.106422 1.885806 0.999290
-2.098981 1.885193 0.997354
-2.097933 1.884943 0.971461
-2.070761 1.882807 0.983670
-2.031686 1.879483 0.982595
-2.011379 1.877873 0.973891
-1.980719 1.875212 0.999203
-1.986356 1.875869 0.969253
-1.966392 1.874264 0.999188
-1.949687 1.873380 0.979032
-1.946590 1.873009 1.000182
-1.924215 1.872292 0.979209
-1.832739 1.867633 0.970651
-1.872175 1.870278 0.972119
-1.836835 1.868069 0.989874
-1.817392 1.866320 0.977902
-1.796703 1.864355 0.981577
-1.773585 1.862088 0.997997
-1.767876 1.861512 0.971827
-1.750189 1.859895 0.979937
-1.735186 1.858645 0.972009
-1.721523 1.857492 0.995321
-1.684697 1.854759 0.992999
-1.666910 1.853602 0.972463
-1.659175 1.852871 0.992368
-1.632387 1.850814 0.997276
-1.609776 1.849800 0.973999
-1.580460 1.847738 0.997109
-1.574332 1.848338 0.975084
-1.566254 1.847939 0.978586
-1.557881 1.847193 0.991085
-1.530634 1.846966 0.972485
-1.525596 1.846062 0.992890
-1.186329 1.679021 1.011594
-1.180507 1.697071 1.025442
-1.185900 1.689584 1.013783
-1.363018 1.835429 1.011488
-1.350671 1.833970 1.009015
-1.329346 1.830714 1.020016
-1.308070 1.824951 1.001977
-1.306051 1.825222 1.019412
-1.283372 1.818758 1.021328
-1.274864 1.815706 1.025471
-1.493480 1.844202 1.016900
-1.463302 1.842832 1.003247
-1.438604 1.841110 1.007352
-1.425907 1.839977 1.025452
-1.393157 1.838076 1.005287
-1.395028 1.838117 1.018468
-1.198788 1.732236 1.001660
-1.208265 1.767416 1.022467
-1.205274 1.767304 1.027592
-1.201227 1.764301 1.030231
-1.186000 1.741510 1.031554
-1.189649 1.720458 1.010945
-1.244406 1.800161 1.020934
-1.243764 1.792496 1.004881
-1.230254 1.782547 1.006734
-1.250865 1.797834 1.001585
-1.218318 1.782139 1.027969
-1.215695 1.774546 1.017476
-2.481991 1.905179 1.332964
-2.479582 1.906089 1.315096
-2.452776 1.904400 1.333616
-2.443814 1.904413 1.325211
-2.423504 1.903304 1.344305
-2.413373 1.903394 1.327773
-2.405584 1.903370 1.318302
-2.268005 1.899241 1.331887
-2.370152 1.901990 1.331685
-2.362286 1.901930 1.324626
-2.345314 1.901198 1.333214
-2.333982 1.901006 1.329272
-2.323769 1.900754 1.334049
-2.294806 1.900033 1.323275
-2.291523 1.899963 1.325980
-2.275598 1.899436 1.322989
-2.260057 1.898924 1.329728
-2.223637 1.897284 1.343967
-2.173052 1.894200 1.343203
-2.178458 1.894473 1.324724
-2.159322 1.893288 1.320910
-2.137003 1.891892 1.334208
-2.133117 1.891511 1.317646
-2.122741 1.890753 1.333412
-2.104245 1.889411 1.343737
-2.088632 1.887707 1.318788
-2.069145 1.885888 1.327440
-2.033082 1.882272 1.335223
-2.718153 1.671534 1.432970
-2.733362 1.688951 1.419615
-2.744696 1.702769 1.408253
-2.729822 1.692780 1.421874
-2.707754 1.706182 1.439343
-2.705055 1.724662 1.438218
-2.726799 1.729066 1.417361
-2.709803 1.737265 1.430649
-2.722872 1.759274 1.410506
-2.725034 1.757733 1.409157
-2.686661 1.770242 1.436767
-2.702833 1.779087 1.419550
-2.687636 1.774421 1.434123
-2.699953 1.804138 1.409753
-2.669866 1.795540 1.436109
-2.661528 1.802724 1.436719
-2.689200 1.810117 1.413414
-2.661030 1.824442 1.420777
-2.620746 1.824815 1.438345
-2.640366 1.847711 1.410344
-2.616859 1.850461 1.415741
-2.593099 1.860068 1.414526
-2.599389 1.851034 1.421216
-2.578305 1.861758 1.418119
-2.578606 1.869688 1.410171
-2.558181 1.864515 1.423437
-2.565197 1.847660 1.436579
-2.562614 1.871258 1.414379
-2.531707 1.875110 1.420788
-2.640634 1.673827 1.493456
-2.665311 1.653193 1.473360
-2.654628 1.691706 1.482393
-2.651006 1.683660 1.485617
-2.657034 1.701402 1.479927
-2.630821 1.690795 1.500456
-2.631168 1.701831 1.499154
-2.646728 1.730472 1.483259
-2.650182 1.737595 1.479351
-2.646905 1.744810 1.479753
-2.623477 1.734495 1.498108
-2.608530 1.771006 1.490497
-2.637416 1.771244 1.473250
-2.595046 1.770035 1.497955
-2.630914 1.777486 1.472691
-2.601174 1.777170 1.489738
-2.596071 1.795362 1.475903
-2.566021 1.787918 1.497218
-2.543712 1.820734 1.472291
-2.519327 1.824305 1.484440
-2.619083 1.669104 1.509280
-2.605111 1.692945 1.516879
-2.589195 1.701111 1.524193
-2.585954 1.731723 1.519351
-2.594050 1.756859 1.505807
-2.554090 1.739241 1.533150
-2.561418 1.746310 1.527269
-2.559203 1.754967 1.523469
-2.566448 1.765760 1.514049
-2.565504 1.780166 1.504434
-2.536275 1.782750 1.516729
-2.514651 1.788243 1.524522
-2.513037 1.809820 1.505523
-2.123195 1.888860 1.542796
-2.128181 1.888824 1.558968
-2.097148 1.887327 1.545919
-2.069272 1.885840 1.537812
-2.048194 1.884788 1.550845
-2.025272 1.883717 1.557821
-2.009603 1.882606 1.536968
-1.994843 1.881747 1.550010
-1.964424 1.879136 1.535001
-1.962960 1.879333 1.550785
-1.941626 1.877487 1.546025
-1.920990 1.876238 1.557896
-1.912829 1.874806 1.535646
-1.887822 1.873889 1.552598
-1.874550 1.872053 1.539899
-1.876437 1.873717 1.561271
-1.850850 1.872119 1.559008
-1.831280 1.868328 1.535724
-1.796577 1.867017 1.547404
-1.781672 1.866083 1.545723
-1.769132 1.864800 1.538990
-1.813631 1.869852 1.559200
-1.729362 1.867898 1.553156
-1.725634 1.866659 1.541028
-1.741898 1.868858 1.563632
-1.716523 1.868487 1.553563
-1.713201 1.868983 1.557739
-1.695704 1.867780 1.539729
-1.678861 1.867342 1.535255
-1.652624 1.867512 1.546856
-1.635631 1.867015 1.551202
-1.678435 1.868762 1.556474
-1.681092 1.868226 1.547588
-1.624416 1.865951 1.544719
-1.582324 1.864447 1.564251
-1.542145 1.860829 1.539345
-1.539767 1.861026 1.545445
-1.528339 1.859897 1.535278
-2.089257 1.655857 1.901788
-2.092235 1.673172 1.899228
-2.105745 1.708504 1.880708
-2.089600 1.681046 1.900951
-2.075742 1.710981 1.902473
-2.092118 1.704887 1.892026
-2.082476 1.739139 1.885239
-2.083758 1.728964 1.888934
-2.075031 1.749554 1.885477
-2.070191 1.714206 1.905008
-2.050344 1.739469 1.907169
-2.048326 1.748238 1.904444
-2.073330 1.765174 1.879295
-2.056945 1.775987 1.884759
-2.030139 1.776086 1.904159
-2.041030 1.794374 1.885483
-2.016862 1.815505 1.889006
-2.009733 1.805967 1.902420
-2.007326 1.823779 1.888730
-2.000633 1.838069 1.880740
-1.965208 1.843486 1.906076
-1.964294 1.849429 1.897992
-1.950733 1.862185 1.884060
-1.928275 1.866930 1.901622
-1.917594 1.873809 1.879912
-1.908144 1.871115 1.909956
-1.894228 1.875862 1.889128
-1.866253 1.874657 1.934365
-1.875420 1.875829 1.914245
-1.847977 1.876183 1.929523
-1.807735 1.877064 1.932284
-1.802338 1.877310 1.912509
-1.787642 1.877146 1.925908
-1.762525 1.876956 1.921949
-1.735008 1.876544 1.910943
-1.744861 1.876724 1.927402
-1.726812 1.876524 1.926204
-1.718985 1.876488 1.938874
-1.690426 1.875865 1.925189
-1.680310 1.875656 1.926658
-1.661151 1.875264 1.929688
-1.657566 1.875299 1.938352
-1.632859 1.874126 1.914132
-1.611300 1.873455 1.924324
-1.584569 1.871765 1.913759
-1.597762 1.873290 1.939032
-1.541200 1.869105 1.922281
-1.151430 1.654544 1.939147
-1.155004 1.655890 1.927532
-1.156668 1.702757 1.923828
-1.151020 1.707233 1.938600
-1.500747 1.865814 1.922513
-1.465248 1.862580 1.915337
-1.452693 1.861822 1.918258
-1.876016 1.868220 1.960060
-1.857586 1.869080 1.971021
-1.839763 1.874105 1.958598
-1.837406 1.875148 1.950701
-1.811109 1.875848 1.958001
-1.810147 1.876336 1.951719
-1.755917 1.876775 1.946988
-1.749155 1.876149 1.968096
-1.705573 1.876238 1.944469
-1.704250 1.875867 1.962953
-1.683289 1.875674 1.954325
-1.678564 1.875564 1.958535
-1.643158 1.874998 1.971579
-1.613529 1.874035 1.942922
-1.597049 1.873418 1.949716
-1.572628 1.872066 1.945179
-1.509169 1.867559 1.949931
-1.526567 1.869263 1.969528
-1.519176 1.868548 1.959041
-1.145197 1.674460 1.951611
-1.149450 1.664225 1.942381
-1.136154 1.710504 1.972669
-1.503140 1.867592 1.970691
-1.503631 1.867507 1.966567
-1.476179 1.865447 1.964780
-1.455912 1.864295 1.970338
-2.113485 1.670175 -0.570595
-2.093287 1.667229 -0.581190
-2.089716 1.682197 -0.571359
-2.045535 1.678612 -0.594618
-2.046785 1.671616 -0.599075
-2.057490 1.688190 -0.581652
-2.033930 1.680761 -0.598492
-2.024580 1.703395 -0.587173
-2.019341 1.725705 -0.572788
-1.660611 1.675676 -0.534179
-1.651886 1.704182 -0.520933
-1.657606 1.682590 -0.527543
-2.007162 1.782374 -0.520251
-1.983143 1.789586 -0.526407
-1.957920 1.795069 -0.535644
-1.956733 1.802504 -0.525496
-1.951473 1.813265 -0.509409
-1.925158 1.820181 -0.508279
-1.934724 1.810142 -0.524044
-1.918634 1.817249 -0.518212
-1.916090 1.814865 -0.525205
-1.888170 1.822933 -0.519132
-1.871716 1.820746 -0.534028
-1.867128 1.828536 -0.510831
-1.827556 1.832737 -0.507857
-1.803729 1.828830 -0.531501
-1.794171 1.833748 -0.509726
-1.788156 1.829180 -0.532256
-1.759991 1.828297 -0.536038
-1.646152 1.713821 -0.508360
-1.650322 1.712995 -0.521552
-1.646492 1.761954 -0.523786
-1.753722 1.829122 -0.530491
-1.745371 1.829412 -0.527165
-1.706866 1.823534 -0.536445
-1.716509 1.829945 -0.512163
-1.653820 1.786157 -0.529483
-1.647827 1.783588 -0.515848
-1.695807 1.821708 -0.535908
-1.669848 1.811629 -0.526178
-2.661088 1.784685 -0.327851
-2.638585 1.796496 -0.335707
-2.626600 1.776418 -0.348883
-2.621484 1.824491 -0.326689
-2.608145 1.822477 -0.333248
-2.602831 1.806503 -0.345644
-2.583679 1.833113 -0.330611
-2.582259 1.816336 -0.343128
-2.567281 1.811190 -0.347372
-2.556958 1.835260 -0.329138
-2.534910 1.805801 -0.346571
-2.537435 1.832937 -0.328327
-2.590290 1.840260 -0.323637
-2.261154 1.852940 -0.314536
-2.236962 1.856943 -0.295176
-2.218507 1.850511 -0.315218
-2.188640 1.852462 -0.300288
-2.192777 1.855603 -0.290165
-2.164793 1.847851 -0.311329
-2.138082 1.846869 -0.308967
-2.121781 1.850716 -0.294784
-2.088979 1.847168 -0.310436
-2.083999 1.850064 -0.299070
-2.053896 1.848518 -0.313387
-2.052314 1.852448 -0.289188
-1.598595 1.662532 -0.297990
-1.589958 1.694682 -0.300157
-1.595863 1.695565 -0.310921
-1.995922 1.852494 -0.307530
-1.981683 1.853016 -0.305618
-1.973298 1.852931 -0.306949
-1.950459 1.853508 -0.289279
-1.942967 1.853177 -0.298048
-1.923130 1.852439 -0.312456
-1.914847 1.852338 -0.308588
-1.881477 1.851334 -0.296168
-1.862996 1.850556 -0.296529
-1.847787 1.849415 -0.316406
-1.818887 1.848372 -0.301961
-1.777951 1.845718 -0.313542
-1.763228 1.845370 -0.302313
-1.657655 1.835319 -0.308193
-1.651862 1.832713 -0.316980
-1.638671 1.831845 -0.295118
-1.590944 1.727763 -0.311459
-1.586357 1.724694 -0.301686
-1.578173 1.769766 -0.287762
-1.589086 1.756896 -0.313899
-2.473541 1.862471 -0.278609
-2.473370 1.867750 -0.266832
-2.466179 1.870838 -0.256210
-2.447205 1.861511 -0.273381
-2.436077 1.861752 -0.270351
-2.411371 1.864714 -0.259959
-2.393556 1.862765 -0.262620
-2.386965 1.865533 -0.256588
-2.358732 1.864778 -0.259664
-2.343966 1.860513 -0.278437
-2.326681 1.864782 -0.265472
-2.324361 1.863191 -0.273968
-2.305408 1.865913 -0.259328
-2.282492 1.862959 -0.275267
-2.274985 1.861814 -0.282604
-2.241652 1.861198 -0.272920
-2.210121 1.858220 -0.282271
-2.181278 1.856252 -0.285741
-2.173664 1.858721 -0.261140
-2.156789 1.857261 -0.266313
-2.139533 1.855696 -0.272959
-2.094565 1.854188 -0.273755
-2.056332 1.854167 -0.270602
-2.036640 1.853251 -0.283679
-2.025566 1.854526 -0.270725
-2.492934 1.874181 -0.248800
-2.485822 1.874231 -0.245395
-2.467445 1.873975 -0.238292
-2.455792 1.871686 -0.247701
-2.443876 1.875017 -0.226230
-2.397216 1.871129 -0.230509
-2.390071 1.870361 -0.233214
-2.381847 1.867506 -0.248662
-2.353094 1.867094 -0.250337
-2.381609 1.870170 -0.232336
-2.358486 1.869587 -0.231536
-2.353422 1.870272 -0.225025
-2.309914 1.867967 -0.238081
-2.293840 1.867009 -0.245314
-2.288055 1.867900 -0.228159
-2.319054 1.869035 -0.227882
-2.245800 1.864320 -0.242820
-2.237658 1.863894 -0.241287
-2.213035 1.862838 -0.233672
-2.208905 1.862006 -0.243086
-2.176099 1.860024 -0.246885
-2.159691 1.860360 -0.226157
-2.125336 1.857766 -0.248500
-2.123796 1.858361 -0.234444
-2.094485 1.857186 -0.241765
-2.085299 1.857410 -0.233172
-2.053916 1.857157 -0.223612
-2.028264 1.856502 -0.225116
-2.014239 1.855715 -0.239890
-2.870119 1.778077 -0.175374
-2.863399 1.785889 -0.179418
-2.885431 1.793965 -0.161469
-2.848088 1.802572 -0.188943
-2.845371 1.796833 -0.191927
-2.877577 1.808099 -0.165442
-2.880056 1.829937 -0.160788
-2.847136 1.824213 -0.184722
-2.852650 1.864883 -0.164038
-2.840454 1.844148 -0.183515
-2.831466 1.871895 -0.170249
-2.812445 1.877866 -0.170259
-2.812236 1.873506 -0.178328
-2.798226 1.879286 -0.178837
-2.779171 1.880835 -0.190341
-2.768235 1.892789 -0.161965
-2.738147 1.888533 -0.191977
-2.730348 1.891791 -0.178090
-2.719573 1.893868 -0.166765
-2.692267 1.891656 -0.181195
-2.670084 1.893199 -0.165504
-2.663241 1.891249 -0.180389
-2.638865 1.891182 -0.172296
-2.624960 1.890318 -0.171995
-2.623905 1.889574 -0.177945
-2.602234 1.888075 -0.179961
-2.598916 1.887018 -0.188499
-2.557325 1.886142 -0.165503
-2.568285 1.885189 -0.187883
-2.515302 1.882939 -0.161816
-2.914016 1.794106 -0.140569
-2.890111 1.792806 -0.158178
-2.918730 1.827911 -0.132572
-2.894682 1.818374 -0.152037
-2.886223 1.804765 -0.159574
-2.886037 1.832130 -0.156661
-2.884635 1.807512 -0.160378
-2.899920 1.847630 -0.141330
-2.872905 1.852319 -0.157565
-2.863337 1.874370 -0.147893
-2.852322 1.870029 -0.160058
-2.847188 1.887334 -0.138609
-2.818549 1.890720 -0.143177
-2.808660 1.891765 -0.146802
-2.791607 1.892169 -0.151268
-2.764981 1.896256 -0.137695
-2.752609 1.895219 -0.150581
-2.738223 1.895813 -0.148369
-2.720821 1.897267 -0.130853
-2.719163 1.895573 -0.149530
-2.690522 1.895553 -0.143658
-2.681322 1.894209 -0.157936
-2.665423 1.894935 -0.142631
-2.643137 1.894054 -0.142264
-2.615995 1.891436 -0.155070
-2.621035 1.892464 -0.145858
-2.595927 1.891188 -0.142086
-2.576740 1.890275 -0.136408
-2.575270 1.889018 -0.150201
-2.559951 1.889160 -0.132753
-2.543846 1.885460 -0.159745
-2.514309 1.883503 -0.153138
-3.092279 1.774265 -0.038744
-3.067103 1.774148 -0.051013
-3.035230 1.798745 -0.058721
-3.055714 1.810573 -0.042012
-3.023954 1.831902 -0.054334
-3.026313 1.813511 -0.059151
-3.026627 1.862004 -0.037215
-2.186866 1.876698 0.011719
-2.167910 1.874585 0.003219
-2.148786 1.872596 0.001685
-2.136671 1.871333 -0.000435
-2.134305 1.871412 0.009637
-2.129375 1.871321 0.021451
-2.104055 1.869318 0.026060
-2.059257 1.865935 0.021343
-2.063682 1.865624 0.003084
-2.021070 1.863113 0.005282
-2.015548 1.862713 0.002100
-1.546497 1.657208 -0.003722
-1.526889 1.675779 0.021470
-1.538377 1.663775 0.012475
-1.515123 1.694681 0.002279
-1.520364 1.683904 0.022430
-2.001350 1.861882 0.001493
-1.980407 1.861526 0.026367
-1.970706 1.860719 0.018642
-1.948182 1.859506 0.016960
-1.939243 1.859150 0.019709
-1.915404 1.857570 -0.000112
-1.896876 1.856807 -0.002902
-1.878648 1.856143 0.010059
-1.869510 1.855661 0.006143
-1.853882 1.855005 0.022111
-1.828389 1.853655 0.014087
-1.798667 1.852227 0.026052
-1.794060 1.851899 0.015023
-1.763236 1.850170 0.010837
-1.541353 1.836211 0.016389
-1.514313 1.831897 0.022920
-1.516188 1.831964 -0.003191
-1.734026 1.848653 0.025063
-1.737592 1.848773 -0.002985
-1.721291 1.847872 -0.003202
-2.671870 1.903235 0.051689
-2.662253 1.901985 0.029997
-2.648717 1.901759 0.042917
-2.593567 1.899075 0.032952
-2.575248 1.899036 0.053071
-2.562235 1.897990 0.035612
-2.536168 1.897340 0.050475
-2.513328 1.896553 0.050796
-2.608654 1.900094 0.043631
-2.589209 1.899719 0.055792
-2.319948 1.887355 0.089584
-2.304616 1.886221 0.065497
-2.292490 1.885634 0.071293
-2.271982 1.884223 0.067497
-2.256494 1.883169 0.065774
-2.254005 1.882836 0.084393
-2.203262 1.878673 0.060420
-2.215229 1.879664 0.087082
-2.190418 1.877524 0.074022
-2.173115 1.876078 0.077151
-2.150801 1.874023 0.059611
-2.116869 1.871393 0.067030
-2.107746 1.870895 0.075362
-2.096821 1.869726 0.061138
-2.074106 1.868065 0.062940
-2.097704 1.870489 0.089469
-2.066223 1.867747 0.072625
-2.072161 1.867840 0.059663
-2.035619 1.865681 0.072985
-1.510025 1.668827 0.087964
-1.526739 1.657183 0.067084
-1.522759 1.659620 0.072273
-1.511401 1.676828 0.070152
-1.996824 1.863651 0.086808
-1.960211 1.861388 0.063760
-1.951064 1.861175 0.089708
-1.939318 1.860425 0.081058
-1.893428 1.857972 0.083176
-1.901832 1.858243 0.068801
-1.883026 1.857193 0.064449
-1.859239 1.855919 0.079079
-1.828287 1.854043 0.087041
-1.834987 1.854395 0.068845
-1.816586 1.853306 0.060166
-1.763886 1.850177 0.084170
-2.254483 1.883231 0.193237
-2.236773 1.882236 0.205176
-2.229798 1.881836 0.205928
-2.205607 1.880377 0.214892
-2.189792 1.878974 0.198050
-2.171556 1.877746 0.202227
-2.154427 1.876623 0.211777
-2.161917 1.876733 0.186952
-2.118658 1.873642 0.202670
-2.105817 1.872845 0.214898
-2.091989 1.871683 0.209206
-2.079109 1.870656 0.205727
-2.011554 1.866241 0.188328
-2.032337 1.867421 0.184997
-2.000783 1.865863 0.212338
-1.997148 1.865342 0.187349
-1.970365 1.863832 0.196382
-1.927965 1.861526 0.215811
-1.898298 1.859478 0.214020
-1.892705 1.858977 0.190304
-1.873425 1.857534 0.190093
-1.865444 1.856983 0.200433
-1.831248 1.854743 0.211690
-1.822572 1.854145 0.208645
-1.807969 1.853011 0.187263
-1.792563 1.852069 0.190524
-1.761061 1.850272 0.184643
-1.766723 1.851424 0.213955
-1.513157 1.834565 0.186925
-1.509415 1.834646 0.195553
-1.749002 1.850424 0.204534
-1.730165 1.849976 0.208476
-1.707510 1.848920 0.193836
-1.682782 1.848140 0.187470
-1.642607 1.846714 0.185399
-1.656437 1.848069 0.208880
-1.632489 1.847153 0.211902
-1.607604 1.845498 0.213039
-1.598959 1.844562 0.207031
-1.434175 1.671393 0.288493
-1.430585 1.659009 0.299053
-1.429763 1.705478 0.280866
-1.428443 1.687305 0.292152
-1.418027 1.713417 0.297628
-1.395528 1.758861 0.305244
-1.410380 1.755845 0.282382
-1.488847 1.836449 0.292116
-1.470880 1.834575 0.299231
-1.461522 1.833310 0.295090
-1.392532 1.785297 0.304558
-1.405020 1.801494 0.281197
-1.423375 1.820746 0.285071
-1.425560 1.823717 0.297611
-1.409204 1.816417 0.301752
-1.501206 1.837532 0.281530
-1.500068 1.836981 0.303052
-3.490328 1.950041 0.406365
-3.487998 1.952824 0.429363
-3.484327 1.950772 0.405962
-3.468882 1.954174 0.430989
-3.453842 1.953478 0.411777
-3.405977 1.954087 0.428555
-3.415870 1.953400 0.408810
-3.385226 1.952955 0.419487
-3.352291 1.951390 0.422873
-3.329819 1.950528 0.434535
-3.302390 1.948481 0.422769
-3.293302 1.947846 0.418469
-3.280693 1.947741 0.430871
-3.246807 1.946739 0.433373
-3.217202 1.945448 0.425486
-3.210202 1.945197 0.426867
-3.186074 1.943788 0.413367
-3.177104 1.943561 0.423841
-3.164828 1.942989 0.427879
-3.159555 1.942663 0.426217
-3.123215 1.940488 0.423047
-3.081131 1.937215 0.409974
-3.056256 1.935413 0.411725
-3.026406 1.934064 0.435392
-3.015656 1.933331 0.434590
-2.967079 1.929496 0.429561
-2.981771 1.930599 0.427823
-3.005185 1.932237 0.416925
-2.993984 1.931435 0.419133
-2.946293 1.927722 0.422519
-2.925668 1.926104 0.421420
-2.891270 1.923947 0.434971
-2.905071 1.924444 0.405939
-2.887707 1.923559 0.422756
-2.833321 1.920437 0.407746
-2.838790 1.920838 0.419397
-2.824270 1.920206 0.425305
-2.796927 1.918860 0.415690
-2.791189 1.918611 0.420439
-2.785964 1.918161 0.404370
-2.751687 1.916283 0.423963
-2.722979 1.914147 0.423080
-2.692559 1.911261 0.429776
-2.677481 1.909924 0.417180
-2.667201 1.908764 0.425122
-2.645069 1.907077 0.414661
-2.635698 1.906054 0.426272
-2.611300 1.904876 0.409089
-2.606584 1.904638 0.406777
-2.582290 1.903384 0.422848
-2.574483 1.903006 0.427483
-2.556699 1.902706 0.418098
-2.540730 1.902482 0.412284
-2.514474 1.901658 0.415980
-3.650062 1.847753 0.480079
-3.648716 1.860135 0.482143
-3.655105 1.868350 0.494913
-3.650041 1.885597 0.496883
-3.629693 1.892473 0.470410
-3.622270 1.915812 0.484040
-3.617842 1.930382 0.496055
-3.623253 1.901596 0.467559
-3.610698 1.919930 0.470051
-3.594902 1.940238 0.493262
-3.605274 1.931510 0.481510
-3.587474 1.935642 0.467169
-3.562963 1.947467 0.475286
-3.556632 1.951641 0.489101
-3.524456 1.953748 0.472047
-3.528005 1.956115 0.496836
-3.513179 1.954741 0.472294
-3.485693 1.957568 0.490402
-3.459157 1.956949 0.470012
-3.466657 1.957783 0.486801
-3.435667 1.957695 0.485652
-3.448090 1.957088 0.471891
-3.414189 1.956500 0.472114
-3.393993 1.956695 0.487498
-3.376182 1.955123 0.475973
-3.378944 1.955958 0.487325
-3.345752 1.954123 0.488758
-3.349055 1.953199 0.469531
-3.322534 1.951480 0.467903
-3.316722 1.952299 0.488585
-3.294026 1.950559 0.480330
-3.271413 1.949023 0.470934
-3.265506 1.949237 0.479288
-3.234611 1.947602 0.470857
-3.211664 1.947014 0.494163
-3.215704 1.946705 0.476500
-3.176285 1.944441 0.474463
-3.155284 1.943698 0.483981
-3.144731 1.942962 0.475202
-3.117976 1.941965 0.491900
-3.088626 1.940036 0.487786
-3.077648 1.939174 0.477813
-3.057547 1.937558 0.474829
-3.050830 1.936988 0.471848
-3.024445 1.935210 0.489728
-3.018695 1.934522 0.481226
-3.000338 1.933429 0.497077
-2.986195 1.932291 0.495419
-2.983200 1.931983 0.491863
-2.948220 1.928919 0.471922
-2.935694 1.928777 0.493910
-2.919549 1.927835 0.497338
-2.912479 1.926292 0.469800
-2.879462 1.924513 0.485523
-2.853548 1.922729 0.486851
-2.840902 1.921637 0.475421
-2.822768 1.920517 0.472270
-2.802805 1.919490 0.476139
-2.788923 1.918677 0.490534
-2.765612 1.917134 0.496084
-2.752546 1.916254 0.483589
-2.739113 1.915311 0.474157
-2.730824 1.914710 0.467939
-2.711596 1.913242 0.489855
-2.687957 1.911093 0.478099
-2.650447 1.907767 0.467243
-2.653793 1.908851 0.489706
-3.709130 1.779957 0.555244
-3.710874 1.787503 0.559191
-3.704557 1.827783 0.557576
-3.699516 1.811516 0.546216
-3.700282 1.844052 0.554999
-3.686409 1.848045 0.534996
-3.678947 1.870847 0.531027
-3.681878 1.882748 0.540947
-3.676060 1.917469 0.556567
-3.663185 1.916311 0.539716
-3.662386 1.922669 0.544205
-3.653012 1.930323 0.539640
-3.643211 1.946939 0.557430
-3.639028 1.948160 0.555391
-3.612197 1.949024 0.531999
-3.609462 1.950291 0.533896
-3.594949 1.958368 0.552998
-3.552547 1.959515 0.537179
-3.550328 1.961536 0.553262
-3.486936 1.961407 0.548165
-3.483713 1.960349 0.530473
-3.460074 1.960990 0.545256
-1.576055 1.851052 0.580760
-1.567111 1.850215 0.565903
-1.543823 1.850620 0.579386
-1.532927 1.850337 0.577125
-1.531450 1.849774 0.564744
-1.259426 1.668997 0.569664
-1.258712 1.705739 0.562516
-1.253653 1.708431 0.590994
-1.257600 1.699560 0.569073
-1.260338 1.739247 0.576686
-1.264062 1.747051 0.563203
-1.266908 1.765561 0.584379
-1.362745 1.836280 0.586690
-1.339727 1.830433 0.573705
-1.330135 1.828674 0.583417
-1.272002 1.779795 0.590885
-1.278280 1.788709 0.584153
-1.307974 1.817867 0.580359
-1.303204 1.813378 0.565438
-1.292973 1.809984 0.589903
-1.484031 1.848532 0.588012
-1.497639 1.848765 0.567794
-1.459388 1.846330 0.582705
-1.427725 1.842890 0.563115
-1.436153 1.844262 0.583920
-1.408196 1.841096 0.567877
-1.384391 1.839297 0.588964
-1.369133 1.837204 0.586713
-1.367470 1.836851 0.583455
-3.790781 1.772169 0.687150
-3.799388 1.788463 0.715204
-3.793965 1.794285 0.702233
-3.794801 1.783923 0.699208
-3.796036 1.813178 0.716047
-3.786618 1.834729 0.696173
-3.782857 1.849648 0.691101
-3.786234 1.861367 0.705963
-3.779066 1.879989 0.695644
-3.776447 1.897573 0.698897
-3.770597 1.905302 0.690328
-3.775590 1.913996 0.714355
-3.767509 1.927750 0.708405
-3.752800 1.935900 0.693567
-3.750079 1.937495 0.689238
-3.711452 1.963243 0.708703
-3.697139 1.965568 0.692368
-3.680969 1.967463 0.712280
-3.653656 1.969119 0.693112
-3.656475 1.968687 0.709376
-3.624041 1.969092 0.702487
-3.606653 1.968652 0.713231
-3.599385 1.969253 0.694048
-3.561065 1.968836 0.687488
-3.557317 1.968229 0.703477
-3.533077 1.967692 0.696980
-3.516960 1.967119 0.698312
-3.378493 1.961928 0.704958
-3.358007 1.960771 0.697806
-3.338363 1.959784 0.711810
-3.304851 1.957770 0.712555
-3.306443 1.957698 0.692694
-3.284717 1.956477 0.702723
-3.265691 1.955375 0.708660
-3.236089 1.953806 0.715756
-3.205551 1.952037 0.716069
-3.217578 1.952635 0.688614
-3.196903 1.951461 0.705694
-3.170021 1.949685 0.695656
-3.145878 1.948291 0.687149
-3.131135 1.947415 0.697535
-3.114264 1.946499 0.700575
-3.087385 1.945130 0.691363
-3.087565 1.945156 0.715154
-3.055669 1.943331 0.714064
-3.050134 1.942988 0.712229
-3.035855 1.942142 0.691237
-2.999119 1.939497 0.705673
-2.996973 1.939343 0.703696
-2.969781 1.937393 0.700876
-2.966197 1.937181 0.709117
-2.951090 1.936246 0.715066
-2.923434 1.934313 0.717688
-2.908187 1.932817 0.700913
-2.892015 1.931403 0.694926
-2.511436 1.906402 0.740126
-2.482118 1.904507 0.735414
-2.467741 1.903551 0.729461
-2.431367 1.901254 0.719644
-2.423036 1.901004 0.743219
-2.406603 1.899850 0.734324
-2.365478 1.897195 0.726803
-2.372859 1.897805 0.738382
-2.329339 1.895194 0.726621
-2.317666 1.894749 0.734135
-2.293674 1.893885 0.745770
-2.290987 1.893673 0.740886
-2.273068 1.892524 0.720918
-2.235881 1.891373 0.746844
-2.253717 1.891724 0.722965
-2.228196 1.890677 0.729948
-2.200368 1.889090 0.736187
-2.176546 1.887584 0.741762
-2.176356 1.887528 0.738599
-2.135691 1.884777 0.722113
-2.124665 1.884112 0.723170
-2.100657 1.882765 0.737844
-2.055512 1.880368 0.743972
-2.025273 1.878742 0.745667
-2.027236 1.878618 0.723440
-1.999520 1.877215 0.744129
-1.966794 1.875087 0.721825
-1.936718 1.873018 0.719138
-1.921800 1.871881 0.724164
-1.914818 1.871356 0.740462
-1.892818 1.869764 0.719549
-1.857981 1.867296 0.745704
-1.862062 1.867585 0.723310
-1.853647 1.866987 0.729850
-1.835531 1.865878 0.719393
-1.879014 1.868773 0.729135
-1.883941 1.869107 0.747864
-1.818571 1.864863 0.718893
-1.795951 1.863638 0.747754
-1.773217 1.862605 0.726381
-1.255128 1.788926 0.778365
-1.376142 1.837373 0.890257
-1.245853 1.742473 0.903949
-1.250827 1.760426 0.881960
-1.248861 1.753492 0.899234
-2.373706 1.902516 0.933307
-2.373930 1.902252 0.915283
-2.342103 1.900651 0.931578
-2.242631 1.894554 0.925880
-2.239035 1.893996 0.907853
-2.224372 1.893410 0.921608
-2.210013 1.892400 0.913046
-2.175909 1.890180 0.914317
-2.157371 1.889113 0.926717
-2.138447 1.887445 0.910153
-2.133179 1.887525 0.936836
-2.110598 1.885677 0.925046
-2.099147 1.884807 0.919299
-2.082177 1.883592 0.924085
-2.073340 1.882991 0.926573
-2.063846 1.882286 0.907847
-2.036138 1.880209 0.917040
-2.029495 1.879766 0.909263
-1.996475 1.877262 0.922230
-2.004800 1.877783 0.935032
-1.974605 1.875722 0.918290
-1.966705 1.875130 0.926607
-1.938562 1.873353 0.911899
-1.920067 1.872249 0.918715
-1.887764 1.870622 0.932068
-1.837135 1.867005 0.913152
-1.828835 1.866576 0.923960
-1.875588 1.869486 0.906512
-1.856007 1.868737 0.935156
-1.852120 1.868500 0.936198
-1.817674 1.865709 0.925333
-1.792304 1.863762 0.933434
-1.789921 1.863575 0.936348
-1.735208 1.858907 0.932696
-1.738720 1.859275 0.924198
-1.725138 1.858430 0.912124
-1.699627 1.857100 0.907429
-1.678784 1.855167 0.927650
-1.676791 1.855500 0.914653
-1.650767 1.853321 0.932553
-1.644356 1.853982 0.908971
-1.626291 1.852421 0.923794
-1.600711 1.851233 0.925062
-1.576340 1.850620 0.915173
-1.556088 1.849687 0.917061
-1.544896 1.849209 0.918020
-1.518652 1.847729 0.928783
-1.509911 1.847692 0.910781
-1.211104 1.659691 0.940217
-1.205389 1.659040 0.954499
-1.208212 1.695503 0.967863
-1.370563 1.836362 0.966887
-1.363340 1.835380 0.940823
-1.344231 1.832209 0.946604
-1.332069 1.829954 0.965598
-1.267612 1.800665 0.950429
-1.312013 1.824231 0.941895
-1.299549 1.820390 0.965462
-1.484147 1.845588 0.938060
-1.462865 1.844048 0.945064
-1.448734 1.842918 0.955619
-1.437429 1.842070 0.959036
-1.407094 1.840026 0.943708
-1.387612 1.838111 0.963576
-1.379528 1.837350 0.967021
-1.231092 1.711645 0.939937
-1.245093 1.756977 0.938306
-1.244345 1.777919 0.960117
-3.589997 1.657755 0.978645
-3.586719 1.692405 0.977931
-3.589731 1.691658 0.973815
-3.559428 1.730809 0.994642
-3.557922 1.740543 0.989832
-3.570393 1.746579 0.971541
-3.557452 1.749316 0.983520
-3.539649 1.765470 0.987605
-3.544720 1.780463 0.970543
-3.535055 1.774341 0.984108
-2.304610 1.899683 1.031404
-2.301458 1.899455 1.029642
-2.236115 1.894585 1.003852
-2.241880 1.895137 1.030687
-2.221480 1.893663 1.021786
-2.205660 1.892590 1.018253
-2.186529 1.891423 1.025729
-2.170177 1.890419 1.026540
-2.159593 1.889667 1.012378
-2.140464 1.888386 1.008505
-2.110913 1.886195 1.005198
-2.113830 1.886622 1.022637
-2.085264 1.884087 1.000416
-2.077788 1.883832 1.028083
-2.051875 1.881597 1.027912
-2.043651 1.880831 1.023641
-2.026884 1.879102 1.000938
-1.998567 1.876835 1.021925
-1.998717 1.876745 1.010480
-1.960997 1.873778 1.025029
-1.926462 1.871742 1.030662
-1.898005 1.871004 1.010763
-1.827620 1.867259 1.015059
-1.882723 1.870405 1.016099
-1.856334 1.868998 1.028065
-1.842469 1.868352 1.010376
-1.815160 1.866206 1.006006
-1.793572 1.864233 1.017887
-1.781641 1.863066 1.021457
-1.772732 1.862118 1.017878
-1.751062 1.859931 1.013208
-1.737815 1.858756 1.016765
-1.686051 1.854659 1.015331
-1.678308 1.854171 1.007348
-1.665508 1.852992 1.025519
-1.648784 1.851848 1.014007
-1.617542 1.849274 1.022771
-1.612358 1.848990 1.016136
-1.594563 1.847739 1.022295
-1.571791 1.847043 1.007653
-1.543498 1.846138 1.010457
-1.535564 1.845550 1.023053
-1.512992 1.845335 1.004944
-2.490919 1.911042 1.068976
-2.485856 1.910996 1.085988
-2.476509 1.910483 1.084873
-2.455343 1.909099 1.072250
-2.447292 1.908643 1.072031
-2.419936 1.907304 1.086843
-2.395360 1.905642 1.067628
-2.399894 1.906059 1.078787
-2.270651 1.897747 1.070844
-2.358767 1.903852 1.093657
-2.360649 1.903618 1.063857
-2.338639 1.902369 1.072208
-2.332174 1.902069 1.077833
-2.309645 1.900516 1.071270
-2.318635 1.901483 1.092605
-2.252547 1.896417 1.069978
-2.233078 1.895443 1.088652
-2.224671 1.894590 1.074859
-2.209747 1.893826 1.083860
-2.181368 1.891950 1.081456
-2.177445 1.891601 1.076110
-2.160273 1.890713 1.084604
-2.143956 1.889359 1.065849
-2.088521 1.885596 1.088732
-2.071577 1.883847 1.065095
-2.056915 1.882686 1.074047
-2.020217 1.879579 1.092926
-2.012333 1.878620 1.072905
-2.006820 1.878034 1.067699
-1.995632 1.877025 1.071277
-1.969112 1.874688 1.084040
-1.956101 1.873541 1.083533
-1.943981 1.872601 1.079052
-1.935197 1.872083 1.063830
-1.907294 1.870453 1.088507
-1.889215 1.869893 1.068697
-2.506347 1.912678 1.180862
-2.467184 1.910579 1.168581
-2.453446 1.909798 1.178186
-2.446019 1.909387 1.182528
-2.389041 1.906240 1.184310
-2.364073 1.904841 1.159428
-2.360338 1.904598 1.161761
-2.352310 1.904061 1.172103
-2.334619 1.902928 1.181491
-2.322128 1.902170 1.162090
-2.306055 1.901085 1.169317
-2.247723 1.897027 1.183049
-2.228447 1.895859 1.159534
-2.214281 1.894909 1.182266
-2.187601 1.893314 1.175362
-2.167967 1.892179 1.157724
-2.165180 1.892019 1.157115
-2.155134 1.891580 1.184075
-2.117926 1.889061 1.157715
-2.094232 1.887283 1.165523
-2.084087 1.886469 1.170191
-2.490325 1.909704 1.257018
-2.474192 1.908467 1.267821
-2.453438 1.906763 1.279568
-2.427606 1.906488 1.254807
-2.419959 1.905532 1.265695
-2.400866 1.905089 1.253354
-2.402662 1.904306 1.276098
-2.264941 1.898316 1.257313
-2.375709 1.903488 1.266729
-2.344018 1.902455 1.252080
-2.325695 1.901574 1.259984
-2.314569 1.901006 1.260134
-2.291914 1.899915 1.280012
-2.251306 1.897616 1.264537
-2.244822 1.897481 1.277256
-2.206837 1.895136 1.258876
-2.219856 1.896225 1.277539
-2.193486 1.894681 1.271070
-2.177913 1.893492 1.252527
-2.151981 1.892402 1.278679
-2.142364 1.891674 1.271296
-2.115753 1.889817 1.282301
-2.109305 1.889228 1.273226
-2.102494 1.888728 1.281275
-2.076455 1.886338 1.269515
-2.070301 1.885812 1.255450
-2.044870 1.883223 1.276949
-2.032432 1.881943 1.280593
-2.013076 1.880085 1.272377
-2.006041 1.879469 1.255293
-1.986016 1.876861 1.266947
-1.969164 1.874757 1.256572
-1.949507 1.872557 1.275791
-1.896562 1.867545 1.272399
