-7.014284 0.831852 3.662693
-6.983958 0.867201 3.693166
-6.992725 0.908773 3.684910
-6.994763 0.933609 3.682919
-7.020335 0.976130 3.657755
-6.994401 0.971025 3.683176
-6.986691 1.000899 3.690607
-6.986108 1.006976 3.691111
-7.002296 1.043253 3.674644
-7.000144 1.094219 3.675960
-6.992561 1.098218 3.683522
-7.012579 1.134771 3.663701
-7.005791 1.165821 3.670466
-6.983933 1.175786 3.692116
-6.983092 1.200301 3.692486
-7.015634 1.241394 3.658003
-6.981521 1.252670 3.692516
-6.983240 1.296854 3.689708
-7.008154 1.282961 3.664621
-6.989666 1.314609 3.683259
-7.014942 1.346521 3.657926
-7.012262 1.378950 3.659711
-6.993744 1.392247 3.678447
-6.991200 1.397715 3.681100
-7.011842 1.431700 3.660825
-6.976989 1.463939 3.694494
-7.010485 1.461060 3.662218
-7.021339 1.515336 3.651696
-6.988193 1.485582 3.683451
-7.007020 1.509730 3.664850
-6.854630 -0.413785 3.838087
-6.831579 -0.411060 3.870248
-6.848072 -0.355839 3.850737
-6.863083 -0.342072 3.831330
-6.849953 -0.313688 3.850554
-6.842309 -0.250339 3.863208
-6.845055 -0.239182 3.859917
-6.854294 -0.190568 3.853915
-6.870095 -0.165045 3.832026
-6.868706 -0.153001 3.835087
-6.862522 -0.132981 3.845693
-6.858762 -0.085697 3.853026
-6.868248 -0.090101 3.837487
-6.857335 -0.051658 3.854345
-6.849021 -0.042034 3.868025
-6.871900 -0.014572 3.827823
-6.858616 0.024680 3.847884
-6.866546 0.085355 3.832675
-6.845123 0.071992 3.870807
-6.867313 0.134576 3.833150
-6.851087 0.152230 3.861356
-6.847924 0.187883 3.865117
-6.866064 0.190598 3.835109
-6.846245 0.232877 3.863100
-6.849545 0.238814 3.857203
-6.841551 0.226655 3.871669
-6.852721 0.280213 3.848930
-6.840096 0.273270 3.869154
-6.646203 -0.967727 3.887174
-6.590910 -0.988358 3.890665
-6.573962 -0.987203 3.914861
-6.635290 -0.777435 4.066322
-6.636567 -0.817496 4.054994
-6.570213 -0.938106 4.055374
-6.555321 -0.933629 4.081791
-6.586251 -0.901136 4.084285
-6.601069 -0.871134 4.082865
-6.607780 -0.827758 4.090249
-6.625919 -0.753350 4.083457
-6.648969 -0.740803 4.056122
-6.632984 -0.724890 4.080665
-6.650851 -0.720244 4.058746
-6.671509 -0.645820 4.056897
-6.665618 -0.658191 4.060000
-6.643351 -0.670174 4.084547
-6.669139 -0.616486 4.074102
-6.621441 -0.749292 4.090172
-6.675104 -0.564397 4.090021
-6.697462 -0.561504 4.060238
-6.665732 -0.593978 4.089486
-6.694941 -0.513710 4.083480
-6.724615 -0.441730 4.063133
-6.728907 -0.447426 4.054411
-6.696194 -0.497610 4.087595
-6.717566 -0.407323 4.085392
-6.736771 -0.381448 4.061149
-6.741334 -0.356092 4.059899
-6.714962 0.822991 4.136400
-6.739902 0.843067 4.098506
-6.720505 0.884261 4.126064
-6.730598 0.904873 4.110264
-6.711660 0.945370 4.136588
-6.738622 0.927365 4.097439
-6.711995 0.976130 4.134653
-6.715947 0.989712 4.128190
-6.734231 1.002020 4.100347
-6.735662 1.004585 4.097919
-6.711120 1.053060 4.127306
-6.717701 1.074056 4.115778
-6.709119 1.043351 4.131153
-6.705307 1.076835 4.133324
-6.711231 1.147750 4.129508
-6.709712 1.136641 4.130721
-6.732111 1.215571 4.102223
-6.734545 1.176648 4.097618
-6.715848 1.222806 4.126326
-6.725836 1.296991 4.108873
-6.706912 1.289724 4.137076
-6.731088 1.377906 4.094431
-6.726913 1.396922 4.098707
-6.729746 1.400776 4.093939
-6.707736 1.351151 4.131822
-6.709019 1.398012 4.125560
-6.701392 1.406105 4.135927
-6.696341 1.457935 4.136112
-6.705295 1.463847 4.121315
-6.689254 1.540478 4.123339
-6.684980 1.572195 4.124584
-6.677955 1.594846 4.136405
-6.691277 1.607568 4.115740
-6.690013 1.636633 4.115635
-6.685311 1.651863 4.124097
-6.693154 1.674239 4.106831
-6.677069 1.712032 4.128388
-6.685083 1.732583 4.112484
-6.412032 -0.966472 4.221528
-6.391974 -0.981451 4.198432
-6.424645 -0.828037 4.357230
-6.429680 -0.827174 4.349613
-6.444980 -0.780792 4.332444
-6.434774 -0.768147 4.349882
-6.436747 -0.739333 4.350145
-6.440024 -0.714338 4.348563
-6.445097 -0.683324 4.345470
-6.444975 -0.641533 4.351523
-6.324293 -0.955800 4.399009
-6.319703 -0.967357 4.371126
-6.271894 -0.989266 4.373583
-6.303338 -0.975203 4.370895
-6.186233 0.468068 4.940011
-6.186037 0.525604 4.940833
-6.176113 0.543745 4.970455
-6.173954 0.572516 4.976113
-6.182339 0.658194 4.950026
-6.185267 0.709604 4.940096
-6.175139 0.659543 4.970592
-6.180198 0.765145 4.949630
-6.171975 0.753552 4.973739
-6.174331 0.863555 4.956501
-6.169949 0.880035 4.965981
-6.173735 0.909711 4.951342
-6.168796 0.928660 4.964698
-6.168365 0.954592 4.964673
-6.174162 1.019975 4.948513
-6.164369 1.019240 4.977927
-6.176063 1.075705 4.942346
-6.166079 1.115146 4.970618
-6.173567 1.154430 4.947281
-6.059937 0.763201 5.375390
-6.065669 0.771068 5.354804
-6.062082 0.811660 5.370031
-6.069748 0.790001 5.339736
-6.063411 0.836183 5.365474
-6.066532 0.884111 5.350090
-6.064272 0.903197 5.359959
-6.066545 0.948553 5.343821
-6.064662 0.989667 5.351477
-6.065540 1.084120 5.345484
-6.060422 1.094308 5.367924
-6.059386 1.139012 5.369058
-6.038962 1.367603 5.443986
-6.042437 1.384767 5.430099
-6.041636 1.419373 5.431745
-6.036934 1.428819 5.449526
-6.037282 1.453344 5.447149
-6.038342 1.491944 5.441444
-6.033126 1.514583 5.460992
-6.039524 1.557548 5.429638
-6.037051 1.601632 5.433383
-6.032231 1.616386 5.452212
-6.033950 1.624490 5.443316
-6.029328 1.660341 5.458603
-6.030215 1.696374 5.448946
-6.032129 1.713064 5.436976
-6.032218 1.730701 5.433078
-5.967192 -0.442602 5.472744
-5.982726 -0.444002 5.473600
-5.925221 -0.451221 5.467185
-5.946132 -0.458223 5.468558
-6.016587 -0.407923 5.468756
-5.971614 -0.394367 5.480045
-5.984327 -0.407354 5.477391
-5.929556 -0.401500 5.475351
-5.951874 -0.395179 5.480119
-5.997416 -0.335895 5.490429
-6.001587 -0.349568 5.487266
-5.941596 -0.353917 5.485754
-6.007413 -0.321496 5.486704
-6.020708 -0.311636 5.474927
-6.010839 -0.244422 5.485648
-5.960614 -0.310053 5.496245
-5.990573 -0.320242 5.492620
-5.925594 -0.301228 5.484066
-5.997814 -0.257016 5.494236
-5.921762 -0.283488 5.483514
-5.957557 -0.258694 5.498535
-5.934739 -0.111875 5.513766
-5.969032 -0.099898 5.516848
-5.997617 -0.093468 5.510920
-5.999507 -0.082667 5.511560
-5.921643 -0.078769 5.519658
-5.973899 -0.037063 5.517123
-5.933995 -0.039605 5.521585
-5.979197 -0.007647 5.511564
-5.955459 0.039407 5.512288
-7.588554 0.467360 3.052075
-7.592455 0.506419 3.070731
-7.583128 0.633283 3.069270
-7.583115 0.754542 3.063972
-7.554688 0.732000 3.194856
-7.565284 0.764285 3.173827
-7.548286 0.738095 3.204387
-7.557016 0.814485 3.181837
-7.539250 0.791765 3.207233
-7.551849 0.789738 3.192186
-7.553691 0.832179 3.187296
-7.566992 0.842873 3.171033
-7.534631 0.823657 3.206574
-7.571187 0.896844 3.171259
-7.543248 0.882717 3.202520
-7.565575 0.983001 3.182923
-7.573694 1.004371 3.170462
-7.560096 1.057456 3.197962
-7.564734 1.083107 3.190459
-7.574229 1.106608 3.171836
-7.568499 1.117028 3.182693
-7.570709 1.161766 3.175849
-7.555481 1.174845 3.203718
-7.575757 1.196411 3.163695
-7.570602 1.218243 3.171577
-7.574232 1.220779 3.164493
-7.555676 1.296845 3.192134
-7.572214 1.265963 3.164384
-7.547143 1.271100 3.207261
-7.558112 1.314895 3.186885
-7.568242 1.339380 3.168598
-7.542160 1.351032 3.204999
-7.558520 1.358639 3.183691
-7.568742 1.381860 3.163923
-7.562733 1.436596 3.170772
-7.567178 1.411564 3.164056
-7.553259 1.446440 3.189563
-7.555106 1.447438 3.185912
-7.543994 1.443215 3.201280
-7.564890 1.486437 3.169682
-7.558971 1.510188 3.178944
-7.547144 1.505939 3.200164
-7.217755 1.552141 3.489919
-7.213842 1.581540 3.492783
-7.206433 1.609432 3.497948
-7.212833 1.630901 3.492395
-7.236436 1.631119 3.474561
-7.192301 1.637056 3.507836
-7.198328 1.686633 3.500355
-7.214139 1.692180 3.488402
-7.187437 1.663190 3.510346
-7.210279 1.712738 3.489894
-7.176311 1.706055 3.514750
-7.115523 -0.200383 3.580495
-7.107796 -0.239464 3.586875
-7.115009 -0.187930 3.580859
-7.108487 -0.168747 3.586200
-7.115291 -0.122540 3.579832
-7.130645 -0.082879 3.566433
-7.102482 -0.085691 3.589716
-7.130194 -0.062425 3.566276
-7.116865 -0.033172 3.576380
-7.097893 -0.031093 3.591657
-7.092847 0.035012 3.595761
-7.098027 0.046341 3.591957
-7.116590 0.077380 3.576970
-7.106681 0.101313 3.584366
-7.097239 0.093134 3.592342
-7.126575 0.131729 3.567863
-7.120997 0.169558 3.571594
-7.123519 0.188343 3.569458
-7.100646 0.159044 3.588139
-7.126206 0.207442 3.567359
-7.085121 0.272762 3.603063
-7.118681 0.322713 3.575341
-7.120398 0.302430 3.573787
-7.084897 0.302989 3.604126
-7.116350 0.418068 3.577640
-7.117858 0.377199 3.576271
-7.024465 -0.666244 3.642684
-7.028446 -0.636065 3.641018
-7.039544 -0.600654 3.633180
-7.070795 -0.535210 3.609597
-7.060411 -0.584602 3.615658
-7.034262 -0.566741 3.639752
-7.028268 -0.527885 3.647288
-7.056376 -0.519571 3.623008
-7.078856 -0.434190 3.607944
-7.053916 -0.469916 3.628015
-7.062430 -0.461691 3.620849
-7.066875 -0.406760 3.619072
-7.080203 -0.391462 3.608292
-7.073387 -0.362954 3.614636
-7.035962 -0.398482 3.647219
-7.061039 -0.410415 3.624185
-7.057639 -0.325401 3.629298
-7.036223 -0.327946 3.648858
-7.053681 -0.267050 3.634318
-7.043433 -0.250902 3.643870
-7.077268 -0.241111 3.613324
-7.059294 -0.210650 3.629873
-7.047048 -0.219554 3.640850
-7.064849 -0.174782 3.624727
-7.081133 -0.132124 3.609479
-7.068716 -0.081782 3.618962
-7.071772 -0.080690 3.616189
-7.056716 -0.114875 3.630899
-7.037433 -0.104163 3.647487
-6.979970 -0.892519 3.662012
-6.990124 -0.807956 3.662960
-6.936782 -0.927015 3.678677
-6.901558 -0.951553 3.677970
-6.969854 -0.906716 3.668091
-6.973962 -0.876635 3.670287
-6.957642 -0.827350 3.690182
-6.988923 -0.733094 3.669610
-6.996004 -0.751029 3.661560
-6.983078 -0.708928 3.677124
-7.007934 -0.715469 3.653645
-6.941014 1.737485 3.720729
-6.930634 1.716093 3.732393
-6.923291 1.739826 3.738962
-6.939564 0.467330 3.739306
-6.912568 0.526014 3.766800
-6.907616 0.542784 3.771333
-6.935317 0.563284 3.743104
-6.933319 0.626707 3.742905
-6.925713 0.614123 3.751458
-6.909411 0.619004 3.768106
-6.926044 0.656311 3.749410
-6.923528 0.712575 3.753491
-6.935443 0.743173 3.740491
-6.931580 0.753157 3.745970
-6.923993 0.769610 3.756172
-6.921078 0.791509 3.760246
-6.928451 0.781632 3.751148
-6.924420 0.832233 3.756851
-6.926960 0.858517 3.754107
-6.903401 0.866056 3.782079
-6.925890 0.908099 3.754976
-6.940368 0.910009 3.739058
-6.915584 0.918702 3.766617
-6.927282 0.944863 3.752564
-6.904952 0.957417 3.777847
-6.924565 0.986413 3.754444
-6.863976 1.017015 3.834181
-6.843255 1.026801 3.867962
-6.846452 1.080031 3.861611
-6.855234 1.079360 3.847311
-6.854844 1.091161 3.847426
-6.860657 1.134673 3.834957
-6.858913 1.144050 3.837800
-6.850521 1.197752 3.852362
-6.849303 1.242798 3.854189
-6.861241 1.233537 3.835199
-6.847771 1.348504 3.854220
-6.846336 1.391918 3.853914
-6.845385 1.434967 3.852164
-6.836957 1.399528 3.869537
-6.854628 1.443716 3.837014
-6.843832 1.505095 3.849389
-6.858277 1.496114 3.828197
-6.837724 1.501616 3.860072
-6.845428 1.545961 3.843928
-6.856720 1.531332 3.828442
-6.840792 1.531720 3.852313
-6.838664 1.604448 3.849922
-6.832794 1.691612 3.852332
-6.821109 1.725857 3.869289
-6.827731 0.833298 3.904338
-6.823483 0.861492 3.913401
-6.832695 0.875440 3.893887
-6.830147 0.965368 3.895885
-6.826554 0.979289 3.903060
-6.839907 1.038281 3.873831
-6.826535 1.055793 3.901097
-6.820490 1.051677 3.913851
-6.833078 1.115103 3.884493
-6.821318 1.103681 3.910451
-6.826901 1.138144 3.898007
-6.837569 1.159064 3.874531
-6.827664 1.174890 3.896858
-6.831145 1.203775 3.889606
-6.832280 1.227643 3.886493
-6.828277 1.324323 3.892321
-6.834608 1.330605 3.878552
-6.818485 1.367286 3.910101
-6.825640 1.373994 3.894069
-6.814024 1.408475 3.914488
-6.814137 1.436997 3.910653
-6.826856 1.446846 3.885096
-6.814874 1.503341 3.902790
-6.827212 1.520062 3.877101
-6.819647 1.532379 3.889631
-6.825867 1.570313 3.874038
-6.799932 1.592222 3.914141
-6.804703 1.641226 3.900624
-6.818974 1.630840 3.878823
-6.816197 1.704658 3.878494
-6.812856 1.683947 3.884412
-6.797868 0.561012 3.918252
-6.788318 0.558921 3.959291
-6.808868 0.847131 3.949658
-6.817807 0.890167 3.926614
-6.816327 0.975104 3.927132
-6.808517 0.994267 3.947280
-6.816226 1.020738 3.925393
-6.816689 1.068716 3.922328
-6.804454 1.098888 3.952738
-6.814008 1.150279 3.928577
-6.806215 1.199551 3.948798
-6.817071 1.246001 3.918870
-6.815007 1.288782 3.922737
-6.808521 1.315358 3.938255
-6.812541 1.328939 3.927428
-6.809834 1.368401 3.928506
-6.806496 1.395656 3.932300
-6.800104 1.445007 3.935985
-6.805618 1.463155 3.925227
-6.805821 1.510928 3.919422
-6.798599 1.444897 3.938935
-6.790973 1.482721 3.953266
-6.795007 1.489604 3.943807
-6.656055 1.535790 4.170687
-6.672783 1.579677 4.143158
-6.643882 1.616577 4.181644
-6.656444 1.630986 4.165045
-6.650387 1.652131 4.171071
-6.639278 1.682159 4.178560
-6.493281 0.478012 4.336798
-6.509817 0.475294 4.320884
-6.489951 0.548762 4.339700
-6.494958 0.513215 4.335233
-6.475806 0.525009 4.354567
-6.481877 0.553449 4.348046
-6.517555 0.567786 4.315033
-6.472682 0.558235 4.357612
-6.511285 0.620113 4.321252
-6.486729 0.614913 4.342977
-6.500372 0.671106 4.331948
-6.503120 0.688433 4.330013
-6.503891 0.730820 4.329344
-6.500247 0.756127 4.332405
-6.516292 0.736368 4.317800
-6.490503 0.789250 4.340882
-6.514132 0.784878 4.319298
-6.495305 0.852332 4.334952
-6.503303 0.857537 4.327920
-6.478830 0.836959 4.351601
-6.512304 0.869464 4.319986
-6.497935 0.899537 4.332012
-6.471473 0.891832 4.358387
-6.480203 0.901919 4.349042
-6.502565 0.929612 4.327765
-6.489246 0.916806 4.339366
-6.485717 0.950760 4.342827
-6.498358 0.973078 4.330780
-6.511146 0.991918 4.318569
-6.472935 0.985637 4.356109
-6.493130 1.023203 4.334814
-6.506783 1.030839 4.321620
-6.485433 1.009439 4.342562
-6.491078 1.064125 4.335753
-6.509871 1.068179 4.317538
-6.473899 1.060034 4.353677
-6.476598 1.080953 4.350111
-6.495862 1.109685 4.329910
-6.500929 1.109449 4.325083
-6.484828 1.088130 4.341369
-6.510928 1.158743 4.315056
-6.470932 1.196396 4.353066
-6.470861 1.207881 4.352794
-6.498804 1.246303 4.324141
-6.476334 1.231798 4.346425
-6.470719 1.262737 4.351110
-6.467382 1.337072 4.351999
-6.472791 1.366506 4.346376
-6.474370 1.384238 4.344820
-6.489219 1.425849 4.329663
-6.501579 1.455455 4.317575
-6.466578 1.465045 4.352291
-6.493793 1.491989 4.323983
-6.490254 1.526620 4.325678
-6.499616 1.533401 4.316802
-6.489083 1.582222 4.323155
-6.443179 0.573793 4.393989
-6.444023 0.595921 4.392823
-6.443900 0.722388 4.392710
-6.437995 0.941409 4.397178
-6.434583 0.954325 4.401526
-6.440437 0.985693 4.394014
-6.443221 1.054108 4.390181
-6.438909 1.142692 4.392735
-6.432340 1.179439 4.399919
-6.438362 1.219300 4.389226
-6.444442 1.251876 4.379539
-6.441615 1.344495 4.379978
-6.443324 1.354702 4.377876
-6.432288 1.372564 4.392492
-6.438619 1.413829 4.384908
-6.435302 1.433304 4.389074
-6.427543 1.536900 4.394766
-6.421646 1.549721 4.401221
-6.432390 1.578075 4.386273
-6.418570 1.582815 4.403001
-6.441558 1.630081 4.370396
-6.430055 1.656655 4.382115
-6.438619 1.688089 4.366089
-6.426905 1.732210 4.370782
-6.283393 0.377647 4.674343
-6.278786 0.408533 4.688886
-6.285543 0.423692 4.672279
-6.272655 0.456319 4.706467
-6.088952 0.868839 5.250131
-6.081813 0.901335 5.276974
-6.086520 0.910142 5.254528
-6.083353 0.933896 5.265103
-6.078233 0.967314 5.285053
-6.084532 1.017477 5.256466
-6.084051 1.036200 5.257691
-6.083747 1.063586 5.257013
-6.085005 1.086101 5.249331
-6.077993 1.089389 5.285680
-6.085826 1.141237 5.249479
-6.080333 1.171212 5.274487
-6.086373 1.183688 5.247586
-6.081797 1.207915 5.266928
-6.080715 1.228771 5.270741
-6.083190 1.252437 5.257600
-6.084766 1.272308 5.249248
-6.076925 1.302492 5.284683
-6.077419 1.391617 5.272889
-6.082879 1.406376 5.247915
-6.074013 1.435833 5.285380
-6.076128 1.510763 5.271099
-6.077996 1.567091 5.257249
-6.070963 1.581829 5.286378
-6.079195 1.609602 5.247044
-6.071728 1.642495 5.271884
-6.075595 1.664352 5.252122
-6.071389 1.690813 5.260767
-6.066683 1.711815 5.272425
-6.048911 0.476021 5.359636
-6.057665 0.553729 5.344978
-6.064296 0.540432 5.333670
-6.037391 0.529053 5.372437
-5.932194 0.508138 5.360359
-5.942161 0.469321 5.369385
-5.975276 0.515414 5.377099
-5.939849 0.519167 5.364967
-6.056376 0.581463 5.350589
-6.049921 0.560859 5.358574
-6.066726 0.627010 5.335449
-6.049108 0.617066 5.375585
-6.054224 0.667595 5.376898
-6.067847 0.650225 5.335313
-6.060219 0.719341 5.369446
-7.538551 -0.914250 3.166313
-7.512083 -0.916424 3.205525
-7.564824 -0.870028 3.166445
-7.528947 -0.897655 3.201811
-7.534037 -0.882443 3.206983
-7.569025 -0.842414 3.171816
-7.559643 -0.811057 3.197102
-7.561816 -0.787846 3.195591
-7.562230 -0.747067 3.197343
-7.579193 -0.755034 3.166485
-7.567579 -0.710876 3.189071
-7.572802 -0.708537 3.179307
-7.504150 -0.772516 3.266272
-7.474910 -0.760301 3.292614
-7.476647 -0.695542 3.293583
-7.486043 -0.686353 3.285654
-7.482085 -0.661731 3.289849
-7.506434 -0.665258 3.268182
-7.491587 -0.616882 3.283036
-7.522711 -0.571797 3.255576
-7.524093 -0.509484 3.254692
-7.513260 -0.476355 3.265912
-7.518309 -0.454971 3.261004
-7.518783 -0.383805 3.261016
-7.524789 -0.408945 3.254863
-7.517432 -0.283406 3.260943
-7.500056 -0.553892 3.277761
-7.483380 -0.524745 3.293109
-7.485539 -0.502591 3.291330
-7.493453 -0.476002 3.284211
-7.506933 -0.385810 3.272760
-7.493502 -0.243767 3.284428
-7.425407 -0.187229 3.340796
-7.382518 -0.239144 3.373209
-7.400070 -0.205843 3.359765
-7.373004 -0.186701 3.380003
-7.425105 -0.122852 3.341080
-7.420957 -0.094911 3.344057
-7.375119 -0.153778 3.378038
-7.387649 -0.095478 3.368909
-7.399265 -0.099211 3.360222
-7.395852 -0.049286 3.363003
-7.386742 -0.022377 3.369884
-7.386221 0.042392 3.370539
-7.409071 0.024054 3.353509
-7.380534 0.109934 3.374970
-7.384066 0.073341 3.372219
-7.407897 0.143665 3.354142
-7.390586 0.169248 3.366843
-7.409940 0.172469 3.352304
-7.420311 0.226570 3.344151
-7.421468 0.255400 3.343207
-7.380527 0.229910 3.373723
-7.388488 0.271283 3.367710
-7.414651 0.279581 3.348262
-6.913910 -0.914585 3.710393
-6.904169 -0.874235 3.733810
-6.863492 -0.941525 3.723203
-6.949598 -0.854505 3.695187
-6.933134 -0.781666 3.718103
-6.954436 -0.807158 3.694777
-6.930791 -0.784500 3.720121
-6.955435 -0.753734 3.699232
-6.949365 -0.719449 3.708605
-6.966815 -0.669376 3.695733
-6.950698 -0.612504 3.716219
-6.944767 -0.633516 3.720653
-6.908175 -0.597021 3.760264
-6.912704 -0.561908 3.757959
-6.900430 -0.564512 3.770767
-6.914310 -0.532891 3.758842
-6.920643 -0.509315 3.754029
-6.924469 -0.478529 3.752369
-6.932810 -0.441499 3.745442
-6.926485 -0.433969 3.752841
-6.926802 -0.335910 3.755921
-6.936955 -0.296791 3.745915
-6.925218 -0.293077 3.758942
-6.917017 -0.265616 3.768986
-6.913105 -0.250120 3.773839
-6.943682 -0.225773 3.740574
-6.909273 -0.166087 3.780681
-6.928772 -0.176178 3.758036
-6.936815 -0.102207 3.749109
-6.936965 -0.062358 3.747442
-6.939035 -0.029559 3.742311
-6.926717 -0.047956 3.758181
-6.906366 0.019177 3.777094
-6.904574 0.039475 3.778425
-6.916959 0.053937 3.763307
-6.934037 0.098264 3.743527
-6.910494 0.096647 3.771352
-6.890371 0.339486 3.795672
-6.870500 0.299910 3.822835
-6.878871 0.340239 3.810951
-6.867086 0.407553 3.825338
-6.881424 0.396205 3.806423
-6.867501 0.435430 3.823482
-6.868495 0.462899 3.820171
-6.851450 0.489623 3.831064
-6.823521 0.490968 3.866166
-6.835047 0.481765 3.855137
-6.843570 0.510713 3.832005
-6.822047 0.542607 3.853341
-6.831892 0.594298 3.858329
-6.831765 0.603826 3.862826
-6.859279 0.672969 3.837777
-6.855856 0.652290 3.840287
-6.844749 0.717862 3.865322
-6.863830 0.688486 3.832451
-6.868163 0.771426 3.830315
-6.843965 0.779441 3.870015
-6.869007 0.801683 3.829673
-6.859938 0.831140 3.844870
-6.868539 0.864084 3.830720
-6.852852 0.929973 3.854162
-6.863982 0.930408 3.835597
-6.844822 0.990196 3.865670
-6.855913 0.990585 3.847430
-6.780663 -0.596992 3.912030
-6.795176 -0.517153 3.910189
-6.837020 -0.226285 3.875793
-6.836983 -0.192480 3.882333
-6.829277 -0.167748 3.901102
-6.833101 -0.162948 3.894057
-6.840065 -0.131498 3.882655
-6.826273 -0.108442 3.911370
-6.843206 -0.058834 3.878765
-6.829638 -0.016194 3.905138
-6.830556 -0.007254 3.902841
-6.835334 0.035841 3.891527
-6.833713 0.059167 3.894713
-6.826602 0.142552 3.911482
-6.839929 0.137218 3.882190
-6.839330 0.164282 3.883178
-6.836090 0.189847 3.888870
-6.841868 0.196427 3.875786
-6.827511 0.204868 3.905368
-6.824549 0.235221 3.902997
-6.832058 0.247893 3.886108
-6.825663 0.280332 3.891689
-6.824424 0.308842 3.892470
-6.833139 0.332192 3.878024
-6.821255 0.341622 3.898242
-6.836334 0.354721 3.872788
-6.829426 0.419383 3.886267
-6.831142 0.439051 3.877933
-6.810090 0.463635 3.915740
-6.555190 1.356797 4.276264
-6.544055 1.425273 4.282901
-6.511954 1.355892 4.310307
-6.520067 1.389113 4.303093
-6.524859 1.423353 4.298244
-6.516073 1.421983 4.305618
-6.534091 1.462049 4.289722
-6.557143 1.473688 4.271410
-6.550734 1.506362 4.275484
-6.533202 1.447410 4.290778
-6.522338 1.484197 4.299187
-6.535573 1.555568 4.284739
-6.546012 1.556713 4.276206
-6.543572 1.584673 4.275189
-6.502489 1.550074 4.313059
-6.536469 1.655960 4.271471
-6.533081 1.622972 4.279338
-6.517877 1.643326 4.290159
-6.532375 1.687190 4.271821
-6.498889 1.673424 4.304305
-6.507332 1.711427 4.290433
-6.484221 1.721064 4.309118
-6.398317 1.550626 4.432721
-6.403380 1.582195 4.423657
-6.413609 1.604181 4.408222
-6.395361 1.576799 4.435896
-6.405927 1.617062 4.417832
-6.391376 1.638373 4.436762
-6.400462 1.635265 4.423513
-6.396029 1.667484 4.426667
-6.397697 1.725567 4.415320
-6.380032 1.711139 4.446041
-6.096372 -1.000621 4.708551
-6.139982 -0.978407 4.703276
-6.144182 -0.981454 4.677330
-6.109282 -0.993637 4.710754
-6.237574 -0.910669 4.676135
-6.204816 -0.944489 4.683343
-6.199196 -0.934891 4.708805
-6.231676 -0.876449 4.711563
-6.239327 -0.873178 4.697006
-6.209838 1.709439 4.795163
-6.207899 1.722464 4.795157
-6.169285 0.466022 4.993132
-6.167467 0.496846 4.998468
-6.169146 0.510136 4.993050
-6.168603 0.545885 4.993324
-6.162763 0.559051 5.010716
-6.169217 0.583654 4.989776
-6.162819 0.599101 5.008213
-6.164611 0.636666 5.001903
-6.161172 0.644146 5.011695
-6.161312 0.663156 5.010553
-6.162437 0.707244 5.003674
-6.160754 0.725835 5.006836
-6.160466 0.738903 5.006012
-6.156040 0.782842 5.012284
-6.164962 0.862058 4.982114
-6.149617 0.891150 5.018383
-6.161901 0.885692 4.986785
-6.148881 0.911068 5.017882
-6.159319 0.922262 4.991580
-6.150032 0.980931 5.020421
-6.163101 0.964502 4.981196
-6.163963 1.010172 4.979333
-6.159446 1.046883 4.992595
-6.154658 1.083912 5.006899
-6.152419 1.106603 5.013091
-6.163010 1.110430 4.979624
-6.097619 0.026503 5.229475
-6.106158 0.088974 5.201394
-6.098223 0.097125 5.230713
-6.096549 0.151045 5.236213
-6.095543 0.175834 5.240033
-6.096771 0.218696 5.237016
-6.102847 0.243384 5.216308
-6.097850 0.262243 5.235030
-6.099118 0.316176 5.232664
-6.104897 0.384143 5.212631
-7.565723 -0.914995 3.078798
-7.565984 -0.909731 3.113469
-7.542666 -0.937229 3.078830
-7.571556 -0.901392 3.102220
-7.575437 -0.899139 3.074765
-7.591518 -0.834997 3.087132
-7.594780 -0.809573 3.080785
-7.594398 -0.797530 3.106129
-7.597478 -0.736345 3.090939
-7.597543 -0.713726 3.092833
-7.405499 -0.845270 3.338682
-7.417365 -0.799702 3.335288
-7.422370 -0.758706 3.334368
-7.451051 -0.740439 3.312887
-7.442799 -0.699341 3.320724
-7.447567 -0.711832 3.316614
-7.454072 -0.681927 3.312552
-7.434881 -0.634400 3.328739
-7.432148 -0.615220 3.331228
-7.444691 -0.579853 3.322372
-7.439799 -0.575221 3.326231
-7.447288 -0.524991 3.321578
-7.468801 -0.472283 3.305577
-7.425230 -0.491795 3.339121
-7.448797 -0.485589 3.321359
-7.446333 -0.435426 3.323587
-7.425436 -0.405788 3.340006
-7.448649 -0.379666 3.321786
-7.479667 -0.353461 3.296708
-7.437600 -0.348146 3.330566
-7.433110 -0.336287 3.334095
-7.469329 -0.255595 3.305473
-7.447688 -0.287142 3.322623
-7.428712 -0.257259 3.337792
-7.401312 0.498460 3.356827
-7.378059 0.515119 3.373639
-7.404920 0.533837 3.352675
-7.368082 0.529214 3.380283
-7.395269 0.559748 3.358700
-7.408968 0.557003 3.348489
-7.362076 0.597834 3.382612
-7.380292 0.673459 3.364499
-7.411602 0.650414 3.341977
-7.371952 0.651898 3.373115
-7.386875 0.706805 3.354506
-7.373656 0.699765 3.366251
-7.366578 0.728006 3.367492
-7.377182 0.758484 3.353825
-7.366843 0.736623 3.365957
-7.349303 0.744277 3.379174
-7.364457 0.813320 3.355422
-7.360533 0.843819 3.352213
-7.355343 0.849298 3.355693
-7.214862 0.832942 3.488965
-7.224420 0.862001 3.479565
-7.184702 0.862236 3.512729
-7.204576 0.900267 3.494235
-7.188759 0.895786 3.507969
-7.212959 0.922281 3.485430
-7.210813 0.948830 3.485095
-7.186551 0.944070 3.507715
-7.220141 0.990224 3.473646
-7.175912 0.957429 3.516570
-7.216552 1.001931 3.476316
-7.172184 1.019733 3.514239
-7.189205 1.023648 3.499558
-7.209394 1.082906 3.482621
-7.205595 1.045191 3.484876
-7.221004 1.113068 3.474562
-7.182046 1.094058 3.503333
-7.188050 1.122591 3.497979
-7.218464 1.146680 3.476121
-7.207735 1.212497 3.484323
-7.217532 1.202814 3.476771
-7.168857 1.177549 3.509528
-7.194157 1.214791 3.494309
-7.210245 1.253121 3.485870
-7.214929 1.219437 3.479724
-7.195404 1.226560 3.494659
-7.207855 1.268015 3.489206
-7.186580 1.284482 3.506630
-7.219249 1.314377 3.482649
-7.229258 1.393795 3.479091
-7.208905 1.361156 3.494299
-7.182389 1.374561 3.515366
-7.199045 1.409553 3.503109
-7.224942 1.405705 3.482603
-7.190313 1.426797 3.510224
-7.208144 1.470914 3.496398
-7.226187 1.448550 3.481818
-7.207541 1.501419 3.497404
-7.231908 1.504038 3.477975
-6.929084 0.123368 3.749671
-6.936632 0.177021 3.742103
-6.920537 0.163688 3.760940
-6.903123 0.165758 3.782285
-6.921837 0.199733 3.760154
-6.931651 0.221491 3.748212
-6.917356 0.253922 3.764547
-6.924252 0.276989 3.755697
-6.911520 0.300893 3.770400
-6.920655 0.331835 3.759087
-6.913026 0.405308 3.768111
-6.924604 0.452865 3.755985
-6.891913 0.531819 3.787151
-6.882635 0.468581 3.801289
-6.874410 0.506286 3.804625
-6.885482 0.543719 3.792286
-6.850734 0.536730 3.820812
-6.846601 0.561136 3.823715
-6.847782 0.570837 3.824149
-6.884096 0.607200 3.796345
-6.889890 0.677112 3.794160
-6.890923 0.731093 3.796321
-6.887824 0.672098 3.796595
-6.873397 0.716936 3.820291
-6.876200 0.762414 3.818247
-6.883117 0.788547 3.808801
-6.874874 0.816649 3.821235
-6.894715 0.843660 3.793486
-6.894825 0.832462 3.793327
-6.891976 0.893904 3.796166
-6.899232 0.888869 3.786778
-6.882671 0.846232 3.810183
-6.881950 0.896968 3.809990
-6.892717 0.931282 3.793879
-6.879714 0.921525 3.812251
-6.877461 0.928892 3.815182
-6.881243 0.957124 3.808901
-6.879536 0.977100 3.811203
-6.712115 0.520729 4.141095
-6.705005 0.500097 4.150230
-6.696381 0.498813 4.160885
-6.686056 0.514548 4.173528
-6.697405 0.540551 4.159120
-6.713012 0.558791 4.139500
-6.692200 0.556088 4.165406
-6.694952 0.580482 4.162501
-6.694676 0.615430 4.162910
-6.692523 0.637528 4.165596
-6.714015 0.651720 4.139901
-6.700463 0.656834 4.156332
-6.701592 0.688206 4.154991
-6.704613 0.720882 4.151067
-6.714048 0.802904 4.138229
-6.689700 0.745851 4.168242
-6.696503 0.754749 4.160115
-6.708939 0.777105 4.145248
-6.694515 0.813524 4.161407
-6.645561 0.829968 4.211598
-6.634885 0.862908 4.221285
-6.653235 0.863974 4.203588
-6.654984 0.880136 4.201515
-6.629683 0.920440 4.224846
-6.665800 0.933995 4.190103
-6.652572 0.975127 4.201325
-6.631030 0.996943 4.220777
-6.664690 1.008144 4.188780
-6.668130 1.066978 4.183494
-6.638074 1.053140 4.212143
-6.644157 1.079853 4.206191
-6.660137 1.091480 4.190798
-6.648308 1.119090 4.202146
-6.642559 1.158272 4.207283
-6.633169 1.185542 4.216040
-6.641953 1.202382 4.207694
-6.655246 1.219832 4.195112
-6.656476 1.260820 4.193674
-6.667686 1.285982 4.182412
-6.628887 1.285698 4.218513
-6.653487 1.266898 4.196291
-6.644454 1.327101 4.202561
-6.658389 1.333114 4.189252
-6.640941 1.366176 4.204292
-6.631964 1.386625 4.212150
-6.632406 1.409022 4.210716
-6.634744 1.458786 4.206107
-6.641696 1.478186 4.197288
-6.623385 1.518295 4.212766
-6.649210 1.494123 4.187513
-6.621450 1.383560 4.222186
-6.617730 1.439150 4.223429
-6.550822 -0.028453 4.284535
-6.549692 -0.015103 4.285589
-6.559569 0.015401 4.277565
-6.538806 0.053634 4.293654
-6.556299 0.052500 4.279976
-6.525156 0.041664 4.305156
-6.514179 0.088944 4.313180
-6.530197 0.109252 4.299906
-6.542494 0.126307 4.290637
-6.547072 0.126491 4.287075
-6.547826 0.176986 4.288360
-6.569413 0.189516 4.272259
-6.518452 0.158359 4.310199
-6.536141 0.211035 4.298015
-6.534245 0.279353 4.299645
-6.569921 0.254911 4.273515
-6.520303 0.201166 4.310032
-6.573213 0.300659 4.271156
-6.536166 0.357348 4.297672
-6.571527 0.394321 4.272217
-6.571142 0.435671 4.272838
-6.521876 0.386380 4.309886
-6.517485 0.435611 4.313886
-6.406317 -0.951321 4.297043
-6.440968 -0.886109 4.313474
-6.445991 0.505311 4.391096
-6.470375 0.482390 4.360953
-6.450046 0.537736 4.385643
-6.455728 0.572182 4.378355
-6.450538 0.627248 4.384777
-6.469405 0.604490 4.361275
-6.464816 0.677281 4.368660
-6.461796 0.732315 4.372319
-6.449024 0.779738 4.385834
-6.462358 0.807944 4.370286
-6.452078 0.867911 4.380921
-6.455884 0.946166 4.375751
-6.448713 0.969639 4.383916
-6.468512 0.988634 4.360957
-6.446167 1.073789 4.385803
-6.460052 1.062644 4.369566
-6.453243 1.091365 4.376555
-6.464184 1.127837 4.362022
-6.448208 1.153569 4.380346
-6.459631 1.248793 4.363107
-6.450757 1.269287 4.371808
-6.453834 1.356645 4.365885
-6.449300 1.463330 4.371599
-6.458857 1.483315 4.360059
-6.454821 1.524053 4.363061
-6.445275 1.532989 4.373665
-6.435886 0.471260 4.404071
-6.414350 0.478212 4.435414
-6.407800 0.518207 4.444511
-6.428423 0.530370 4.414329
-6.411898 0.587068 4.437354
-6.435547 0.594733 4.403729
-6.412671 0.608475 4.435956
-6.433913 0.627269 4.405847
-6.413909 0.650958 4.433623
-6.425778 0.663756 4.417073
-6.405905 0.724432 4.444743
-6.421717 0.745197 4.422606
-6.424491 0.767493 4.418479
-6.433274 0.791745 4.405787
-6.429601 0.850146 4.409606
-6.407462 0.854848 4.441355
-6.405138 0.866509 4.444564
-6.408266 0.934802 4.440210
-6.425998 0.938277 4.414017
-6.409517 0.968208 4.438615
-6.429556 0.967071 4.408760
-6.411133 1.052764 4.435851
-6.415679 1.074617 4.428609
-6.422907 1.112920 4.416543
-6.408628 1.097096 4.438308
-6.404271 1.139197 4.442925
-6.422017 1.148658 4.416318
-6.410462 1.185130 4.430946
-6.427943 1.183033 4.405702
-6.422195 1.268344 4.406801
-6.403854 1.313299 4.432921
-6.398679 1.332367 4.440327
-6.402853 1.399846 4.432668
-6.416850 1.438820 4.412596
-6.404526 1.476694 4.427622
-6.408524 1.472006 4.422486
-6.393625 1.445868 4.445004
-6.405115 1.489838 4.426330
-6.413825 1.519135 4.413264
-6.397629 1.526009 4.435032
-6.340587 -0.138910 4.556902
-6.351051 -0.151659 4.536907
-6.332336 -0.101330 4.572447
-6.329488 -0.035334 4.578262
-6.343727 -0.002339 4.547821
-6.333168 -0.007187 4.569804
-6.344297 0.025360 4.544255
-6.334557 0.064137 4.562192
-6.345022 0.070681 4.537331
-6.332574 0.102346 4.567659
-6.338464 0.112706 4.554687
-6.330230 0.126902 4.574080
-6.345384 0.187455 4.542342
-6.332057 0.209603 4.568956
-6.332396 0.223225 4.566890
-6.344532 0.252085 4.539210
-6.331575 0.259951 4.568077
-6.330844 0.314587 4.573020
-6.333954 0.339006 4.569198
-6.343657 0.374393 4.553019
-6.341238 0.411940 4.559328
-6.336618 0.424354 4.568553
-6.335358 0.464942 4.573181
-6.249710 0.494845 4.765899
-6.239923 0.530027 4.792312
-6.245633 0.585769 4.777152
-6.238890 0.615147 4.795381
-6.242573 0.645926 4.785062
-6.237698 0.648124 4.798629
-6.195928 -0.655674 4.853190
-6.185114 -0.672737 4.880843
-6.196944 -0.634660 4.853059
-6.185528 -0.599296 4.886360
-6.191940 -0.571825 4.872347
-6.187157 -0.549853 4.886819
-6.192018 -0.509639 4.879370
-6.204897 -0.495047 4.846673
-6.201092 -0.411459 4.866105
-6.193783 -0.406473 4.886600
-6.204029 -0.351552 4.862981
-6.199142 -0.353005 4.876123
-6.207682 -0.279261 4.856413
-6.210513 -0.274064 4.848645
-6.210649 -0.237300 4.848947
-6.205154 -0.203194 4.864476
-6.210990 -0.182921 4.849144
-6.205625 -0.169239 4.863952
-6.206526 -0.114327 4.861633
-6.204212 -0.105621 4.868015
-6.204980 -0.081134 4.867546
-6.215722 0.013490 4.846919
-6.213355 0.051910 4.856071
-6.202716 0.028696 4.884527
-6.212401 0.086443 4.860861
-6.213863 0.105439 4.857933
-6.209816 0.119255 4.870048
-6.203918 0.174039 4.889174
-6.083353 0.506471 5.278399
-6.088840 0.587834 5.255824
-6.086426 0.621343 5.266271
-6.088184 0.639466 5.260226
-6.083026 0.683564 5.281942
-6.081371 0.698211 5.288830
-6.088483 0.738334 5.260618
-6.086035 0.786702 5.269359
-6.075611 1.186744 5.295130
-6.070860 1.240003 5.315094
-6.068098 1.305952 5.324657
-6.066978 1.339019 5.325020
-6.071118 1.346680 5.306065
-6.072089 1.376678 5.298216
-6.064633 1.373031 5.332409
-6.068705 1.399233 5.311809
-6.069347 1.430453 5.307518
-6.072142 1.444094 5.293492
-6.069312 1.474430 5.305272
-6.064497 1.494294 5.326198
-6.068724 1.576945 5.296948
-6.061644 1.611158 5.322069
-6.066370 1.621934 5.299050
-6.065328 1.642928 5.297962
-6.056206 1.667871 5.325483
-6.062698 1.699026 5.289564
-6.059171 1.708618 5.299084
-6.051582 1.731441 5.324294
-7.527936 0.495591 3.251925
-7.508210 0.525067 3.270535
-7.513622 0.573727 3.262489
-7.479980 0.492688 3.295991
-7.492277 0.519983 3.284541
-7.493654 0.557164 3.280984
-7.480083 0.592372 3.290208
-7.482147 0.614468 3.287236
-7.507675 0.631912 3.264781
-7.482486 0.667229 3.282606
-7.503533 0.677708 3.264901
-7.472871 0.709117 3.284840
-7.457746 0.726483 3.293613
-7.478621 0.764824 3.269765
-7.471717 0.771687 3.273373
-7.480535 0.777041 3.265488
-7.489405 0.799186 3.253044
-7.448563 0.786531 3.288895
-7.456248 0.298936 3.315976
-7.443705 0.318215 3.325879
-7.442513 0.335558 3.326729
-7.441097 0.358310 3.327495
-7.467142 0.402133 3.306535
-7.471498 0.412414 3.302860
-7.442214 0.384934 3.326242
-7.470537 0.449557 3.303835
-7.438265 0.444869 3.329068
-7.383626 0.298816 3.371328
-7.394037 0.303566 3.363570
-7.379507 0.355928 3.374447
-7.399598 0.344957 3.359370
-7.420955 0.445159 3.342449
-7.402854 0.419133 3.356133
-7.415632 0.377225 3.347041
-7.400220 0.422201 3.358103
-7.418433 0.427708 3.344291
-7.368380 0.440874 3.381976
-7.357282 -0.205333 3.391643
-7.342039 -0.168832 3.402226
-7.347744 -0.165888 3.398084
-7.354622 -0.114235 3.393137
-7.335534 -0.076206 3.407260
-7.353502 -0.108571 3.394002
-7.329302 -0.241637 3.412541
-7.325041 -0.191573 3.414784
-7.309289 -0.143109 3.425893
-7.330574 -0.106203 3.410734
-7.364363 -0.062390 3.386427
-7.337808 0.022154 3.406251
-7.359487 0.001697 3.390380
-7.350504 0.031397 3.397074
-7.361460 0.093059 3.389252
-7.320990 0.008389 3.418437
-7.328876 0.039239 3.412820
-7.310685 0.070236 3.426391
-7.343363 0.130728 3.402335
-7.340704 0.144057 3.404215
-7.332386 0.167767 3.410010
-7.358057 0.177195 3.391277
-7.336168 0.240198 3.406136
-7.349614 0.279120 3.396333
-7.323285 0.134904 3.416775
-7.330451 0.229450 3.410424
-7.068394 0.472684 3.618059
-7.078947 0.508026 3.608868
-7.047423 0.476877 3.637021
-7.047757 0.530091 3.636554
-7.050147 0.543971 3.634262
-7.076362 0.623790 3.609080
-7.059065 0.573149 3.625766
-7.041654 0.612590 3.640188
-7.075480 0.666272 3.608844
-7.065489 0.728313 3.616711
-7.037641 0.657351 3.642099
-7.047384 0.667178 3.633307
-7.032549 0.691479 3.645442
-7.027364 0.723938 3.649753
-7.076687 0.797648 3.606387
-7.062342 0.756448 3.619135
-7.052400 0.770678 3.627633
-7.046461 0.795303 3.633071
-7.059382 0.784055 3.621622
-6.918831 -0.952103 3.663679
-6.884817 -0.961266 3.662439
-6.837203 -0.979969 3.651847
-6.762252 -1.000854 3.657191
-6.758842 -0.992739 3.687983
-6.767376 -0.991358 3.683577
-6.908403 1.034490 3.773727
-6.908748 1.051947 3.773648
-6.926811 1.093569 3.752817
-6.926252 1.138643 3.752589
-6.911612 1.216679 3.768269
-6.934391 1.261735 3.742661
-6.906201 1.236956 3.774951
-6.924888 1.254578 3.753593
-6.918679 1.299693 3.759960
-6.920672 1.307183 3.757475
-6.933638 1.370349 3.741175
-6.917349 1.363772 3.759919
-6.929233 1.366342 3.746272
-6.915036 1.412109 3.760562
-6.905601 1.459427 3.769387
-6.927063 1.456681 3.745177
-6.929881 1.499460 3.740426
-6.921247 1.529235 3.748726
-6.918096 1.571957 3.747618
-6.916384 1.594285 3.747823
-6.912558 1.614836 3.750591
-6.910701 1.658123 3.753496
-6.906619 1.627160 3.757919
-6.898151 1.673223 3.767116
-6.884629 1.620596 3.783157
-6.789711 0.931348 3.997964
-6.795333 1.030019 3.978713
-6.795591 1.066193 3.976426
-6.788161 1.092799 3.994817
-6.795383 1.111398 3.975728
-6.793475 1.155475 3.981000
-6.792586 1.187710 3.983184
-6.794237 1.190791 3.979195
-6.796214 1.218491 3.973996
-6.785602 1.261202 3.998928
-6.794296 1.269377 3.976294
-6.785563 1.302018 3.995657
-6.783453 1.308547 4.000422
-6.795327 1.362149 3.964859
-6.784275 1.416670 3.977487
-6.779473 1.450745 3.980673
-6.787535 1.481587 3.960449
-6.767685 1.498106 3.999255
-6.775920 1.528945 3.974819
-6.761028 1.550921 3.994705
-6.757019 1.596779 3.989477
-6.761007 1.614419 3.978140
-6.750686 1.590086 4.004383
-6.762491 1.624907 3.973927
-6.768080 1.637232 3.963141
-6.750804 1.645698 3.994342
-6.755675 1.671657 3.983612
-6.743731 1.686307 4.004340
-6.755100 1.703980 3.983869
-6.757683 1.727226 3.980105
-6.746466 1.736859 3.999216
-6.493308 -0.927041 4.186439
-6.478128 -0.921504 4.215443
-6.511218 -0.905548 4.189298
-6.515138 -0.877974 4.200320
-6.531446 -0.845093 4.190783
-6.514766 -0.827145 4.220798
-6.522157 -0.782986 4.219641
-6.556911 -0.690057 4.188026
-6.540537 -0.664038 4.214227
-6.551583 -0.669994 4.199461
-6.542888 -0.613488 4.221221
-6.551667 -0.611218 4.211213
-6.575544 -0.601233 4.187670
-6.580904 -0.564663 4.193521
-6.549592 -0.590860 4.219660
-6.557189 -0.565088 4.218331
-6.579296 -0.523684 4.206913
-6.586337 -0.475651 4.212461
-6.615582 -0.432592 4.195540
-6.615741 -0.420790 4.197951
-6.637794 -0.376741 4.186631
-6.628293 -0.366101 4.197641
-6.644648 -0.348787 4.185416
-6.655477 -0.293723 4.184628
-6.629076 -0.246239 4.212773
-6.635570 -0.274084 4.204699
-6.619788 -0.397511 4.199208
-6.617946 -0.364735 4.207148
-6.249598 0.735999 4.766307
-6.236955 0.796040 4.796901
-6.249085 0.790564 4.766318
-6.246435 0.821084 4.772226
-6.246379 0.875977 4.769954
-6.250805 0.871245 4.759324
-6.245285 0.917165 4.770903
-6.244874 0.932231 4.771295
-6.245505 0.986080 4.767328
-6.232713 0.991659 4.798337
-6.240812 1.009861 4.777728
-6.247738 1.052905 4.759055
-6.245478 1.141654 4.761309
-6.243556 1.196879 4.763183
-6.235491 1.205074 4.782859
-6.234529 1.220689 4.784540
-6.242083 1.280853 4.760416
-6.227552 1.279717 4.797595
-6.225816 1.310444 4.799115
-6.235128 1.348931 4.771492
-6.234270 1.412820 4.768541
-6.233800 1.513796 4.761564
-6.220971 1.489809 4.796082
-6.217384 1.561408 4.797432
-6.230724 1.578055 4.762990
-6.231047 1.591101 4.760942
-6.226259 1.621374 4.770005
-6.217798 1.655599 4.787361
-6.231775 0.189320 4.812759
-6.230475 0.159762 4.815558
-6.226698 0.200974 4.826756
-6.231878 0.215073 4.812663
-6.235522 0.285830 4.804607
-6.224295 0.342361 4.831986
-6.234797 0.340297 4.804548
-6.220883 0.361066 4.839504
-6.225572 0.407873 4.824211
-6.218396 0.377450 4.844972
-6.221898 0.407467 4.834081
-6.231865 0.460835 4.809949
-6.209780 0.252770 4.873724
-6.216902 0.280298 4.854100
-6.210960 0.294762 4.870733
-6.204550 0.297476 4.888739
-6.211108 0.370118 4.866460
-6.212703 0.409872 4.859884
-6.216948 0.453931 4.849279
-6.202404 0.449220 4.890218
-6.060255 1.203453 5.363930
-6.063335 1.254562 5.349478
-6.061197 1.275332 5.357897
-6.059609 1.318410 5.360790
-6.057015 1.363506 5.366835
-6.056164 1.402677 5.369240
-6.060285 1.448480 5.349801
-6.059327 1.514270 5.347993
-6.056178 1.568182 5.354891
-6.056055 1.578678 5.353568
-6.057394 1.587937 5.345594
-6.050329 1.661379 5.355337
-6.049375 1.702662 5.335217
-6.047777 1.713262 5.342946
-6.048999 1.728243 5.335147
-6.043509 1.713466 5.370889
-6.009439 0.388956 5.392393
-6.014728 0.432960 5.383440
-5.969153 0.389839 5.398110
-5.988604 0.398221 5.393497
-5.947187 0.398082 5.395353
-5.988691 0.441794 5.384297
-5.965786 0.445083 5.379562
-7.358334 0.328953 3.389995
-7.335970 0.356859 3.406177
-7.360801 0.339113 3.388191
-7.334538 0.380473 3.407146
-7.363050 0.394549 3.386136
-7.361643 0.423744 3.386979
-7.354629 0.448055 3.391921
-7.324296 0.338323 3.414685
-7.317882 0.394261 3.419315
-7.315326 0.404371 3.421169
-7.318229 0.434319 3.418777
-7.251520 -0.584940 3.465176
-7.272883 -0.556350 3.450183
-7.253124 -0.552999 3.465254
-7.278666 -0.537123 3.446409
-7.287574 -0.496777 3.440844
-7.299353 -0.498296 3.431841
-7.275953 -0.484114 3.450120
-7.276074 -0.464955 3.450639
-7.252923 -0.450153 3.468570
-7.275081 -0.417126 3.452492
-7.274610 -0.383645 3.453319
-7.305954 -0.362489 3.429528
-7.252333 -0.347192 3.470583
-7.286323 -0.364771 3.444542
-7.290078 -0.310250 3.441926
-7.299311 -0.325449 3.434988
-7.275235 -0.289517 3.453201
-7.267884 -0.278475 3.458779
-7.266991 -0.263348 3.459362
-7.145632 -0.950172 3.471094
-7.292113 -0.238372 3.440035
-7.292450 -0.198208 3.438703
-7.303641 -0.161794 3.429772
-7.280841 -0.196699 3.447504
-7.265439 -0.168941 3.458823
-7.272985 -0.133210 3.452961
-7.281081 -0.104253 3.446957
-7.253466 -0.081779 3.468318
-7.256945 -0.035890 3.465318
-7.269201 -0.038675 3.456016
-7.278387 0.010104 3.449234
-7.256084 -0.007165 3.465958
-7.110072 0.656978 3.578615
-7.097984 0.653544 3.589237
-7.082817 0.658741 3.602403
-7.082991 0.691978 3.601504
-7.082840 0.730423 3.601265
-7.109747 0.766535 3.576139
-7.089436 0.760198 3.594954
-7.087351 0.810422 3.596392
-7.120091 0.843328 3.564812
-7.104605 0.848656 3.578268
-7.092319 0.845289 3.589841
-7.082467 0.891617 3.596945
-7.103140 0.897881 3.577416
-7.117132 0.917304 3.565671
-7.106472 0.919038 3.574749
-7.082241 0.948762 3.598961
-7.074664 0.963270 3.606139
-7.107736 0.972599 3.575835
-7.109359 1.009441 3.572450
-7.081801 1.018253 3.597819
-7.102342 1.083864 3.571970
-7.107329 1.110161 3.567235
-7.085782 1.105691 3.589816
-7.089984 1.146989 3.585878
-7.086961 1.167961 3.589080
-7.102540 1.183944 3.572006
-7.079948 1.196795 3.595531
-7.098457 1.239248 3.575487
-7.093253 1.262169 3.581441
-7.072908 1.276254 3.603629
-7.070642 1.339533 3.605429
-7.071067 1.570458 3.607723
-7.044793 1.536234 3.630867
-7.032980 1.560215 3.640300
-7.039788 1.585873 3.633639
-7.043314 1.603023 3.629993
-7.020967 1.636576 3.647585
-7.043473 1.624334 3.628948
-7.038902 1.672576 3.629998
-7.061438 1.671936 3.610605
-7.049860 1.696493 3.618317
-7.030328 1.717058 3.633318
-7.055508 1.736044 3.607578
-6.715006 -0.966949 3.816533
-6.623312 -0.999684 3.811997
-6.675445 -0.977609 3.826754
-6.701953 -0.981344 3.785405
-6.650515 -0.989295 3.817350
-6.803395 -0.774760 3.856790
-6.807278 -0.811043 3.847030
-6.799610 -0.740941 3.865628
-6.829954 -0.754945 3.828903
-6.812588 -0.713657 3.854273
-6.809134 -0.697768 3.860214
-6.819219 -0.656709 3.853175
-6.832661 -0.636912 3.839375
-6.820571 -0.617181 3.856825
-6.842102 -0.616706 3.830519
-6.758332 -0.938393 3.836911
-6.778581 -0.909445 3.849655
-6.727171 -0.944011 3.861423
-6.783554 -0.887257 3.854072
-6.793923 -0.831989 3.858551
-6.790519 -0.791353 3.869281
-6.847863 -0.577401 3.828218
-6.818579 -0.564210 3.867595
-6.833216 -0.572701 3.847746
-6.822459 -0.516270 3.870605
-6.832470 -0.520955 3.856726
-6.848706 -0.496014 3.838770
-6.840375 -0.494918 3.849975
-6.846670 -0.457068 3.845542
-6.801711 0.618891 3.946515
-6.811164 0.621024 3.919617
-6.802400 0.662829 3.954635
-6.811400 0.683098 3.933577
-6.816264 0.698884 3.922635
-6.801927 0.705888 3.960349
-6.819251 0.733558 3.918024
-6.803606 0.748545 3.959403
-6.809209 0.803097 3.947883
-6.797039 0.528286 3.918005
-6.609660 -0.952647 3.965332
-6.500405 -1.000299 3.964640
-6.477712 -1.001061 3.988486
-6.475579 -1.004277 3.977801
-6.476424 -0.998666 4.002584
-6.494683 -0.993920 3.994233
-6.543196 -0.935251 4.095492
-6.583900 -0.885118 4.097341
-6.572773 -0.905129 4.100491
-6.559061 -0.898339 4.124288
-6.600518 -0.826112 4.100522
-6.574557 -0.819117 4.137261
-6.596606 -0.778886 4.116386
-6.632582 -0.650662 4.105044
-6.649556 -0.621213 4.096961
-6.610552 -0.758642 4.102405
-6.585823 -0.754075 4.135135
-6.617516 -0.727137 4.100010
-6.600552 -0.687155 4.131983
-6.601809 -0.681345 4.132273
-6.615310 -0.620882 4.136884
-6.652267 -0.582892 4.109987
-6.658851 -0.552699 4.115189
-6.665427 -0.530130 4.115908
-6.680626 -0.446064 4.124179
-6.702923 -0.437469 4.097963
-6.707272 -0.396339 4.103001
-6.709422 -0.372577 4.105821
-6.650662 0.481867 4.209287
-6.635782 0.505431 4.222383
-6.676825 0.533403 4.184278
-6.661668 0.532260 4.199498
-6.646722 0.531469 4.212620
-6.650288 0.558385 4.209326
-6.640495 0.570349 4.217877
-6.677354 0.612625 4.183182
-6.644117 0.602581 4.214652
-6.663752 0.622129 4.197108
-6.668995 0.663064 4.192470
-6.673379 0.648346 4.187593
-6.676617 0.703663 4.184190
-6.663311 0.714160 4.198103
-6.647542 0.720384 4.212701
-6.660456 0.741110 4.200265
-6.649174 0.766415 4.210106
-6.639009 0.811715 4.218345
-6.364994 0.493412 4.517162
-6.374531 0.495384 4.499768
-6.357054 0.536748 4.529475
-6.362499 0.552898 4.518619
-6.366258 0.669249 4.502281
-6.370605 0.656802 4.495327
-6.375534 0.713809 4.491891
-6.352123 0.662016 4.526519
-6.354561 0.672307 4.523912
-6.374943 0.741335 4.494974
-6.368570 0.798484 4.507536
-6.354113 0.810242 4.534298
-6.361003 0.824100 4.521426
-6.376189 0.862742 4.492395
-6.361684 0.867909 4.519531
-6.371399 0.945875 4.502524
-6.376717 0.930198 4.492143
-6.358175 0.967183 4.527081
-6.365958 0.991694 4.512707
-6.355679 0.911967 4.531282
-6.362940 1.058155 4.516060
-6.375968 1.077464 4.492409
-6.352438 1.063921 4.534577
-6.371500 1.090756 4.499574
-6.356088 1.115086 4.525346
-6.357469 1.212587 4.515837
-6.356855 1.245587 4.511775
-6.366479 1.238685 4.496345
-6.355219 1.218671 4.519490
-6.237455 -0.959249 4.562076
-6.135783 -1.007645 4.564674
-6.173544 -0.992566 4.557477
-6.248354 -0.860798 4.683253
-6.250622 -0.826051 4.685561
-6.257314 -0.780942 4.678818
-6.262256 -0.758228 4.671637
-6.256339 -0.745224 4.687197
-6.248263 -0.729919 4.708024
-6.264078 -0.717429 4.674147
-6.252837 -0.659539 4.708668
-6.266403 -0.644454 4.679814
-6.261525 -0.632774 4.692920
-6.275294 -0.490223 4.676649
-6.267673 -0.575885 4.686120
-6.257146 -0.568647 4.710328
-6.264571 -0.526121 4.697600
-6.268086 -0.395241 4.701209
-6.270937 -0.313435 4.698264
-6.283583 -0.313423 4.669655
-6.268828 -0.276455 4.703553
-6.281403 -0.252810 4.675884
-6.264962 -0.401948 4.707362
-6.265074 -0.284457 4.711625
-6.279355 -0.202446 4.680392
-6.277879 -0.217929 4.683526
-6.268543 -0.156668 4.706767
-6.281911 -0.194236 4.674699
-6.277183 -0.116384 4.687590
-6.280736 -0.070664 4.679381
-6.282752 -0.072387 4.674679
-6.276918 -0.031039 4.690390
-6.280414 -0.051454 4.681177
-6.270316 0.012699 4.707696
-6.272720 0.010154 4.702114
-6.285731 -0.001945 4.671996
-6.285851 0.048505 4.673732
-6.272949 0.069192 4.704021
-6.283545 0.103166 4.679563
-6.282176 0.134293 4.682192
-6.277620 0.132247 4.693044
-6.285936 0.158866 4.672823
-6.275645 0.178751 4.697712
-6.278773 0.202122 4.689961
-6.277432 0.248033 4.693890
-6.280539 0.261729 4.686502
-6.272600 0.326474 4.705987
-6.275909 0.333459 4.696880
-6.270093 0.367884 4.710963
-6.268070 0.459916 4.717608
-6.264831 0.330056 4.726526
-6.263895 0.359613 4.727630
-6.252908 0.360273 4.755765
-6.253380 0.410620 4.753617
-6.262692 0.447478 4.730839
-6.253949 0.447567 4.753067
-6.141244 0.532682 5.080131
-6.133900 0.549954 5.101512
-6.139047 0.587557 5.084161
-6.130666 0.563417 5.111177
-6.136051 0.624195 5.090675
-6.136137 0.637814 5.089372
-6.139038 0.674317 5.077843
-6.137101 0.702753 5.081774
-6.132117 0.820253 5.086842
-6.127566 0.854471 5.091825
-6.125704 0.861939 5.095599
-6.118583 0.899082 5.107885
-6.127763 0.889484 5.081385
-6.123321 0.911857 5.091681
-6.130711 0.924725 5.070883
-6.121895 0.961039 5.104420
-6.133066 0.958088 5.068435
-6.132533 1.006543 5.076216
-6.126285 1.009673 5.097404
-6.122141 0.998393 5.110705
-6.126485 1.069702 5.097900
-6.128270 1.093572 5.091443
-6.123619 1.110567 5.106289
-6.134371 1.160651 5.068071
-6.126915 1.159272 5.093286
-6.128006 1.186074 5.088124
-6.129604 1.192960 5.082266
-6.128191 1.240988 5.081432
-6.127873 1.254815 5.080189
-6.120792 1.266421 5.103066
-6.128086 1.275524 5.077898
-6.127267 1.309233 5.080150
-6.130989 1.349647 5.070580
-6.121099 1.357258 5.104502
-6.125919 1.392959 5.087164
-6.120439 1.400502 5.106008
-6.123842 1.438491 5.090037
-6.116663 1.481453 5.110854
-6.129387 1.460727 5.068085
-6.122645 1.495900 5.088649
-6.116095 1.518143 5.109984
