-6.095200 0.517950 5.141381
-6.088825 0.541311 5.150038
-6.079012 0.564201 5.160437
-6.063146 0.556846 5.138659
-6.056842 0.578378 5.156887
-6.013396 0.772504 5.267229
-5.991898 0.774341 5.255440
-5.994547 0.782839 5.263084
-5.990563 0.798702 5.271416
-5.975042 0.784253 5.254291
-5.952931 0.792309 5.250119
-5.964191 0.813464 5.267998
-5.948966 0.824401 5.266493
-5.923179 0.816217 5.249748
-5.916076 0.861446 5.265176
-5.903490 0.846468 5.252753
-5.892941 0.887839 5.269245
-6.056386 -0.830660 5.289544
-6.059225 -0.813884 5.288487
-6.058815 -0.792795 5.297937
-6.066853 -0.777804 5.280783
-6.065145 -0.748967 5.295317
-6.075382 -0.710333 5.277671
-6.067117 -0.713585 5.299463
-6.073062 -0.659976 5.294533
-6.075550 -0.628331 5.293188
-6.076975 -0.601423 5.292222
-6.078763 -0.589376 5.288558
-6.078125 -0.572130 5.291499
-6.076633 -0.547360 5.297371
-6.082067 -0.544431 5.282759
-6.082016 -0.529772 5.284090
-6.065891 -0.271138 5.344269
-6.067133 -0.224079 5.344647
-6.066830 -0.203911 5.346741
-6.064077 -0.180999 5.355072
-6.073586 -0.152780 5.332996
-6.072584 -0.162127 5.334654
-6.074202 -0.120455 5.335454
-6.075927 -0.058877 5.341388
-6.078580 -0.033449 5.337366
-6.071010 -0.067098 5.353464
-6.079144 0.029581 5.342007
-6.081950 0.059533 5.337610
-6.078342 0.071909 5.348385
-6.078907 0.091909 5.348726
-6.080949 0.102169 5.344201
-6.078037 0.125593 5.354495
-6.085946 0.124718 5.332522
-6.083255 0.172983 5.344715
-6.088398 0.224656 5.335423
-6.087906 0.246566 5.338616
-6.086698 0.259668 5.343090
-6.083133 0.271258 5.353821
-6.085025 0.284767 5.349390
-6.088263 0.296776 5.341174
-6.092012 0.317670 5.331816
-6.087991 0.351516 5.345332
-6.060455 0.383992 5.414509
-6.061176 0.416440 5.414231
-6.060228 0.430181 5.416882
-6.053132 0.485105 5.434505
-6.055157 0.499774 5.430215
-6.052372 0.508067 5.436927
-6.061785 0.520998 5.414631
-6.055766 0.539244 5.428104
-6.061349 0.547298 5.414273
-6.050801 0.557995 5.438141
-6.059422 0.571389 5.417423
-6.057712 0.587816 5.421129
-6.060027 0.610046 5.417345
-6.053507 0.627250 5.433156
-6.062381 0.635343 5.413604
-6.056579 0.653700 5.428631
-6.063096 0.653767 5.412418
-6.057835 0.670684 5.425725
-6.055203 0.692243 5.432688
-6.021957 -0.249682 5.448973
-6.026030 -0.239811 5.441251
-6.023637 -0.212165 5.448375
-6.024426 -0.233336 5.445041
-6.019976 -0.204508 5.456753
-6.016079 -0.289432 5.456810
-6.017249 -0.247336 5.458886
-6.015340 -0.216506 5.465485
-6.024990 -0.179695 5.448487
-6.029118 -0.173480 5.440279
-6.023715 -0.143547 5.455666
-6.029726 -0.150391 5.441563
-6.021560 -0.121277 5.463359
-6.024380 -0.079896 5.461830
-6.026364 -0.052323 5.460602
-6.030622 -0.036715 5.453172
-6.034080 -0.027574 5.446686
-6.027972 -0.010681 5.461265
-6.037339 -0.003615 5.441766
-6.035796 0.014159 5.446508
-6.027659 0.015153 5.464298
-6.029489 0.039362 5.462338
-6.040878 0.079890 5.440583
-6.030221 0.106420 5.465750
-6.038056 0.108685 5.448791
-6.035748 0.146275 5.457013
-6.035750 0.152837 5.457588
-6.041884 0.166207 5.445059
-6.039135 0.180067 5.452126
-6.040062 0.204625 5.451187
-6.042675 0.223426 5.446316
-6.044226 0.232083 5.443241
-6.042277 0.254001 5.448329
-5.985472 1.420992 5.486594
-5.978045 1.457011 5.479270
-5.960420 1.425640 5.467398
-5.962870 1.451223 5.467349
-5.994076 1.493318 5.489124
-5.982150 1.492180 5.475019
-5.980764 1.511268 5.469246
-5.995736 1.529777 5.479856
-5.994054 1.541475 5.469610
-5.983337 1.522736 5.466960
-5.999640 1.549591 5.475870
-6.005313 1.550490 5.486637
-6.022014 1.077702 5.502386
-6.024774 1.127016 5.499963
-6.017449 1.065007 5.516016
-6.019595 1.180375 5.511592
-6.023704 1.177639 5.499598
-6.023347 1.199343 5.497593
-6.019761 1.226964 5.505828
-6.017189 1.178382 5.518583
-6.017826 1.199875 5.514661
-6.016184 1.241727 5.515722
-6.017991 1.306131 5.506575
-6.007080 1.351440 5.517952
-6.004555 1.377346 5.521209
-6.002281 1.382457 5.513795
-5.997649 1.398803 5.503879
-5.995379 1.414926 5.499485
-6.001102 1.432492 5.517067
-6.000068 1.439610 5.515306
-5.997003 1.458763 5.506419
-5.998296 1.463536 5.509769
-6.003250 1.526062 5.510885
-6.006899 1.555779 5.512796
-6.009347 1.592417 5.495429
-6.008400 1.587806 5.509900
-6.009178 1.598473 5.520513
-6.008770 1.628583 5.504152
-6.009806 1.636649 5.513999
-6.010688 1.676376 5.519969
-6.010648 0.366670 5.523631
-6.008829 0.389701 5.526780
-5.998799 0.445124 5.548012
-6.006484 0.437054 5.532240
-6.008980 0.472076 5.530531
-6.010779 0.483909 5.526943
-6.001323 0.503042 5.546777
-6.005363 0.515079 5.537774
-6.008191 0.537237 5.531531
-6.006750 0.558064 5.535037
-6.012045 0.562463 5.523963
-6.010398 0.587458 5.530209
-6.013267 0.617966 5.526976
-6.006729 0.633677 5.542109
-6.008124 0.650367 5.539870
-6.008427 0.665956 5.539938
-6.014440 0.675945 5.527113
-6.010163 0.703994 5.537466
-6.016091 0.728386 5.524953
-6.008109 0.769889 5.542501
-6.008955 0.783718 5.540868
-6.009645 0.799134 5.539822
-6.009737 0.820640 5.540468
-6.006399 0.831008 5.548076
-6.007728 0.856706 5.546057
-6.014715 0.892506 5.529991
-6.007360 0.904283 5.546759
-6.014253 0.931337 5.530228
-6.007112 0.930959 5.546535
-6.011034 0.947110 5.537104
-6.008636 0.969671 5.542460
-6.010892 1.016625 5.536588
-5.968469 0.540919 5.614079
-5.970964 0.564241 5.610368
-5.963000 0.532890 5.624295
-5.971952 0.605674 5.610684
-5.969543 0.585248 5.614642
-5.973959 0.614490 5.607127
-5.965245 0.650301 5.625462
-5.965360 0.689825 5.626513
-5.971528 0.681604 5.614563
-5.975163 0.698013 5.608198
-5.966981 0.721604 5.624544
-5.967084 0.736135 5.624774
-5.976568 0.767777 5.607571
-5.970892 0.794461 5.619512
-5.966161 0.827791 5.630029
-5.972813 0.822058 5.616702
-5.969978 0.844506 5.622964
-5.974597 0.860409 5.614229
-5.975430 0.877089 5.612782
-5.967695 0.886997 5.628290
-5.967227 0.923607 5.629849
-5.976732 0.928743 5.610601
-5.973123 0.955258 5.617811
-5.976459 0.971995 5.610603
-5.971586 0.988281 5.619217
-5.977539 0.995543 5.607612
-5.972488 1.019781 5.617184
-5.908636 -0.499051 5.643335
-5.909242 -0.434773 5.646961
-5.917337 -0.437019 5.632535
-5.915968 -0.378141 5.638743
-5.910137 -0.352388 5.650024
-5.911983 -0.328971 5.648006
-5.911567 -0.296211 5.650276
-5.915945 -0.306975 5.642336
-5.858346 0.214333 5.778930
-5.861301 0.208464 5.774099
-5.866115 0.255427 5.770473
-5.865983 0.247653 5.770113
-5.853413 0.256501 5.789616
-5.861694 0.267538 5.778025
-5.869678 0.291728 5.767929
-5.856446 0.321506 5.790175
-5.872576 0.365802 5.768481
-5.872856 1.024761 5.801571
-5.877263 1.065271 5.795597
-5.870449 1.068041 5.807031
-5.866769 1.093319 5.814444
-5.875616 1.088431 5.799763
-5.868956 1.108900 5.811759
-5.877823 1.112066 5.797337
-5.871464 1.151794 5.809325
-5.875903 1.177584 5.802939
-5.869472 1.184803 5.813798
-5.875432 1.189123 5.804157
-5.865751 1.191380 5.820220
-5.876667 1.208431 5.803072
-5.872487 1.228514 5.810988
-5.869817 1.266588 5.816352
-5.877225 1.293238 5.803627
-5.880173 1.312293 5.799251
-5.870873 1.311617 5.815234
-5.876061 1.325352 5.806688
-5.878039 1.354057 5.803677
-5.880157 1.392812 5.799013
-5.873618 1.395376 5.809846
-5.872171 1.414098 5.810789
-5.871139 1.455079 5.806419
-5.861656 1.475186 5.820785
-5.870334 1.477088 5.804867
-5.861040 1.496880 5.818278
-5.870414 1.496153 5.801768
-5.867381 1.527909 5.803416
-5.869111 1.546935 5.798801
-5.868357 1.562266 5.798218
-5.855077 1.594557 5.813035
-5.865912 1.610487 5.798276
-5.863044 1.636421 5.804212
-5.857715 1.642943 5.815979
-5.858002 1.657477 5.818473
-5.863899 1.663467 5.804264
-5.836567 0.382437 5.824164
-5.823955 0.366381 5.839694
-5.827260 0.416604 5.839326
-5.838527 0.433175 5.824794
-5.834427 0.475118 5.835311
-5.829153 0.448246 5.840128
-5.824386 0.449203 5.847272
-5.825495 0.472478 5.848199
-5.837942 0.481194 5.830659
-5.843016 0.524772 5.826415
-5.840671 0.528090 5.829995
-5.630930 0.155249 6.077045
-5.621116 0.162093 6.090303
-5.636269 0.218266 6.069065
-5.623190 0.221479 6.090391
-5.627160 0.251547 6.087054
-5.637854 0.298394 6.078630
-5.627309 0.261035 6.088150
-5.629406 0.300472 6.091644
-5.633068 0.333153 6.089262
-5.632461 0.348315 6.091969
-5.631052 0.352781 6.094588
-5.670206 1.047512 6.095744
-5.661604 1.054808 6.107532
-5.653451 1.090562 6.120706
-5.667995 1.122082 6.103827
-5.666758 1.137209 6.106407
-5.664999 1.167907 6.110369
-5.674131 1.168622 6.098355
-5.658062 1.162998 6.119159
-5.677516 1.212513 6.096052
-5.661355 1.193211 6.116477
-5.675180 1.231237 6.100050
-5.658998 1.229281 6.121093
-5.662579 1.251844 6.117141
-5.668824 1.242774 6.108774
-5.668050 1.282722 6.110877
-5.679082 1.299273 6.096951
-5.675521 1.347917 6.102552
-5.677527 1.333453 6.099693
-5.680475 1.378142 6.096571
-5.673297 1.360048 6.105432
-5.674751 1.378680 6.103724
-5.662277 1.400319 6.119291
-5.674606 1.437548 6.099564
-5.662545 1.475367 6.107503
-5.652867 1.500200 6.120197
-5.652424 1.527388 6.113897
-5.653716 1.543192 6.106849
-5.651803 1.557522 6.112907
-5.518256 -0.009507 6.205481
-5.512773 0.060041 6.215836
-5.508285 0.065736 6.220900
-5.515228 0.095591 6.214502
-5.501523 0.120451 6.229665
-5.499208 0.132622 6.232287
-5.510376 0.153866 6.219682
-5.519688 0.177024 6.212265
-5.522302 0.216599 6.213802
-5.511282 0.240850 6.225128
-5.528248 0.278996 6.210450
-5.527779 0.302350 6.211749
-5.516360 0.291328 6.223260
-5.529973 0.337563 6.213622
-5.534144 0.327434 6.207659
-5.539166 0.351803 6.205903
-5.512448 0.325366 6.230647
-5.515593 0.352585 6.230990
-5.462427 -0.506624 6.225529
-5.464351 -0.483356 6.225879
-5.466558 -0.470439 6.224859
-5.464484 -0.447532 6.229007
-5.461067 -0.451451 6.232102
-5.465608 -0.411862 6.230800
-5.466744 -0.399689 6.230575
-5.466051 -0.385427 6.232303
-5.451372 0.048577 6.278975
-5.464897 0.046335 6.265014
-5.459107 0.078037 6.272654
-5.462170 0.078371 6.269540
-5.465559 0.108878 6.267630
-5.460734 0.115361 6.272842
-5.449726 0.138305 6.284998
-5.455827 0.142569 6.278847
-5.454537 0.162509 6.280870
-5.470306 0.156240 6.263718
-5.451685 0.191339 6.284091
-5.457706 0.229696 6.276439
-5.461784 0.261490 6.275214
-5.460064 0.287649 6.281790
-5.468277 0.295493 6.273980
-5.460560 0.358837 6.281241
-5.430931 0.039559 6.299423
-5.423533 0.051634 6.307578
-5.431129 0.071508 6.300806
-5.432909 0.081844 6.299479
-5.434678 0.095431 6.298110
-5.427166 0.114498 6.305782
-5.445580 0.129503 6.288655
-5.439034 0.140595 6.295271
-5.427894 0.141559 6.305775
-5.439265 0.172477 6.296867
-5.443813 0.198275 6.293257
-5.430979 0.206688 6.307193
-5.436178 0.226800 6.301554
-5.435913 0.235661 6.302211
-5.432198 0.284020 6.311859
-5.452198 0.309577 6.292841
-5.437029 0.285498 6.306548
-5.433732 0.303484 6.312427
-5.444166 0.327223 6.301871
-5.451585 0.330871 6.293115
-5.435379 0.334082 6.312040
-5.442728 0.364569 6.304163
-5.449587 1.679655 6.370136
-5.425495 1.689273 6.392719
-5.435782 1.691161 6.381938
-5.436139 1.719765 6.379910
-5.423778 1.733309 6.391546
-5.399211 1.626443 6.421224
-5.404643 1.641204 6.417265
-5.409445 1.654112 6.413182
-5.398441 1.683386 6.421513
-5.412413 1.708205 6.403746
-5.399046 1.741217 6.414708
-5.325124 1.260901 6.473004
-5.346284 1.296199 6.454360
-5.339504 1.314869 6.466254
-5.348067 1.347201 6.461474
-5.341227 1.328546 6.466405
-5.332883 1.337924 6.477395
-5.363050 1.443679 6.456787
-5.351799 1.355686 6.458705
-5.342136 1.376969 6.473002
-5.353406 1.401855 6.464316
-5.363757 1.557392 6.460762
-5.353901 1.472576 6.467783
-5.359043 1.488866 6.463573
-5.349385 1.531915 6.475957
-5.359250 1.530361 6.465012
-5.351167 1.568579 6.476180
-5.362844 1.588237 6.463145
-5.371626 1.582015 6.451576
-5.368138 1.613934 6.457039
-5.367245 1.674929 6.456413
-5.359111 1.610180 6.468218
-5.318537 1.614716 6.511158
-5.293625 1.577117 6.533248
-5.314991 1.645310 6.515235
-5.322939 1.660272 6.507346
-5.298255 1.631086 6.531125
-5.297987 1.662567 6.531358
-5.307514 1.681785 6.521876
-5.315973 1.715191 6.510055
-5.298203 1.731067 6.523730
-5.295153 1.735460 6.525135
-5.198637 0.369355 6.534076
-5.191284 0.373010 6.539898
-5.166085 0.399210 6.560277
-5.202557 0.447285 6.534255
-5.203828 0.462733 6.534238
-5.170290 0.423352 6.557971
-5.188827 0.437034 6.544229
-5.194720 0.459352 6.541121
-5.199476 0.482095 6.538597
-5.188986 0.489321 6.546842
-5.173871 0.488966 6.558605
-5.180671 0.507931 6.553292
-5.187823 0.529585 6.547044
-5.202684 0.530584 6.535835
-5.200798 0.569489 6.533980
-5.183194 0.551082 6.548940
-5.197344 0.561743 6.537373
-5.116388 0.053599 6.573767
-5.113426 0.040511 6.574954
-5.100814 0.052442 6.585080
-5.119504 0.072743 6.572934
-5.133368 0.070084 6.562434
-5.120067 0.100606 6.574631
-5.113668 0.109976 6.580201
-5.122087 0.144471 6.576351
-5.127854 0.119971 6.570404
-5.149702 0.237062 6.562302
-5.130002 0.169895 6.571882
-5.119592 0.150746 6.578629
-5.122472 0.198726 6.579875
-5.109632 0.177650 6.587716
-5.139766 0.212585 6.567891
-5.138020 0.245992 6.572284
-5.130359 0.254282 6.578822
-5.147594 0.279331 6.567599
-5.152965 0.262197 6.561889
-5.156548 0.289203 6.561301
-5.158421 0.331576 6.563266
-5.143878 0.353433 6.576244
-5.132974 0.266423 6.577811
-5.119011 0.257928 6.587704
-5.139335 0.326276 6.577817
-5.130037 0.329319 6.584953
-4.688422 -0.397918 6.799004
-4.699986 -0.386551 6.794213
-4.683887 -0.351028 6.805469
-4.693826 -0.357784 6.799875
-4.694337 -0.324867 6.802361
-4.698479 -0.308183 6.801583
-4.702454 -0.293922 6.800557
-4.732502 -0.283219 6.785999
-4.714082 -0.271921 6.796300
-4.708331 -0.250790 6.800978
-4.727134 -0.255026 6.790905
-4.737519 -0.217024 6.787652
-4.747409 -0.230071 6.781192
-4.723300 -0.209969 6.796379
-4.722936 -0.231976 6.794857
-4.719630 -0.202136 6.799190
-4.694905 -0.273926 6.806257
-4.761246 -0.131533 6.783374
-4.734395 -0.170552 6.794014
-4.716264 -0.176444 6.803612
-4.746544 -0.126560 6.791942
-4.727545 -0.150055 6.799954
-4.719477 -0.126822 6.806146
-4.764132 -0.114421 6.783600
-4.742007 -0.116653 6.795208
-4.747207 -0.104336 6.793512
-4.753960 -0.074808 6.792385
-4.746803 -0.092443 6.794734
-4.725931 -0.092318 6.805858
-4.579037 0.155124 6.896578
-4.567800 0.150936 6.901505
-4.577089 0.192237 6.898378
-4.551832 0.196692 6.910110
-4.554304 0.185926 6.908564
-4.577061 0.207967 6.899411
-4.563807 0.219260 6.906418
-4.582536 0.245752 6.901821
-4.586974 0.241667 6.899408
-4.545270 0.229722 6.916057
-4.559971 0.250752 6.912838
-4.589328 0.283903 6.903944
-4.573766 0.257260 6.907761
-4.556807 0.263606 6.915891
-4.573198 0.284131 6.911444
-4.590535 0.291351 6.904088
-4.590437 0.312427 6.906250
-4.593975 0.313409 6.904726
-4.601537 0.892036 6.945276
-4.605700 0.913246 6.944819
-4.604868 0.965346 6.949306
-4.601832 0.983467 6.952306
-4.597343 0.998598 6.955732
-4.612616 1.036176 6.951392
-4.604748 1.082839 6.958407
-4.630819 1.140630 6.950038
-4.615122 1.155265 6.958249
-4.641391 1.185682 6.947001
-4.640343 1.171654 6.946932
-4.613157 1.176938 6.960133
-4.629990 1.206489 6.954088
-4.605798 1.187664 6.964313
-4.607888 1.210392 6.965109
-4.626544 1.234165 6.958492
-4.644153 1.217595 6.948235
-4.613185 1.229120 6.964428
-4.602935 1.234433 6.969544
-6.049077 0.474303 5.078472
-6.043490 0.450773 5.081453
-6.050476 0.491513 5.080841
-6.115612 0.282473 5.248366
-6.110312 0.275670 5.270165
-6.116028 0.301226 5.250196
-6.111471 0.299927 5.269191
-6.117281 0.347428 5.252082
-5.922637 -1.032597 5.351809
-5.944798 -1.015184 5.353569
-5.991995 -0.974927 5.338857
-5.988042 -0.975744 5.350305
-5.969267 -0.999779 5.330121
-6.003465 -0.955570 5.343727
-6.020081 -0.932340 5.329829
-6.032982 -0.893419 5.330381
-6.036274 -0.854243 5.339328
-6.032172 -0.852428 5.350771
-6.008368 -0.943278 5.351747
-6.006550 -0.943730 5.356777
-6.056914 -0.284656 5.366015
-6.055015 -0.263084 5.372540
-6.058733 -0.247172 5.364641
-6.060307 -0.236393 5.361636
-6.056746 -0.228065 5.371081
-6.056388 -0.215594 5.372464
-6.059919 -0.183175 5.365229
-6.053748 -0.177975 5.380680
-6.061598 -0.167028 5.362793
-6.061025 -0.149906 5.366240
-6.061964 -0.133764 5.366512
-6.060133 -0.113328 5.374315
-6.064817 -0.117093 5.361949
-6.063623 -0.095170 5.368146
-6.067930 -0.090845 5.357832
-6.066609 -0.051990 5.367109
-6.064737 -0.011414 5.376984
-6.067639 0.004465 5.371181
-6.069764 0.033638 5.368139
-6.067399 0.063487 5.376726
-6.071560 0.065802 5.365708
-6.070612 0.112776 5.372350
-6.067129 0.135150 5.383544
-6.078858 0.185840 5.358749
-6.068725 0.158750 5.381963
-6.074630 0.241373 5.373229
-6.078688 0.242475 5.363337
-6.078668 0.261042 5.364516
-6.074675 0.307846 5.377059
-6.081623 0.295021 5.359316
-6.072460 0.304838 5.382295
-6.080997 0.356919 5.363716
-6.065527 0.705050 5.402174
-6.068650 0.704098 5.391996
-6.065774 0.731971 5.399396
-6.062327 0.731709 5.410845
-6.068690 0.774184 5.384978
-6.062724 0.775160 5.405765
-6.064867 0.779256 5.397322
-6.061101 0.788018 5.409235
-6.062512 0.825473 5.391484
-6.062227 0.833012 5.390281
-6.043155 0.929652 5.388102
-6.038600 0.964055 5.393938
-6.038591 0.951909 5.387394
-6.040854 0.965265 5.400918
-6.041665 1.009645 5.410129
-6.032075 1.033701 5.394097
-6.041843 1.045789 5.409616
-6.038504 1.053974 5.404054
-6.042696 1.064836 5.410641
-6.032896 1.082718 5.394243
-6.037584 1.089879 5.401976
-6.036967 1.104911 5.401232
-6.041144 1.115244 5.411256
-6.025491 1.153596 5.402444
-6.017857 1.145449 5.388207
-5.996440 1.178701 5.389697
-6.011659 1.161158 5.390873
-5.978259 1.218360 5.403398
-5.965553 1.218564 5.397261
-5.950730 1.207062 5.385480
-5.931839 1.216685 5.386402
-5.931482 1.227466 5.392124
-5.919724 1.222012 5.387703
-5.955497 -0.770945 5.523714
-5.953014 -0.743751 5.533137
-5.953645 -0.715503 5.537031
-5.962149 -0.697755 5.523322
-5.954415 -0.694383 5.538771
-5.962446 -0.666683 5.526783
-5.953131 -0.651839 5.546822
-5.958282 -0.641378 5.538662
-5.959166 -0.631385 5.538512
-5.967892 -0.600271 5.526661
-5.970886 -0.576258 5.523887
-5.958402 -0.617498 5.541989
-5.962510 -0.570581 5.540469
-5.964050 -0.550992 5.539800
-5.978676 0.391379 5.585310
-5.976142 0.404587 5.589256
-5.974148 0.411062 5.593163
-5.977233 0.436268 5.589142
-5.984082 0.456243 5.578174
-5.985186 0.484752 5.579650
-5.981685 0.511244 5.587403
-5.976216 0.528623 5.598648
-5.986772 0.560315 5.578639
-5.974755 0.565929 5.603179
-5.987813 0.591051 5.578780
-5.980974 0.596147 5.592690
-5.986331 0.615910 5.582771
-5.984050 0.629737 5.587685
-5.981300 0.649686 5.593916
-5.989088 0.675941 5.579816
-5.980023 0.706075 5.599022
-5.980390 0.718627 5.598699
-5.991575 0.743057 5.576733
-5.991542 0.722998 5.576528
-5.981620 0.741585 5.596765
-5.984853 0.735635 5.590123
-5.989898 0.759230 5.580500
-5.982049 0.759070 5.596394
-5.991782 0.799405 5.577879
-5.979774 0.785216 5.601827
-5.983939 0.810593 5.594197
-5.991273 0.853397 5.580652
-5.983173 0.842496 5.596667
-5.988050 0.838122 5.586774
-5.966404 0.390493 5.610055
-5.966480 0.427851 5.610807
-5.967041 0.448560 5.611890
-5.965910 0.500184 5.617787
-5.967516 0.477040 5.613639
-5.968677 0.525793 5.613206
-5.959130 0.486976 5.629960
-5.962427 0.512152 5.624758
-5.954116 0.536110 5.640933
-5.945558 0.543694 5.656413
-5.950626 0.562259 5.647718
-5.945058 0.565941 5.657646
-5.950281 0.606847 5.651476
-5.954626 0.614524 5.643888
-5.957908 0.629563 5.638374
-5.955661 0.649487 5.643185
-5.953285 0.675342 5.648224
-5.953434 0.689661 5.648458
-5.948733 0.705106 5.657674
-5.952361 0.740987 5.652704
-5.953728 0.765241 5.651462
-5.956750 0.774132 5.646102
-5.962305 0.799764 5.636297
-5.953762 0.810205 5.653577
-5.962653 0.832017 5.636988
-5.959512 0.851769 5.643530
-5.955187 0.873991 5.652032
-5.952967 0.889416 5.656384
-5.953282 0.923144 5.656862
-5.957479 0.936520 5.649242
-5.955778 0.951855 5.652599
-5.953368 0.990791 5.656149
-5.952233 1.015101 5.657321
-5.910534 0.383409 5.711313
-5.925535 0.374852 5.685487
-5.917013 0.401421 5.701200
-5.914947 0.417008 5.705040
-5.916954 0.429774 5.701996
-5.917593 0.443599 5.700954
-5.919734 0.460904 5.697754
-5.912388 0.501305 5.711728
-5.923406 0.511481 5.694416
-5.918216 0.537780 5.704729
-5.925095 0.555218 5.693151
-5.918846 0.564262 5.704712
-5.930005 0.605546 5.687899
-5.919211 0.596391 5.706316
-5.921225 0.617486 5.704447
-5.922915 0.630596 5.702420
-5.926858 0.645480 5.696257
-5.920964 0.665820 5.707769
-5.924758 0.672754 5.701012
-5.920338 0.673613 5.709146
-5.925447 0.710858 5.700774
-5.933914 0.729199 5.686171
-5.923382 0.735708 5.705137
-5.932255 0.751139 5.689920
-5.883392 0.099874 5.727881
-5.878310 0.095492 5.734963
-5.888139 0.140027 5.725865
-5.893344 0.139770 5.717862
-5.877699 0.122094 5.739838
-5.896448 0.165056 5.715746
-5.880095 0.151846 5.739746
-5.889585 0.187815 5.728735
-5.898705 0.195687 5.715053
-5.894540 0.212396 5.723206
-5.889860 0.256095 5.734154
-5.900031 0.281223 5.720028
-5.890463 0.292452 5.736066
-5.901501 0.297973 5.719060
-5.904480 0.320511 5.716346
-5.896420 0.338743 5.730533
-5.897641 0.343684 5.728999
-5.891300 0.351292 5.739235
-5.902963 0.360203 5.721797
-5.811573 0.551726 5.872458
-5.812838 0.564632 5.870966
-5.813336 0.579063 5.870962
-5.817074 0.620210 5.870713
-5.815707 0.656211 5.875490
-5.828904 0.691539 5.857280
-5.831673 0.676935 5.852412
-5.825672 0.668522 5.861339
-5.826430 0.683613 5.860767
-5.828988 0.713303 5.858227
-5.824219 0.718081 5.865409
-5.830271 0.722291 5.856723
-5.827085 0.777615 5.858885
-5.825929 0.796926 5.858194
-5.815999 0.790418 5.874465
-5.821074 0.830979 5.869020
-5.833487 0.864101 5.856419
-5.829814 0.904776 5.865028
-5.833383 0.886718 5.858958
-5.825430 0.910542 5.872045
-5.830362 0.933660 5.865472
-5.839020 0.933358 5.852103
-5.823732 0.940233 5.875995
-5.823657 0.947654 5.876552
-5.839137 0.968996 5.853490
-5.833958 1.010577 5.863917
-5.833218 1.033781 5.865905
-5.835790 1.032223 5.861856
-5.838187 1.055513 5.858854
-5.831693 1.063880 5.869267
-5.830278 1.101039 5.873569
-5.844540 1.131574 5.852615
-5.731672 0.380146 5.948234
-5.733443 0.392021 5.950795
-5.743276 0.415772 5.944465
-5.756138 0.455004 5.939487
-5.753757 0.477435 5.948469
-5.765746 0.478422 5.932395
-5.768071 0.515257 5.934280
-5.760645 0.535125 5.946718
-5.769867 0.539762 5.934323
-5.763288 0.557683 5.944952
-5.769629 0.584980 5.937915
-5.771908 0.599398 5.935697
-5.763972 0.590148 5.946285
-5.773024 0.630903 5.936182
-5.770925 0.638481 5.939596
-5.762488 0.655008 5.952910
-5.768329 0.678092 5.945054
-5.773202 0.721666 5.938721
-5.769279 0.713295 5.944268
-5.761543 0.722909 5.955824
-5.693459 -0.087745 5.988063
-5.678022 -0.283194 5.998899
-5.685070 -0.270522 5.990480
-5.676837 -0.250292 6.002431
-5.689077 -0.243757 5.986667
-5.672352 -0.216351 6.010680
-5.677197 -0.214030 6.004397
-5.680202 -0.200896 6.001192
-5.682347 -0.185327 5.999347
-5.680710 -0.156558 6.003085
-5.677603 -0.141212 6.008042
-5.682390 -0.130955 6.001670
-5.689734 -0.116373 5.991909
-5.677361 -0.107786 6.009873
-5.678463 -0.094533 6.009068
-5.693991 -0.058685 5.989241
-5.695231 -0.025496 5.989367
-5.690182 -0.009020 5.997366
-5.697192 -0.014413 5.986856
-5.678711 -0.046184 6.011775
-5.680867 -0.027186 6.009804
-5.686207 -0.001095 6.002735
-5.678726 0.006261 6.013317
-5.689438 0.073331 5.993950
-5.681068 0.090366 6.009377
-5.678518 0.139427 6.006743
-5.702153 0.364042 5.995646
-5.686905 0.155363 5.987313
-5.667055 0.173551 6.009693
-5.663673 0.189429 6.005470
-5.668426 0.195485 5.993744
-5.665406 0.241736 5.996110
-5.666815 0.232458 5.990538
-5.667303 0.266521 6.002492
-5.674891 0.294183 6.002414
-5.675019 0.301288 6.007103
-5.714211 0.918369 6.031659
-5.712226 0.934818 6.035460
-5.727382 1.018219 6.019407
-5.729228 1.014945 6.016633
-5.722777 1.036073 6.027028
-5.719603 1.023519 6.030283
-5.727105 1.076123 6.023549
-5.733837 1.063275 6.013936
-5.718117 1.083893 6.035944
-5.729451 1.086126 6.020843
-5.720996 1.111418 6.033378
-5.722165 1.135544 6.033151
-5.725884 1.148714 6.028574
-5.734810 1.165186 6.016978
-5.722104 1.174189 6.034761
-5.723327 1.196871 6.033929
-5.719687 1.217361 6.039656
-5.735037 1.224374 6.019139
-5.724330 1.258747 6.034968
-5.723113 1.271428 6.037033
-5.732566 1.290946 6.024595
-5.733922 1.296449 6.022855
-5.739733 1.335525 6.015799
-5.722505 1.337105 6.039042
-5.740817 1.367629 6.014735
-5.731578 1.367159 6.027160
-5.730973 1.385381 6.027628
-5.466708 -0.103420 6.253500
-5.462054 -0.097683 6.258478
-5.400475 -0.483468 6.288372
-5.397224 -0.501846 6.289874
-5.380224 -0.482180 6.307599
-5.397495 -0.456632 6.293448
-5.393089 -0.454252 6.297713
-5.383376 -0.453911 6.306691
-5.406221 -0.403649 6.288815
-5.389626 -0.387342 6.306488
-5.407065 -0.393122 6.288843
-5.385776 -0.346213 6.313492
-5.394784 -0.324255 6.306619
-5.409686 -0.327186 6.292074
-5.401872 -0.299053 6.301416
-5.403107 -0.290447 6.300632
-5.398923 -0.270654 6.305752
-5.412592 -0.241183 6.294843
-5.395612 -0.256864 6.310058
-5.411213 -0.221625 6.298380
-5.397032 -0.195731 6.314210
-5.423087 -0.140895 6.294094
-5.418468 -0.126208 6.299681
-5.425618 -0.075576 6.296655
-5.432714 -0.087284 6.288874
-5.407657 -0.115966 6.310855
-5.415543 -0.083933 6.305764
-5.408094 -0.082843 6.313091
-5.417336 -0.047241 6.307261
-5.430033 -0.059156 6.293705
-5.431180 -0.029171 6.294947
-5.412419 -0.064704 6.310458
-5.420266 0.009271 6.308420
-5.438583 -0.005118 6.289204
-5.431029 0.030394 6.298744
-5.432588 0.022824 6.296740
-5.416129 0.002330 6.312120
-5.422969 0.594449 6.346829
-5.419451 0.633640 6.352195
-5.412036 0.596437 6.357986
-5.429002 0.646896 6.342685
-5.421920 0.683912 6.350690
-5.407729 0.681595 6.363573
-5.417472 0.698140 6.354954
-5.431029 0.699262 6.342824
-5.410556 0.707382 6.362244
-5.418841 0.789859 6.350184
-5.423914 0.790971 6.343197
-5.414396 0.767520 6.358256
-5.412585 0.796443 6.356378
-5.407015 0.815684 6.362628
-5.413460 0.856857 6.355985
-5.426001 0.895297 6.343711
-5.416463 0.949835 6.359964
-5.411127 0.919838 6.363995
-5.415498 0.923713 6.359520
-5.437251 0.994454 6.344251
-5.433773 0.979180 6.346951
-5.439700 0.997073 6.342140
-5.414686 1.005881 6.361160
-5.418483 1.047118 6.355017
-5.418997 1.059149 6.354231
-5.427889 1.067420 6.348362
-5.410488 1.055335 6.358987
-5.382499 1.068979 6.369210
-5.419024 1.094160 6.351650
-5.436338 1.090776 6.342685
-5.405788 1.094479 6.356772
-5.399910 1.116434 6.356609
-5.405618 1.110883 6.355173
-5.387879 1.105928 6.361822
-5.362532 0.171492 6.374562
-5.367766 0.197962 6.371724
-5.362977 0.210077 6.377542
-5.370794 0.256243 6.373552
-5.355830 0.161154 6.380320
-5.358895 0.183203 6.379113
-5.347465 0.218618 6.393263
-5.372135 0.274030 6.373675
-5.371286 0.302277 6.376781
-5.374540 0.302649 6.373575
-5.364752 0.317979 6.384541
-5.372947 0.320704 6.376595
-5.366646 0.357547 6.385851
-5.379112 0.358704 6.373652
-5.351063 0.274080 6.394476
-5.361312 0.269142 6.383967
-5.355075 0.339559 6.395971
-5.307305 1.229264 6.486085
-5.284628 1.187583 6.503505
-5.289629 1.209699 6.502040
-5.302310 1.228886 6.492019
-5.311861 1.252430 6.486757
-5.316826 1.287675 6.487999
-5.310211 1.271623 6.492509
-5.299706 1.281026 6.505298
-5.317153 1.308791 6.490610
-5.312964 1.331763 6.497621
-5.306163 1.341217 6.505151
-5.311339 1.355314 6.501149
-5.313673 1.366566 6.500284
-5.321596 1.380182 6.494223
-5.320588 1.409029 6.498402
-5.326751 1.458223 6.493491
-5.330166 1.473255 6.490997
-5.318833 1.499326 6.504407
-5.335586 1.533906 6.490284
-5.346045 1.516796 6.478824
-5.328099 1.515603 6.496507
-5.331312 1.536863 6.494804
-5.341486 1.556079 6.485616
-5.325356 1.545836 6.501335
-5.088738 0.379566 6.618488
-5.074382 0.391144 6.629544
-5.059008 0.375967 6.639933
-5.063652 0.407508 6.638286
-5.091858 0.451872 6.620367
-5.065666 0.432729 6.638327
-5.085381 0.442483 6.624510
-5.075137 0.458326 6.632843
-5.091708 0.503788 6.621922
-5.078034 0.485748 6.631783
-5.087186 0.488406 6.624990
-5.094143 0.545652 6.619860
-5.086776 0.547920 6.625314
-5.064854 0.549314 6.642458
-5.078269 0.559896 6.631718
-5.071029 0.568292 6.636901
-5.086544 0.608546 6.617505
-5.062225 0.616087 6.641304
-5.073471 0.629143 6.623934
-5.068765 0.635301 6.628267
-5.065832 0.641039 6.631399
-5.064020 0.666448 6.626233
-5.058361 0.679081 6.636052
-5.058052 0.686724 6.636371
-5.059260 0.703280 6.636938
-5.067385 0.739080 6.637270
-5.070924 0.748177 6.637218
-5.093285 0.799455 6.629434
-5.085472 0.763383 6.626243
-5.072657 0.763553 6.640729
-5.085827 0.798520 6.636763
-5.081165 0.797571 6.641195
-4.883953 -0.572996 6.676084
-4.890073 -0.571238 6.672561
-4.867874 -0.590408 6.684227
-4.879915 -0.548543 6.680635
-4.874481 -0.526491 6.685837
-4.890908 -0.521063 6.676539
-4.867677 -0.546118 6.688170
-4.855688 -0.549960 6.694909
-4.862702 -0.531777 6.692326
-4.901442 -0.488637 6.672822
-4.870432 -0.482955 6.692098
-4.902231 -0.474067 6.673453
-4.883770 -0.458849 6.685901
-4.892628 -0.476791 6.679100
-4.867640 -0.465052 6.695251
-4.867483 -0.455117 6.696170
-4.909248 -0.430861 6.671762
-4.905029 -0.449076 6.673464
-4.872088 -0.436003 6.694653
-4.895776 -0.438596 6.679661
-4.908648 -0.376706 6.677363
-4.917894 -0.380405 6.671058
-4.884909 -0.392006 6.690537
-4.877392 -0.383516 6.695992
-4.911202 -0.345151 6.677988
-4.913211 -0.363688 6.675467
-4.887467 -0.359940 6.691966
-4.891806 -0.350628 6.689995
-4.907719 -0.328611 6.681586
-4.896348 -0.337497 6.688245
-4.902640 -0.307521 6.686604
-4.912886 -0.293227 6.681168
-4.889504 -0.296986 6.695589
-4.830874 -0.213456 6.737217
-4.823959 -0.235077 6.739251
-4.828205 -0.196515 6.740199
-4.829729 -0.166080 6.742311
-4.845752 -0.145345 6.735394
-4.835646 -0.152607 6.740432
-4.864358 -0.105268 6.728394
-4.840339 -0.110522 6.741930
-4.832419 -0.104297 6.746930
-4.845607 -0.082703 6.741198
-4.865982 -0.084088 6.729137
-4.813993 -0.210852 6.746928
-4.805032 -0.219854 6.751173
-4.874164 -0.067578 6.725517
-4.862204 -0.069414 6.732496
-4.859370 -0.032937 6.736969
-4.870352 0.035629 6.735272
-4.879746 0.013608 6.728326
-4.848497 -0.012459 6.744792
-4.837520 -0.015166 6.750989
-4.848633 0.027693 6.747385
-4.883611 0.057973 6.729152
-4.889939 0.056265 6.725348
-4.891793 0.073687 6.725576
-4.651372 -0.391644 6.817943
-4.668623 -0.365084 6.811882
-4.623909 -0.368404 6.833284
-4.643372 -0.366218 6.824272
-4.684849 -0.326882 6.807015
-4.651511 -0.322082 6.824354
-4.677702 -0.308365 6.812262
-4.686118 -0.308499 6.807892
-4.633396 -0.320016 6.833405
-4.642169 -0.322242 6.828934
-4.688295 -0.290204 6.808228
-4.662236 -0.284761 6.821849
-4.695354 -0.260514 6.807189
-4.638762 -0.278018 6.833852
-4.667006 -0.217220 6.825030
-4.695265 -0.186800 6.813787
-4.703176 -0.186271 6.809852
-4.675187 -0.183415 6.824326
-4.709323 -0.135543 6.810800
-4.720891 -0.091444 6.808522
-4.690786 -0.154161 6.818921
-4.703348 -0.155474 6.812421
-4.669509 -0.175276 6.827863
-4.675678 -0.159964 6.826100
-4.665898 -0.143400 6.832371
-4.668314 -0.129544 6.832246
-4.700732 -0.114654 6.816807
-4.670171 -0.102006 6.833562
-4.677374 -0.121210 6.828232
-4.680929 -0.097452 6.828386
-4.702419 -0.082474 6.818650
-4.673222 -0.082394 6.833686
-4.709613 -0.024389 6.819966
-4.719617 -0.025848 6.814509
-4.713155 0.016428 6.821463
-4.689823 -0.066207 6.826574
-4.701904 -0.061614 6.820742
-4.701822 -0.042851 6.822390
-4.700743 -0.030714 6.824063
-4.703291 0.002630 6.825654
-4.709871 0.384666 6.850904
-4.722885 0.381960 6.843852
-4.718402 0.408745 6.847414
-4.728454 0.404374 6.841882
-4.709493 0.425551 6.853433
-4.729734 0.475077 6.842838
-4.728630 0.454827 6.843225
-4.690346 0.381651 6.860640
-4.704779 0.396059 6.854319
-4.410981 -0.738268 6.864580
-4.385161 -0.740626 6.863675
-4.383680 -0.751811 6.862383
-4.373982 -0.747185 6.861962
-4.438812 -0.722167 6.863622
-4.451004 -0.719516 6.861831
-4.456794 -0.704383 6.862065
-4.434178 -0.683480 6.867957
-4.451441 -0.690294 6.864363
-4.423278 -0.725993 6.864978
-4.398303 -0.723931 6.866296
-4.419732 -0.699794 6.867704
-4.387623 -0.681582 6.870091
-4.456198 -0.667448 6.866032
-4.467085 -0.619846 6.868725
-4.407230 -0.654604 6.873203
-4.425444 -0.671062 6.870088
-4.377770 -0.656567 6.872374
-4.422890 -0.620081 6.875748
-4.385233 -0.631144 6.875407
-4.381918 -0.644914 6.873759
-4.493381 -0.597214 6.864536
-4.490239 -0.583323 6.866969
-4.491479 -0.561724 6.868702
-4.513213 -0.540830 6.863725
-4.497301 -0.512259 6.871036
-4.499517 -0.534801 6.868553
-4.462578 -0.606215 6.871263
-4.481117 -0.592753 6.868461
-4.442153 -0.602788 6.875209
-4.447922 -0.614759 6.872976
-4.473522 -0.587237 6.870779
-4.432640 -0.575801 6.879805
-4.457706 -0.573423 6.875832
-4.422605 -0.597332 6.878318
-4.394495 -0.617840 6.877216
-4.385702 -0.598137 6.879387
-4.407727 -0.574213 6.882470
-4.427231 -0.572192 6.880834
-4.382080 -0.573177 6.882171
-4.395614 -0.587297 6.881027
-4.440446 -0.541702 6.882210
-4.419914 -0.560321 6.882869
-4.425788 -0.555705 6.882799
-4.389038 -0.558876 6.884029
-4.400326 -0.557649 6.884556
-4.390146 -0.533118 6.886821
-4.399025 -0.518252 6.888465
-4.363026 -0.682472 6.866967
-4.373201 -0.656205 6.871705
-4.373699 -0.620294 6.875707
-4.363163 -0.604518 6.875600
-4.358867 -0.583729 6.877265
-4.369472 -0.566445 6.881337
-4.284564 0.663719 6.966011
-4.283377 0.687852 6.967886
-4.573354 0.829638 6.953141
-4.587059 0.842564 6.947875
-4.565236 0.856760 6.958750
-4.567295 0.844165 6.956951
-4.572442 0.880985 6.957502
-4.575251 0.879380 6.956137
-4.547741 0.868460 6.967294
-4.557806 0.882756 6.964058
-4.580198 0.889455 6.954793
-4.560833 0.903334 6.964346
-4.588509 0.938830 6.954828
-4.551621 0.935759 6.970911
-4.556367 0.941797 6.969311
-4.564598 0.950006 6.966414
-4.568528 0.972118 6.966297
-4.590905 0.985522 6.957505
-4.568371 1.003199 6.968975
-4.404178 0.764786 7.000151
-4.384887 0.765813 7.000492
-4.402391 0.767975 7.000460
-4.413634 0.783912 7.000571
-4.426981 0.782663 6.998683
-4.401475 0.784338 7.002037
-4.367008 0.759308 6.998964
-4.358648 0.777504 7.000132
-4.347622 0.788842 7.000432
-4.443694 0.823295 6.999055
-4.447661 0.844483 7.000069
-6.033419 0.919696 5.370753
-6.038440 0.945188 5.384315
-6.029725 0.980090 5.380764
-6.024518 0.993343 5.376686
-6.021080 0.997418 5.373248
-6.023470 1.088155 5.381064
-5.996522 1.049562 5.358092
-6.010025 1.068305 5.369961
-5.995110 1.057083 5.357591
-6.008197 1.092771 5.368972
-5.992682 1.096445 5.359180
-6.006014 1.129028 5.374332
-5.989570 1.123919 5.363220
-5.972485 1.124071 5.357361
-6.016065 1.139558 5.384213
-5.958165 1.156810 5.361988
-5.955261 1.177515 5.369834
-5.959641 1.162575 5.364254
-5.926283 1.174516 5.363160
-5.965175 1.195076 5.382378
-5.947521 1.202301 5.381545
-5.933796 1.187272 5.368749
-6.038946 -0.493468 5.392795
-6.033630 -0.490472 5.404960
-6.043033 -0.478500 5.384822
-6.041597 -0.450239 5.389709
-6.034572 -0.418943 5.406778
-6.040223 -0.407146 5.394274
-6.042744 -0.381760 5.390806
-6.044480 -0.377093 5.387310
-6.042715 -0.360592 5.393298
-6.035502 -0.357466 5.410541
-6.045317 -0.321910 5.390614
-6.048611 -0.241237 5.390059
-6.044118 -0.250252 5.399860
-5.996371 0.863979 5.570105
-6.006306 0.861262 5.549213
-6.002620 0.889583 5.557071
-6.003300 0.909535 5.555398
-6.004857 0.930503 5.551455
-6.002732 0.938047 5.555749
-5.999743 0.951917 5.562214
-6.005041 0.961643 5.550683
-6.001833 0.975240 5.557728
-6.005559 1.014562 5.549665
-5.995389 1.001908 5.571820
-6.003858 1.030586 5.552606
-6.000510 1.042499 5.558938
-5.998097 1.057045 5.562560
-5.996694 1.066117 5.564128
-5.991246 1.077259 5.574606
-5.992988 1.086008 5.570699
-5.993114 1.105926 5.572739
-5.993948 1.129624 5.574968
-5.999636 1.146887 5.563708
-5.999263 1.152729 5.564815
-6.005749 1.169636 5.549397
-5.995918 1.166970 5.572893
-6.005270 1.208032 5.549245
-5.996271 1.199863 5.571730
-6.003930 1.223556 5.552041
-6.000369 1.242896 5.560833
-5.995513 1.245537 5.573439
-6.004560 1.285427 5.549430
-5.993758 1.305282 5.574193
-5.996852 1.357354 5.557127
-5.998396 1.394296 5.556960
-5.997382 1.413854 5.559280
-5.992432 1.415642 5.573999
-5.996440 1.439961 5.558619
-5.887561 -0.323530 5.689310
-5.873658 -0.323789 5.711788
-5.873690 -0.311395 5.712177
-5.889302 -0.279019 5.688025
-5.874880 -0.282446 5.711396
-5.881146 -0.263745 5.701546
-5.886324 -0.255264 5.693311
-5.884499 -0.220032 5.697083
-5.885111 -0.194614 5.696982
-5.880729 -0.195687 5.703560
-5.879132 -0.182941 5.706128
-5.884958 -0.177945 5.697369
-5.886983 -0.161444 5.694213
-5.882628 -0.099030 5.695889
-5.873371 -0.114864 5.707173
-5.879771 -0.112320 5.700010
-5.882699 -0.093502 5.696093
-5.909685 0.129889 5.690623
-5.909568 0.150281 5.693512
-5.911353 0.192496 5.694440
-5.909716 0.239134 5.701563
-5.912596 0.270067 5.698757
-5.912860 0.259996 5.697682
-5.918314 0.337226 5.694943
-5.915372 0.316750 5.697840
-5.909164 0.348980 5.711388
-5.924048 0.345961 5.685943
-5.912977 0.359375 5.705726
-5.887347 -0.045461 5.698629
-5.877263 -0.065156 5.706561
-5.880141 -0.055109 5.705716
-5.891649 -0.028851 5.695859
-5.894163 -0.016490 5.694805
-5.898891 -0.001632 5.689765
-5.888046 0.011175 5.706450
-5.898860 0.037317 5.694304
-5.905482 0.054309 5.686492
-5.896148 0.066255 5.703188
-5.882822 1.042564 5.785274
-5.888534 1.023416 5.775704
-5.887125 1.065889 5.779243
-5.889908 1.055053 5.774348
-5.883706 1.100237 5.786796
-5.879577 1.120836 5.794714
-5.885518 1.141032 5.785279
-5.893316 1.144451 5.772160
-5.885767 1.185433 5.786740
-5.892873 1.164637 5.773717
-5.890179 1.208999 5.780452
-5.894457 1.263352 5.771261
-5.894903 1.287221 5.770519
-5.888244 1.287520 5.783194
-5.893278 1.296691 5.773793
-5.888567 1.315561 5.784188
-5.889654 1.330784 5.783040
-5.887188 1.333403 5.787531
-5.892153 1.355554 5.779303
-5.898535 1.375528 5.768131
-5.894795 1.396186 5.773860
-5.886151 1.446529 5.782528
-5.888536 1.473840 5.774998
-5.880607 1.473110 5.787100
-5.886128 1.528756 5.773672
-5.876110 1.533274 5.789991
-5.886247 1.576853 5.771397
-5.875505 1.591272 5.785955
-5.875397 1.628649 5.782552
-5.869247 1.668404 5.791025
-5.870440 1.678773 5.788863
-5.709657 -0.500009 5.939593
-5.713331 -0.468793 5.937349
-5.701757 -0.458827 5.953464
-5.717744 -0.432550 5.934577
-5.703236 -0.435133 5.953688
-5.713248 -0.423904 5.941285
-5.702656 -0.401017 5.957365
-5.720037 -0.393800 5.934783
-5.719875 -0.328635 5.939548
-5.720497 -0.301265 5.940332
-5.709517 -0.298251 5.955936
-5.716599 -0.302914 5.945603
-5.650372 -0.485709 6.016784
-5.646799 -0.500162 6.019999
-5.650802 -0.458685 6.017898
-5.651861 -0.470861 6.015906
-5.634643 -0.493719 6.035161
-5.640274 -0.434272 6.032502
-5.653402 -0.445596 6.015652
-5.639063 -0.425453 6.034869
-5.646587 -0.408228 6.027415
-5.638820 -0.396237 6.038605
-5.643497 -0.361636 6.036248
-5.656483 -0.357963 6.020297
-5.659274 -0.332778 6.019043
-5.644778 -0.330093 6.037257
-5.648865 -0.299580 6.034315
-5.691388 0.546307 6.041819
-5.692634 0.575098 6.042457
-5.676339 0.418370 6.047346
-5.668048 0.394044 6.054895
-5.677725 0.436132 6.047811
-5.679115 0.463551 6.049101
-5.674018 0.468874 6.056760
-5.673983 0.475776 6.057522
-5.675309 0.500161 6.057857
-5.675990 0.513448 6.058490
-5.678946 0.532087 6.056524
-5.673440 0.568239 6.066581
-5.688845 0.580426 6.047697
-5.696069 0.655327 6.042037
-5.691231 0.689489 6.049971
-5.691685 0.703287 6.049778
-5.682673 0.587750 6.056041
-5.681941 0.613108 6.058373
-5.681554 0.632301 6.059894
-5.681046 0.651367 6.061487
-5.689210 0.657518 6.051140
-5.678895 0.715889 6.066253
-5.686638 0.722560 6.056382
-5.680404 0.731760 6.063687
-5.681447 0.755970 6.061109
-5.693113 0.873091 6.053233
-5.704491 0.912018 6.043652
-5.704061 0.898686 6.042756
-5.691887 0.920726 6.059318
-5.695486 0.953427 6.057864
-5.690498 1.419353 6.079718
-5.689469 1.250693 6.081701
-5.680414 1.292946 6.095068
-5.689065 1.392247 6.084236
-5.684062 1.415457 6.089116
-5.680703 1.432949 6.091615
-5.688590 1.446811 6.075994
-5.681592 1.455513 6.083862
-5.681416 1.473556 6.074667
-5.675496 1.478862 6.081150
-5.665061 1.498251 6.091364
-5.658108 1.534523 6.092656
-5.659286 1.539958 6.082748
-5.658175 1.551695 6.084504
-5.657825 1.566739 6.083966
-5.658885 1.580806 6.087886
-5.664269 1.617872 6.095375
-5.674979 1.647881 6.091335
-5.685326 1.662723 6.079834
-5.678458 1.667287 6.092058
-5.690347 1.694945 6.076559
-5.694618 1.709517 6.068452
-5.577338 -0.320936 6.117471
-5.588150 -0.271409 6.109280
-5.597090 -0.276607 6.098569
-5.586664 -0.249131 6.112742
-5.589948 -0.253346 6.108630
-5.590462 -0.215037 6.111041
-5.592704 -0.198719 6.109751
-5.601863 -0.183602 6.100370
-5.604856 -0.180122 6.097205
-5.602547 -0.125235 6.104145
-5.601727 -0.102166 6.106719
-5.604485 -0.049564 6.106224
-5.613389 -0.018715 6.096972
-5.601900 -0.024058 6.110565
-5.597427 -0.008779 6.116721
-5.613144 0.033931 6.099529
-5.598107 0.012858 6.116961
-5.610288 0.049617 6.103772
-5.596471 0.045516 6.120960
-5.612692 0.066537 6.101637
-5.605818 0.079675 6.110700
-5.613462 0.121452 6.100954
-5.604473 0.144160 6.113317
-5.540456 -0.487460 6.143762
-5.536060 -0.475347 6.149769
-5.549557 -0.463111 6.135388
-5.559367 -0.440791 6.126638
-5.546037 -0.451187 6.140687
-5.543752 -0.421913 6.146772
-5.542320 -0.419111 6.148641
-5.555999 -0.378594 6.137154
-5.557899 -0.397064 6.133351
-5.547083 -0.380499 6.146873
-5.570010 -0.348140 6.123783
-5.564044 1.718143 6.193827
-5.570991 1.722813 6.188410
-5.433358 -0.777107 6.226171
-5.437174 -0.763055 6.224006
-5.443640 -0.746138 6.219542
-5.452426 -0.750083 6.209844
-5.444287 -0.725986 6.221483
-5.445087 -0.726209 6.220632
-5.445459 -0.698935 6.223308
-5.442714 -0.682062 6.227952
-5.445364 -0.666846 6.226947
-5.457640 -0.663502 6.214906
-5.469512 -0.638355 6.205691
-5.461505 -0.625754 6.215086
-5.469934 -0.617899 6.207272
-5.455290 -0.584533 6.225657
-5.455601 -0.578814 6.225898
-5.469873 -0.525007 6.216300
-5.462743 -0.513580 6.224565
-5.473708 -0.500865 6.214600
-5.480258 -0.500805 6.208015
-5.481955 -0.460914 6.209996
-5.486302 -0.458324 6.205795
-5.476931 -0.436447 6.217299
-5.481572 -0.404336 6.215056
-5.485804 -0.423714 6.209216
-5.473207 -0.391060 6.224771
-5.485447 -0.390390 6.212176
-5.480803 -0.351966 6.220013
-5.481501 -0.362759 6.218428
-5.476710 -0.332950 6.225649
-5.494418 -0.330241 6.207630
-5.472816 -0.299553 6.231881
-5.484848 -0.293292 6.219977
-5.488154 -0.259949 6.219075
-5.502981 -0.233738 6.205942
-5.489956 -0.229581 6.219975
-5.486108 -0.189580 6.227109
-5.503903 -0.156394 6.211358
-5.503938 -0.172280 6.209927
-5.485791 -0.179804 6.228199
-5.491520 -0.160591 6.223999
-5.506249 -0.141882 6.210085
-5.503579 -0.111527 6.215185
-5.498447 -0.073761 6.222902
-5.513988 -0.046323 6.208065
-5.513809 -0.033484 6.208885
-5.551145 1.636284 6.252334
-5.544237 1.652066 6.257359
-5.550457 1.672509 6.236651
-5.546191 1.678690 6.238466
-5.535784 1.682460 6.253700
-5.527653 1.719589 6.239073
-5.523298 1.722062 6.253566
-5.379368 -0.920361 6.261817
-5.370523 -0.943092 6.266598
-5.365380 -0.902795 6.277379
-5.366751 -0.913824 6.274499
-5.372325 -0.865159 6.275668
-5.378806 -0.854601 6.270910
-5.365855 -0.837715 6.285139
-5.376136 -0.814782 6.278201
-5.392584 -0.807258 6.263711
-5.374743 -0.793809 6.282025
-5.383534 -0.798782 6.273236
-5.347786 -0.927838 6.290093
-5.331353 -0.941114 6.302954
-5.337083 -0.894455 6.304339
-5.353700 -0.907828 6.287668
-5.355271 -0.870184 6.291154
-5.357386 -0.857079 6.290754
-5.359905 -0.857431 6.288481
-5.348672 -0.838395 6.300497
-5.364965 -0.806729 6.289291
-5.366771 -0.766502 6.292709
-5.361937 -0.747191 6.299484
-5.375411 -0.746517 6.287306
-5.338371 -0.827547 6.311012
-5.341440 -0.790812 6.313182
-5.360455 -0.784208 6.296102
-5.361333 -0.761864 6.298235
-5.355791 -0.745891 6.305452
-5.365384 -0.338036 6.332930
-5.362332 -0.316357 6.337038
-5.358143 -0.365248 6.337648
-5.368984 -0.267684 6.334249
-5.375937 -0.276504 6.327224
-5.385799 -0.242338 6.320861
-5.382049 -0.240151 6.324523
-5.391697 -0.210239 6.317988
-5.384613 -0.219380 6.323892
-5.375175 -0.216031 6.332978
-5.393151 -0.193706 6.318017
-5.383207 -0.207281 6.326172
-5.392653 -0.168858 6.320359
-5.383773 -0.168211 6.328421
-5.378359 -0.147469 6.335187
-5.385963 -0.119762 6.331013
-5.393100 -0.072145 6.328428
-5.394073 -0.095234 6.325462
-5.391878 -0.069605 6.329828
-5.393322 -0.035961 6.331490
-5.408333 -0.038494 6.316646
-5.395904 -0.000543 6.331592
-5.388900 0.022424 6.339975
-5.392877 0.043632 6.337512
-5.390955 0.063562 6.340658
-5.397583 0.066654 6.334260
-5.416000 0.089562 6.316567
-5.310257 -0.700976 6.351776
-5.318892 -0.722461 6.341930
-5.309325 -0.679882 6.354670
-5.302961 -0.725187 6.355607
-5.314642 -0.650454 6.352763
-5.323207 -0.667274 6.343410
-5.308949 -0.633351 6.359557
-5.324272 -0.636840 6.345519
-5.302298 -0.657580 6.363091
-5.306353 -0.637970 6.361400
-5.322006 -0.598276 6.351134
-5.329871 -0.598847 6.344067
-5.322130 -0.579966 6.352513
-5.302793 -0.616940 6.366618
-5.321716 -0.543260 6.355950
-5.335474 -0.520231 6.345449
-5.338432 -0.525101 6.342525
-5.316139 -0.535268 6.361623
-5.336662 -0.493761 6.346362
-5.310266 -0.506136 6.368973
-5.334785 -0.456222 6.350906
-5.340766 -0.445454 6.346524
-5.321180 -0.453334 6.363486
-5.344326 -0.409436 6.346554
-5.323864 -0.405120 6.365109
-5.221299 -0.928207 6.399502
-5.219772 -0.936199 6.399356
-5.224069 -0.920286 6.398634
-5.208157 -0.912795 6.413039
-5.209119 -0.856696 6.419956
-5.239033 -0.810811 6.400699
-5.240300 -0.821416 6.398290
-5.241139 -0.792867 6.401175
-5.222267 -0.796276 6.416694
-5.233442 -0.759799 6.411550
-5.231929 -0.775563 6.411129
-5.251533 -0.737525 6.398512
-5.260408 -0.676358 6.397434
-5.255783 -0.667634 6.402313
-5.254175 -0.637428 6.406486
-5.252956 -0.287299 6.433677
-5.256621 -0.211181 6.433044
-5.255768 -0.233237 6.433882
-5.265909 -0.154690 6.433278
-5.260068 -0.133234 6.441599
-5.273923 -0.116279 6.432090
-5.284288 -0.092729 6.425569
-5.264581 -0.096745 6.441916
-5.266789 -0.076912 6.441908
-5.236838 -0.255343 6.448430
-5.249070 -0.253426 6.438675
-5.246953 -0.223572 6.440814
-5.242520 -0.218118 6.444464
-5.250547 -0.180102 6.439704
-5.265862 -0.055902 6.444587
-5.285742 -0.039785 6.428833
-5.271585 -0.018044 6.442779
-5.284849 0.010469 6.433402
-5.288881 0.022991 6.431142
-5.271608 0.043225 6.448092
-5.270911 0.064109 6.450281
-5.280900 0.121780 6.446226
-5.290861 0.145992 6.439332
-5.149982 0.588633 6.567194
-5.140959 0.607567 6.566209
-5.124417 0.610654 6.579350
-5.115682 0.615462 6.584154
-5.129967 0.625428 6.566617
-5.106514 0.623567 6.587824
-5.098053 0.665815 6.576360
-5.105087 0.677057 6.569515
-5.114934 0.679622 6.564728
-5.083174 0.684916 6.586644
-5.143069 0.745207 6.567927
-5.147495 0.776148 6.572831
-5.145442 0.794223 6.578729
-5.163379 0.787863 6.562051
-5.123420 0.712127 6.571156
-5.121817 0.734026 6.578797
-5.132596 0.725087 6.569458
-5.123140 0.744842 6.582689
-5.165576 0.828745 6.568202
-5.174320 0.857584 6.568481
-5.150291 0.858236 6.584817
-5.172514 0.865411 6.571216
-5.148252 0.863756 6.587883
-5.185061 0.907745 6.571820
-5.167959 0.897434 6.582618
-5.197886 0.935372 6.566627
-5.178197 0.917343 6.578866
-5.185449 0.928760 6.575379
-5.167923 0.914487 6.586106
-5.190291 0.946396 6.574363
-5.188692 0.975993 6.578832
-5.102049 0.168783 6.592676
-5.096702 0.154950 6.595713
-5.097664 0.193007 6.597894
-5.071532 0.148466 6.613178
-5.078990 0.163322 6.609118
-5.080966 0.175933 6.608644
-5.085373 0.200886 6.607365
-5.095215 0.218187 6.601706
-5.106845 0.217237 6.593243
-5.089014 0.246228 6.608472
-5.082856 0.208577 6.609832
-5.085205 0.223857 6.609402
-5.080788 0.235707 6.613762
-5.084121 0.256449 6.613238
-5.094838 0.267649 6.605962
-5.099023 0.258685 6.602243
-5.119079 0.293604 6.590286
-5.109895 0.290628 6.596767
-5.084915 0.281179 6.614628
-5.121053 0.331146 6.591706
-5.117133 0.311728 6.593201
-5.090805 0.312134 6.612481
-5.100918 0.319256 6.605653
-5.122593 0.358484 6.592341
-5.092885 0.338975 6.613009
-5.043442 0.388175 6.651674
-5.053878 0.371922 6.643391
-5.046618 0.400609 6.650178
-5.041527 0.433862 6.655856
-5.044286 0.439774 6.654228
-5.049264 0.446862 6.651062
-5.038116 0.464541 6.659929
-5.042364 0.452451 6.656295
-5.060968 0.494232 6.644588
-5.033784 0.477862 6.663664
-5.051325 0.491922 6.651481
-5.034526 0.520895 6.664659
-5.058794 0.525719 6.646980
-5.062636 0.537768 6.644180
-5.043293 0.552074 6.658866
-5.062031 0.582062 6.644227
-5.040610 0.575221 6.661156
-5.044633 0.559562 6.657967
-5.038682 0.591289 6.662537
-5.049845 0.587631 6.653808
-5.036639 0.613029 6.664690
-5.048821 0.634524 6.652756
-5.050887 0.641923 6.649929
-5.050575 0.653763 6.649285
-5.035778 0.680580 6.665218
-5.053830 0.687733 6.643160
-5.041116 0.721598 6.663755
-5.045969 0.744424 6.662838
-5.045580 0.770254 6.669067
-5.061603 0.802240 6.660256
-5.033055 0.368602 6.657599
