-4.130567 1.960757 3.957758
-4.098143 1.957548 3.929124
-4.058546 1.955899 3.946667
-4.038742 1.953213 3.952786
-3.983985 1.938920 3.923513
-3.983710 1.939697 3.942079
-3.919970 1.918752 3.921219
-3.899567 1.912895 3.928311
-3.955270 1.932337 3.959279
-3.847609 1.890750 3.947217
-3.846289 1.889772 3.933810
-6.672518 1.769178 4.121583
-5.871557 1.972268 4.578447
-5.878622 1.972506 4.551751
-5.853121 1.972568 4.553648
-5.828580 1.972484 4.539317
-5.800767 1.972693 4.566128
-5.785720 1.972595 4.544485
-5.776070 1.972845 4.578040
-5.565432 1.970871 4.556435
-5.729528 1.972537 4.555163
-5.651718 1.971983 4.566527
-5.632433 1.971720 4.562455
-5.633919 1.971501 4.544324
-5.527778 1.970240 4.568501
-5.544187 1.970410 4.558856
-5.374104 1.970065 4.543447
-5.295096 1.970661 4.552763
-5.285221 1.970376 4.538887
-5.250675 1.970492 4.549465
-5.210253 1.970676 4.538930
-5.331419 1.971165 4.580196
-5.287040 1.971095 4.576931
-5.186591 1.971592 4.575319
-5.181229 1.971349 4.555160
-5.154333 1.971750 4.554611
-5.120649 1.971939 4.539573
-5.093064 1.972481 4.571053
-5.098175 1.972088 4.541999
-5.033726 1.972477 4.562880
-6.285838 1.776065 4.610278
-6.293243 1.792933 4.593732
-6.288698 1.844020 4.583595
-6.266132 1.859541 4.613112
-6.245190 1.915759 4.591496
-6.215415 1.930387 4.617694
-6.214437 1.937700 4.601345
-6.204877 1.945500 4.592744
-6.177312 1.955477 4.593063
-6.144773 1.962077 4.591954
-6.075327 1.967562 4.623156
-6.046178 1.969162 4.601541
-6.011600 1.970537 4.586104
-5.972838 1.970772 4.620780
-5.924469 1.971747 4.598938
-5.946329 1.971339 4.608877
-5.909577 1.971925 4.601708
-5.843427 1.972549 4.606793
-5.831145 1.972649 4.611678
-5.823904 1.972557 4.589001
-5.760553 1.972931 4.591840
-5.715754 1.972850 4.614321
-5.702018 1.972670 4.594423
-5.633983 1.972193 4.620293
-5.600976 1.971625 4.582119
-5.575110 1.971428 4.599418
-5.518270 1.970724 4.597598
-5.494345 1.970184 4.583901
-5.461836 1.970188 4.585891
-5.420851 1.970712 4.592701
-5.532375 1.971170 4.608231
-5.485347 1.971082 4.622000
-5.389402 1.971185 4.601984
-5.134430 1.973545 4.795671
-5.134666 1.973692 4.781120
-5.086011 1.974347 4.798971
-5.092695 1.974295 4.772991
-5.062903 1.974654 4.783195
-5.032195 1.974847 4.771791
-3.972556 1.756332 4.882260
-3.966733 1.798166 4.858532
-3.957651 1.848527 4.883126
-5.905775 1.965773 4.992174
-5.905933 1.966251 4.979475
-5.868944 1.965640 5.011275
-5.839290 1.966700 4.979723
-5.802747 1.966461 4.995082
-5.785359 1.966074 5.010795
-5.754190 1.966987 4.988954
-5.730814 1.966768 5.021028
-5.720397 1.967363 4.991878
-5.674361 1.967960 4.981356
-5.639163 1.968939 4.998476
-5.633150 1.968955 4.982612
-5.535020 1.971406 4.999303
-5.503221 1.971823 5.004170
-5.471075 1.972054 5.018885
-5.440130 1.971985 5.017361
-5.393723 1.971875 4.994879
-5.358736 1.971987 5.005849
-5.318026 1.972162 4.986410
-5.275266 1.971909 4.989392
-5.272551 1.971694 5.021193
-5.207025 1.971735 5.010749
-5.183291 1.972024 5.011384
-5.163025 1.971949 4.987585
-5.148686 1.972241 4.989601
-5.114804 1.972790 4.979249
-5.088609 1.973633 4.998931
-5.069582 1.973998 5.000259
-5.038426 1.974050 4.983644
-4.885755 1.834678 5.198538
-4.898460 1.862875 5.191968
-4.696578 1.782944 5.179253
-4.703464 1.777969 5.182724
-4.792660 1.803599 5.198702
-4.816613 1.866986 5.184139
-4.848032 1.841314 5.195000
-4.767452 1.861718 5.176025
-4.801627 1.858044 5.186114
-4.737513 1.835840 5.176402
-4.747705 1.819865 5.186547
-4.690687 1.802827 5.170095
-4.706988 1.842547 5.158764
-6.026174 1.770649 5.449203
-6.023555 1.807883 5.446425
-6.025386 1.827651 5.430951
-6.021751 1.841381 5.437555
-6.014574 1.880220 5.432638
-4.447082 1.971947 1.329511
-4.408306 1.973697 1.325626
-4.386568 1.973836 1.319900
-4.366419 1.974027 1.318282
-4.328544 1.974258 1.312113
-4.325314 1.975215 1.339215
-4.308400 1.975203 1.331154
-4.231985 1.976301 1.320201
-4.202875 1.977067 1.320908
-4.185062 1.977303 1.321667
-4.154610 1.977464 1.330518
-4.130951 1.977864 1.322648
-4.115690 1.977978 1.324071
-4.072774 1.977460 1.336440
-4.050398 1.978428 1.312893
-4.033238 1.976936 1.343130
-3.973144 1.976364 1.336262
-3.936846 1.976561 1.307586
-3.940326 1.975700 1.347205
-3.908720 1.975957 1.318539
-3.875402 1.975565 1.320813
-3.841451 1.975288 1.320937
-3.809323 1.975521 1.314608
-3.773875 1.975809 1.315280
-3.694775 1.975930 1.315078
-3.658850 1.976016 1.307731
-3.635944 1.974563 1.338373
-3.608463 1.975651 1.310040
-3.596792 1.974330 1.338247
-3.542846 1.974746 1.321189
-3.529532 1.974692 1.326354
-3.483507 1.974451 1.324399
-3.401782 1.973815 1.340872
-3.390718 1.973751 1.326541
-3.387007 1.973735 1.314044
-3.346456 1.973606 1.304683
-3.331887 1.973311 1.326235
-3.339729 1.973556 1.304859
-3.279819 1.973042 1.310273
-3.096487 1.970524 1.312847
-3.085840 1.970505 1.338388
-4.876462 1.786757 1.428802
-4.895321 1.806870 1.436247
-4.894165 1.803352 1.435682
-4.855083 1.822918 1.417124
-4.872504 1.849176 1.425687
-4.854061 1.871831 1.417515
-4.850980 1.761328 1.417660
-4.820510 1.752439 1.399571
-4.830844 1.810851 1.405385
-4.829256 1.853877 1.403501
-4.668217 1.979103 2.008337
-4.634161 1.979353 1.985318
-4.609749 1.979266 1.998434
-4.574477 1.979342 2.007456
-4.546594 1.979290 2.005831
-4.507744 1.978976 1.967897
-4.477705 1.978724 1.970083
-4.453501 1.978581 1.984122
-4.426294 1.978092 1.978188
-4.413465 1.978191 2.003336
-4.379352 1.977533 2.007729
-4.326860 1.975885 1.997744
-4.192513 1.969766 1.983700
-4.169069 1.969170 2.011913
-4.153340 1.966882 1.987998
-4.298094 1.974338 1.979380
-4.254956 1.972093 1.971455
-4.235087 1.972454 2.002748
-4.218736 1.971423 1.994107
-4.116984 1.962975 1.993157
-4.106665 1.961839 1.988995
-4.071570 1.957155 2.005796
-4.004460 1.947109 1.973023
-3.959657 1.947818 2.005153
-3.898131 1.949681 1.974391
-3.873448 1.954320 1.999144
-3.849847 1.956458 1.990395
-3.820986 1.958788 1.977662
-3.784755 1.963545 2.003103
-3.760278 1.965498 2.002671
-3.723414 1.967141 1.972162
-3.722896 1.967784 1.999236
-3.669831 1.969160 1.977802
-3.642788 1.969378 1.970033
-3.578906 1.969730 1.991554
-3.566296 1.969849 2.005938
-3.537759 1.969969 1.992491
-3.444963 1.970796 1.996574
-3.389923 1.970496 1.972086
-3.387887 1.970423 1.982716
-3.332756 1.968574 1.973009
-3.310549 1.967522 1.986386
-3.265374 1.964278 1.967721
-3.277964 1.965431 1.995051
-3.014022 1.786207 2.190345
-3.007090 1.757149 2.210169
-3.027550 1.815777 2.195086
-4.995326 1.977356 2.206546
-4.946551 1.977274 2.192732
-4.927981 1.977365 2.210981
-4.898312 1.977400 2.198986
-4.868607 1.977896 2.218663
-4.856790 1.978072 2.223130
-3.875124 1.971080 2.664662
-3.845113 1.971072 2.655274
-3.750872 1.970586 2.669068
-3.700486 1.970438 2.656410
-3.678361 1.970444 2.640460
-3.621141 1.969298 2.670217
-3.623102 1.969507 2.657928
-3.609961 1.969099 2.669221
-3.596106 1.969186 2.636131
-3.564559 1.968252 2.639263
-3.523133 1.966981 2.648892
-3.498587 1.965941 2.663997
-3.502032 1.966362 2.647516
-3.435070 1.962985 2.655553
-3.404801 1.957135 2.674641
-3.399270 1.957386 2.655698
-3.354872 1.937421 2.669982
-3.363604 1.945372 2.647926
-3.333322 1.926412 2.662015
-3.309985 1.907716 2.647426
-3.208592 1.747387 2.714684
-3.216660 1.771747 2.700776
-3.202688 1.767769 2.677042
-3.241973 1.810487 2.694612
-5.020727 1.974463 2.711270
-5.001475 1.974555 2.715008
-4.977269 1.974322 2.681861
-4.963258 1.974837 2.710412
-4.902692 1.975446 2.688436
-4.862926 1.975587 2.686757
-4.868865 1.975533 2.698375
-4.850759 1.975609 2.686648
-4.819505 1.975442 2.702990
-4.799030 1.975384 2.678854
-4.739779 1.975054 2.714686
-4.686430 1.974490 2.704395
-4.619495 1.973929 2.698874
-4.590582 1.973747 2.713951
-4.559950 1.973843 2.710659
-4.549320 1.973823 2.688281
-4.508315 1.974663 2.709360
-4.498731 1.974857 2.706634
-4.468845 1.975214 2.690784
-4.391016 1.974704 2.694636
-4.340661 1.972597 2.713164
-4.341052 1.973807 2.682903
-4.267601 1.967351 2.712003
-4.241612 1.965382 2.699753
-4.204766 1.957994 2.707806
-4.308245 1.971886 2.700532
-4.134377 1.953580 2.684052
-4.070426 1.955816 2.714364
-4.012970 1.965472 2.709934
-3.997780 1.966816 2.711986
-3.959754 1.969697 2.692347
-3.923975 1.970587 2.699906
-3.911279 1.970797 2.694129
-4.672750 1.974271 2.753904
-4.637838 1.974123 2.742456
-4.588075 1.973900 2.748144
-4.558973 1.974040 2.749097
-4.549653 1.974123 2.754458
-4.528555 1.974402 2.746728
-4.334908 1.970050 2.754182
-4.415689 1.974906 2.737257
-4.403514 1.974269 2.755740
-4.365505 1.973112 2.733677
-4.341412 1.971559 2.738802
-4.304392 1.967123 2.744338
-4.289217 1.968004 2.725402
-4.271423 1.965334 2.729568
-4.220544 1.956232 2.732717
-4.191776 1.951620 2.729824
-4.184268 1.951151 2.726816
-4.125846 1.947273 2.753174
-4.110442 1.948795 2.747163
-4.064437 1.954660 2.757411
-4.052014 1.956716 2.757659
-4.029707 1.961305 2.744283
-4.006440 1.965636 2.724471
-3.927866 1.970312 2.720991
-3.919108 1.970373 2.734583
-3.898586 1.970584 2.742530
-3.866256 1.970771 2.750384
-3.832574 1.970778 2.741467
-3.799757 1.970059 2.747321
-3.782300 1.970070 2.735470
-3.752927 1.968704 2.754992
-3.741811 1.969315 2.734515
-3.702978 1.967895 2.746814
-3.683806 1.967620 2.742899
-3.664573 1.967686 2.735159
-3.627495 1.964985 2.762210
-3.612009 1.965276 2.750412
-3.568785 1.963832 2.745723
-3.552976 1.961872 2.759335
-3.535699 1.963661 2.729847
-3.519053 1.960469 2.753553
-3.468142 1.957083 2.748749
-3.445029 1.956771 2.739043
-3.349102 1.896261 2.759839
-3.348453 1.907151 2.741335
-3.418025 1.947415 2.757569
-3.372796 1.931264 2.747019
-3.339224 1.905271 2.727824
-6.579967 1.978547 2.959084
-6.561327 1.978881 2.984886
-6.561601 1.978376 2.949114
-6.513364 1.978489 2.972023
-6.478663 1.978526 2.964035
-6.442794 1.978838 2.946691
-6.401306 1.979558 2.960995
-6.374275 1.979883 2.957307
-6.380099 1.979847 2.973851
-6.343988 1.980265 2.955962
-6.280376 1.981432 2.944052
-6.286133 1.981188 2.970606
-6.237390 1.981813 2.967294
-6.182883 1.981216 2.979974
-6.163175 1.982153 2.945403
-6.139926 1.981637 2.955507
-6.119399 1.981685 2.960302
-6.099743 1.981564 2.972394
-6.087923 1.982071 2.947615
-6.063210 1.982265 2.949549
-6.022703 1.982316 2.968811
-6.033621 1.982520 2.947873
-5.955358 1.982415 2.964130
-5.955190 1.982608 2.942666
-5.888930 1.981907 2.945454
-5.798635 1.979198 2.942518
-5.751282 1.978257 2.942420
-5.730600 1.978198 2.982736
-5.682591 1.977487 2.960393
-5.658980 1.977056 2.965954
-5.644384 1.976817 2.959850
-5.624924 1.976328 2.981551
-5.602933 1.975884 2.971027
-5.595809 1.975779 2.982366
-5.555264 1.975028 2.956711
-5.494502 1.974168 2.945842
-5.428433 1.973631 2.984650
-5.459445 1.974022 2.951653
-5.413224 1.974110 2.985940
-5.399303 1.974704 2.961689
-5.355700 1.976516 2.976555
-5.302078 1.977300 2.953507
-5.265833 1.976050 2.974072
-5.249539 1.975418 2.976230
-4.885993 1.966517 3.107147
-4.871397 1.967358 3.078719
-5.014999 1.972675 3.111598
-4.989260 1.971810 3.110586
-4.962595 1.971295 3.101671
-4.838642 1.964655 3.080815
-4.831769 1.961915 3.109977
-4.744755 1.957423 3.111827
-4.644869 1.961854 3.118253
-4.603926 1.967119 3.118596
-4.582525 1.969158 3.078372
-4.558615 1.969839 3.098093
-4.557711 1.971478 3.222951
-4.560070 1.971241 3.211512
-4.537028 1.972258 3.232500
-4.527164 1.972255 3.213641
-4.490691 1.973826 3.245558
-4.408817 1.974362 3.234011
-4.401730 1.973857 3.210792
-4.369727 1.973576 3.217313
-4.320858 1.973037 3.233047
-4.283733 1.971931 3.216631
-4.263529 1.971606 3.216352
-4.251300 1.972147 3.236099
-4.224774 1.971485 3.227306
-4.119034 1.970712 3.221735
-4.111170 1.970467 3.212710
-4.098532 1.970592 3.227168
-4.083117 1.970427 3.248238
-4.080114 1.969980 3.225115
-3.991385 1.965839 3.241296
-3.968224 1.964517 3.234091
-3.962008 1.964833 3.218155
-3.934294 1.960590 3.238068
-3.911330 1.958837 3.226858
-3.877514 1.950771 3.243890
-3.810676 1.902057 3.239890
-3.868910 1.945937 3.250129
-3.838444 1.941513 3.219947
-3.829507 1.931592 3.238193
-7.051810 1.977521 3.327224
-7.001400 1.978402 3.310824
-6.944699 1.979366 3.298722
-6.884837 1.980464 3.303102
-6.841796 1.981158 3.303282
-6.771317 1.980848 3.306797
-6.779317 1.980311 3.339249
-6.752332 1.980246 3.329209
-6.722250 1.979802 3.320987
-6.697741 1.979553 3.304467
-6.654203 1.978597 3.338650
-6.613654 1.978138 3.336906
-6.569865 1.977983 3.311135
-6.559718 1.978044 3.301059
-6.522413 1.977243 3.335007
-6.500150 1.977470 3.313888
-6.475430 1.976746 3.338448
-6.416028 1.977232 3.296747
-6.399705 1.975942 3.337544
-6.312857 1.976491 3.300535
-6.309472 1.976470 3.315446
-6.270004 1.976935 3.311407
-6.267515 1.976957 3.308646
-6.209935 1.977455 3.298471
-6.136843 1.977401 3.335992
-6.128539 1.977543 3.297212
-6.097872 1.977603 3.316149
-6.079683 1.977676 3.312348
-6.057134 1.977737 3.311580
-6.010205 1.977481 3.325084
-5.995749 1.977447 3.332568
-5.945843 1.977642 3.322619
-5.871173 1.977011 3.336471
-5.867155 1.977110 3.302234
-5.837375 1.976719 3.298324
-5.780539 1.975539 3.326335
-5.750063 1.975235 3.339450
-5.702934 1.974529 3.334844
-5.681705 1.974148 3.330862
-5.374941 1.974582 3.366167
-5.339227 1.974758 3.374101
-5.315350 1.974291 3.357049
-5.253262 1.974387 3.367166
-5.247232 1.974365 3.358424
-5.172394 1.974963 3.356996
-5.138535 1.974890 3.355412
-5.104105 1.974549 3.359399
-5.073076 1.974382 3.345841
-5.039458 1.973805 3.353434
-4.895545 1.971636 3.419184
-4.852470 1.971298 3.397069
-4.810374 1.971069 3.399201
-4.829725 1.971133 3.388822
-4.734777 1.973107 3.400563
-4.708121 1.974008 3.400421
-4.675125 1.974664 3.417915
-4.659090 1.974466 3.416757
-4.622913 1.974103 3.389745
-4.596207 1.973594 3.399920
-4.524532 1.973533 3.395343
-4.491757 1.973947 3.419682
-4.477373 1.974015 3.416092
-4.447807 1.974111 3.398066
-4.412831 1.974270 3.391916
-4.393430 1.974218 3.406412
-4.369197 1.974413 3.398153
-4.352056 1.974463 3.401908
-4.325475 1.974404 3.419846
-4.289457 1.974595 3.405260
-4.268787 1.974358 3.406159
-4.262931 1.974459 3.395439
-4.207146 1.972299 3.416232
-4.174746 1.971551 3.413141
-4.157304 1.972139 3.389096
-4.106267 1.970771 3.391444
-4.067119 1.968991 3.389681
-4.062268 1.968180 3.415790
-4.047089 1.967611 3.393870
-3.980781 1.959246 3.385004
-3.971930 1.957817 3.392625
-4.131118 1.971337 3.393698
-3.914968 1.943459 3.427959
-3.898519 1.935659 3.395194
-3.860184 1.901906 3.416332
-3.861779 1.903077 3.403674
-7.168855 1.748776 3.515709
-7.214342 1.780972 3.482003
-7.181094 1.751233 3.507020
-7.158291 1.834748 3.514857
-7.160869 1.862140 3.501086
-7.134095 1.876719 3.512457
-7.163532 1.899383 3.478863
-7.133594 1.884874 3.508442
-7.113016 1.910551 3.503241
-7.102892 1.913544 3.508222
-7.087975 1.937688 3.492063
-7.031957 1.955337 3.511545
-7.042119 1.961456 3.486783
-7.016122 1.958989 3.514627
-6.958956 1.743590 3.700895
-6.947848 1.758267 3.711899
-6.951013 1.789226 3.706595
-6.927689 1.758845 3.733437
-6.946094 1.814631 3.709537
-6.930635 1.807006 3.726776
-6.929270 1.843230 3.724026
-6.935911 1.890558 3.704844
-6.906368 1.886075 3.737397
-6.930982 1.886722 3.712218
-6.879750 1.956403 3.695151
-6.814494 1.960015 3.733616
-6.800171 1.966388 3.717412
-6.734214 1.971577 3.725386
-6.705610 1.973245 3.712584
-6.660338 1.973581 3.702191
-6.650806 1.973443 3.710321
-6.605905 1.973552 3.729345
-6.596863 1.974081 3.718079
-6.562724 1.974302 3.724598
-6.533175 1.974634 3.695642
-6.494777 1.974535 3.710723
-6.482666 1.974436 3.733883
-6.444524 1.974788 3.719067
-6.357414 1.975179 3.726994
-6.351698 1.975285 3.731764
-6.316031 1.975837 3.718102
-6.300231 1.976089 3.732482
-6.291741 1.976068 3.709793
-6.251965 1.976555 3.731299
-6.232491 1.976222 3.697165
-6.204962 1.976684 3.709009
-6.141563 1.977010 3.698810
-6.161195 1.977144 3.731575
-6.108581 1.976740 3.701317
-6.056502 1.976414 3.697666
-6.067629 1.976460 3.733549
-6.031825 1.976303 3.713160
-6.015570 1.976363 3.733605
-5.983107 1.976296 3.703924
-5.969708 1.976436 3.733309
-5.954832 1.976368 3.709275
-5.914649 1.976284 3.719671
-6.819335 1.762133 3.871146
-6.818820 1.808719 3.868064
-6.841670 1.819675 3.829021
-6.825447 1.856072 3.843832
-3.822671 1.837652 4.018631
-3.817343 1.794181 4.011322
-3.840894 1.854574 4.038843
-4.993439 1.968295 4.011890
-4.999822 1.969043 4.033474
-4.977331 1.968752 4.030714
-4.943461 1.967716 4.007056
-4.926023 1.968302 4.028622
-4.867854 1.968835 4.048131
-4.861806 1.967443 4.006131
-4.800784 1.969010 4.046329
-4.730552 1.969218 4.019922
-4.708910 1.969182 4.023419
-4.676274 1.969097 4.045319
-4.767097 1.969304 4.050329
-4.792581 1.969789 4.087424
-4.719288 1.969539 4.073244
-4.698951 1.969289 4.050729
-4.691351 1.969459 4.085235
-4.671198 1.969227 4.067870
-4.627431 1.969114 4.070939
-4.570755 1.969676 4.089691
-4.562887 1.969180 4.062966
-4.487020 1.969268 4.056755
-4.418778 1.969231 4.051971
-4.396813 1.969381 4.054075
-4.374446 1.969892 4.075104
-4.338227 1.970017 4.075051
-4.331170 1.969739 4.059367
-4.304884 1.970014 4.082986
-4.256105 1.969080 4.072114
-4.231788 1.968886 4.076628
-4.220460 1.968431 4.068776
-4.173523 1.967531 4.065197
-4.180663 1.968814 4.092792
-4.117590 1.967004 4.084273
-4.091376 1.964779 4.058609
-4.065597 1.963938 4.067961
-4.051010 1.963214 4.069378
-4.016737 1.959053 4.063924
-3.972680 1.952269 4.083179
-3.933706 1.933050 4.050036
-6.633700 1.778236 4.160464
-6.623885 1.802592 4.163671
-6.632705 1.836361 4.142852
-6.612868 1.796478 4.177978
-6.615408 1.845092 4.160576
-6.606510 1.873918 4.159026
-6.594464 1.901309 4.148315
-6.573028 1.893630 4.180765
-6.562891 1.929443 4.144118
-6.493807 1.946762 4.156955
-6.481960 1.951666 4.157118
-6.407007 1.966625 4.179633
-6.386509 1.968658 4.166615
-6.370932 1.969566 4.158885
-6.327515 1.970872 4.178594
-6.349796 1.970839 4.145050
-6.312066 1.972183 4.154542
-6.296865 1.972797 4.150905
-6.408779 1.743163 4.394577
-6.429990 1.763318 4.359360
-6.407522 1.820188 4.385428
-6.403895 1.856392 4.385170
-6.414077 1.862576 4.367856
-6.397643 1.869882 4.391083
-5.441715 1.967580 4.411673
-5.394536 1.967071 4.406910
-5.370850 1.968057 4.439060
-5.370713 1.967180 4.408204
-5.321469 1.967650 4.408140
-5.314283 1.968207 4.424181
-5.288900 1.968591 4.432119
-5.231047 1.969478 4.446786
-5.095528 1.971031 4.420435
-5.029329 1.971676 4.436821
-4.665736 1.974602 4.749312
-4.649248 1.974850 4.715331
-4.624240 1.975254 4.752637
-4.570925 1.975912 4.728180
-4.531507 1.975807 4.728007
-4.535032 1.975950 4.714599
-4.479747 1.975249 4.739331
-4.464596 1.975651 4.719077
-4.355998 1.972973 4.747749
-4.345076 1.973784 4.728421
-4.176959 1.969345 4.723713
-4.160503 1.969265 4.715231
-4.284741 1.972750 4.730467
-4.101605 1.964548 4.713893
-4.110172 1.963283 4.744900
-4.076759 1.958361 4.753457
-3.970947 1.896748 4.751167
-3.971240 1.899158 4.723247
-4.040510 1.950019 4.752511
-4.005270 1.935616 4.742722
-3.963059 1.888178 4.716187
-5.436617 1.972070 5.104818
-5.408839 1.971796 5.091751
-5.378139 1.971489 5.089307
-5.250446 1.971192 5.101713
-5.193367 1.970883 5.111489
-5.170810 1.971081 5.105719
-5.107628 1.972584 5.075732
-5.078822 1.972185 5.082290
-5.071506 1.973184 5.068083
-5.836360 1.964914 5.239245
-5.825117 1.965044 5.212092
-5.779774 1.966727 5.242427
-5.696864 1.969476 5.202196
-5.693242 1.969592 5.239199
-5.673104 1.970426 5.213902
-5.634198 1.971731 5.227815
-5.610479 1.972317 5.225430
-5.442319 1.970013 5.243364
-5.458290 1.970717 5.206839
-5.420215 1.969571 5.213241
-5.383593 1.968375 5.223731
-5.518250 1.971980 5.213202
-5.317157 1.964494 5.243881
-5.307891 1.966566 5.210996
-5.283053 1.962986 5.233007
-5.259434 1.964590 5.211146
-5.231246 1.957775 5.230794
-5.218248 1.955696 5.230925
-5.195404 1.953506 5.229099
-5.136151 1.942804 5.231290
-5.086947 1.925561 5.238431
-5.065480 1.898702 5.238654
-5.108982 1.950766 5.210394
-5.072807 1.928676 5.232821
-5.063034 1.928635 5.230238
-6.065841 1.753136 5.268649
-6.060855 1.760774 5.288302
-6.059819 1.833874 5.285789
-6.063321 1.858365 5.255967
-6.056550 1.879929 5.269044
-5.733652 1.761732 5.606229
-5.724850 1.804422 5.600753
-2.807076 1.791168 1.244368
-2.829722 1.834626 1.225317
-2.823227 1.830804 1.255501
-2.859777 1.879822 1.257016
-2.850083 1.864745 1.240224
-2.829645 1.841213 1.253018
-2.813786 1.807308 1.239377
-4.556267 1.895880 1.258669
-4.511561 1.918026 1.244005
-4.502764 1.907310 1.232909
-4.505840 1.933334 1.252685
-4.427380 1.960573 1.253508
-4.403820 1.952673 1.219851
-4.272331 1.972043 1.238715
-4.241848 1.973843 1.237987
-4.119797 1.978646 1.236408
-4.107133 1.978971 1.255086
-4.096474 1.979092 1.255015
-4.077988 1.979074 1.243556
-4.020662 1.978975 1.253498
-4.039134 1.978984 1.218043
-3.988870 1.978687 1.237132
-3.949081 1.978145 1.247709
-3.945362 1.978426 1.228468
-3.878781 1.977309 1.240275
-3.842206 1.977186 1.219165
-3.852933 1.976502 1.257666
-3.796369 1.976797 1.220760
-3.760546 1.976179 1.302162
-3.739255 1.976561 1.285081
-3.698834 1.976868 1.275754
-3.656288 1.976849 1.282056
-3.636352 1.976342 1.295337
-3.629290 1.976723 1.282583
-3.574933 1.977110 1.262608
-3.568518 1.976328 1.284409
-3.530932 1.976033 1.267501
-3.552685 1.975630 1.298089
-3.512088 1.975638 1.269005
-3.468431 1.974795 1.266966
-3.420937 1.974045 1.286846
-3.386583 1.973906 1.261728
-3.354054 1.973637 1.293613
-3.335521 1.973442 1.260273
-3.320946 1.973384 1.296577
-3.281029 1.972670 1.277549
-3.149253 1.969779 1.260739
-3.120007 1.969012 1.262813
-3.248832 1.971967 1.263981
-3.216940 1.972409 1.297807
-3.151077 1.971415 1.290109
-3.131768 1.971614 1.300294
-3.037753 1.963505 1.279823
-2.995156 1.954533 1.264789
-2.904563 1.916176 1.265191
-2.975741 1.948632 1.275201
-2.891481 1.904274 1.290616
-2.889072 1.901200 1.294462
-5.506946 1.893306 1.609246
-5.471824 1.889196 1.600839
-5.453100 1.912780 1.602390
-5.404921 1.903821 1.587440
-5.382608 1.916819 1.586708
-5.418285 1.928921 1.601173
-5.400662 1.941936 1.607540
-5.360944 1.904824 1.576698
-5.362655 1.918271 1.582023
-5.368260 1.941372 1.599456
-5.326709 1.953067 1.602358
-5.285234 1.945548 1.583934
-5.255664 1.963629 1.599111
-5.242091 1.950989 1.577669
-5.190547 1.965333 1.594776
-5.153013 1.971832 1.607290
-5.085012 1.974345 1.598487
-5.046634 1.976397 1.601917
-5.726840 1.762169 1.697402
-5.693297 1.784555 1.663106
-5.734805 1.820874 1.690478
-5.712786 1.834640 1.671910
-5.692688 1.854882 1.657758
-5.714434 1.880192 1.677729
-5.732904 1.882617 1.693092
-5.703001 1.908351 1.677295
-5.682427 1.916567 1.665900
-5.685883 1.937185 1.682109
-5.685125 1.954833 1.701549
-5.648610 1.936942 1.661727
-5.646439 1.959125 1.690055
-5.624083 1.953307 1.672434
-5.598932 1.960612 1.673175
-5.577959 1.966086 1.677434
-5.573884 1.971353 1.688825
-5.490386 1.967644 1.664900
-5.478223 1.969337 1.668065
-5.548110 1.973338 1.691578
-5.514934 1.975029 1.695650
-5.460086 1.973061 1.679212
-5.421778 1.978433 1.700522
-3.021536 1.770783 1.752146
-3.016662 1.771393 1.770303
-3.043184 1.812505 1.752599
-3.030493 1.808768 1.789398
-3.056912 1.860236 1.783403
-3.056257 1.838359 1.754266
-3.307849 1.967528 2.016466
-3.325746 1.968374 2.041313
-3.273130 1.965408 2.021058
-3.275427 1.965786 2.044221
-3.242223 1.963094 2.043294
-3.200435 1.957810 2.032789
-3.203909 1.958960 2.053278
-3.166027 1.951710 2.049850
-3.123624 1.934873 2.027105
-3.069051 1.888990 2.027535
-4.476814 1.978322 2.150447
-4.475132 1.978003 2.168113
-4.444025 1.977396 2.164286
-4.429002 1.976605 2.188728
-4.367338 1.974437 2.168739
-4.343740 1.973374 2.175587
-4.350869 1.974030 2.155411
-4.231253 1.970696 2.162917
-4.227282 1.970016 2.180724
-4.199787 1.968970 2.147272
-4.182299 1.966209 2.185928
-4.143098 1.963283 2.167056
-4.311178 1.972502 2.165969
-4.281085 1.972039 2.164034
-4.263549 1.971654 2.164744
-4.128060 1.961240 2.179966
-4.091787 1.958563 2.166855
-4.050419 1.956380 2.169960
-4.004653 1.956270 2.167318
-3.979190 1.957329 2.174863
-3.955873 1.957110 2.159068
-3.933606 1.958114 2.160970
-3.915679 1.958481 2.153778
-3.828775 1.963383 2.157261
-3.751655 1.968053 2.169975
-3.736728 1.968538 2.167563
-3.709751 1.969143 2.163034
-3.692030 1.969025 2.182275
-3.687790 1.969679 2.145087
-3.645133 1.969698 2.165467
-3.579133 1.970302 2.147915
-3.583708 1.970020 2.177174
-3.509145 1.971616 2.171883
-3.486751 1.971715 2.159413
-3.451430 1.971360 2.148351
-3.461185 1.971627 2.178913
-3.404677 1.970752 2.167101
-3.384910 1.970343 2.174395
-3.337533 1.969230 2.180554
-3.308276 1.968312 2.176267
-3.271926 1.966480 2.181769
-3.266470 1.966097 2.160210
-3.218390 1.963288 2.176282
-3.179198 1.958368 2.155345
-3.161819 1.954730 2.150948
-3.144496 1.949843 2.172610
-3.079334 1.908437 2.177746
-7.132232 1.763575 2.447811
-7.122558 1.776322 2.441630
-7.088580 1.785233 2.419157
-7.085890 1.771280 2.417695
-7.099893 1.835652 2.430223
-7.085820 1.800658 2.417925
-7.109051 1.871979 2.445579
-7.095104 1.843019 2.427466
-7.106306 1.891442 2.449575
-7.101710 1.899695 2.449801
-7.059577 1.912796 2.423302
-7.018427 1.934226 2.421020
-6.987212 1.938924 2.420114
-6.960632 1.951223 2.430362
-6.919343 1.960973 2.435386
-6.904947 1.959151 2.425632
-6.895512 1.973577 2.450455
-6.842279 1.972951 2.425589
-6.832285 1.980036 2.453047
-6.758114 1.978508 2.412807
-6.756718 1.979790 2.430225
-6.750007 1.978901 2.418803
-6.737352 1.978863 2.418891
-6.672632 1.978969 2.441583
-6.647378 1.977786 2.439893
-6.626943 1.976841 2.438816
-6.588343 1.975409 2.453904
-6.563577 1.973798 2.437938
-6.561740 1.973455 2.411215
-6.533289 1.973323 2.415079
-6.491679 1.973457 2.420495
-6.468631 1.973338 2.443168
-6.417400 1.975868 2.447862
-6.424248 1.976031 2.425435
-6.391545 1.978076 2.427669
-6.357931 1.980428 2.430721
-6.320706 1.981970 2.453011
-6.296270 1.982588 2.435616
-3.154767 1.770257 2.486594
-3.144473 1.778543 2.462742
-3.172976 1.880776 2.469851
-3.159163 1.827675 2.482557
-3.161591 1.802915 2.493624
-3.153394 1.841908 2.466432
-6.439914 1.978138 2.827505
-6.394917 1.979215 2.812752
-6.350734 1.980470 2.831461
-6.327085 1.980994 2.849302
-6.304423 1.981650 2.836035
-6.276834 1.982492 2.824557
-6.232971 1.982999 2.821299
-6.217300 1.983196 2.815644
-6.193665 1.983107 2.823095
-6.165734 1.983226 2.811052
-6.120438 1.983477 2.828664
-6.132955 1.983368 2.851824
-6.074059 1.984049 2.824119
-6.050033 1.984365 2.838816
-6.036599 1.984666 2.821079
-6.022199 1.984694 2.835157
-5.974660 1.984323 2.834630
-5.948900 1.983799 2.836152
-5.918776 1.983302 2.820761
-5.910516 1.983129 2.820504
-5.845554 1.981287 2.834420
-5.829688 1.980772 2.847336
-5.743418 1.978956 2.823229
-5.727721 1.978649 2.831509
-5.729832 1.978333 2.852218
-5.689130 1.978557 2.816309
-5.666763 1.977815 2.832238
-5.633606 1.977057 2.821418
-5.619128 1.976304 2.834973
-5.584696 1.974631 2.846336
-5.526792 1.972849 2.811201
-5.531405 1.972518 2.852255
-5.482726 1.972822 2.841664
-5.469845 1.972855 2.835781
-5.439229 1.973164 2.820921
-5.412455 1.973506 2.829013
-5.347806 1.974143 2.820303
-5.336749 1.974252 2.814140
-5.249984 1.975031 2.841335
-5.235983 1.974800 2.832813
-5.157472 1.975095 2.843851
-5.125447 1.975321 2.833068
-5.102917 1.975356 2.839692
-5.089428 1.975491 2.813226
-5.062413 1.975465 2.824125
-3.438216 1.747718 2.902646
-3.485193 1.778293 2.931020
-3.438403 1.786257 2.899391
-3.476232 1.753295 2.920814
-3.489161 1.817530 2.925999
-3.479999 1.811227 2.920262
-3.456985 1.804217 2.906482
-3.471913 1.831126 2.907364
-3.508390 1.856343 2.922449
-5.012839 1.975003 2.916304
-4.983139 1.975078 2.925045
-4.967096 1.975094 2.902531
-4.910319 1.975210 2.940970
-4.898882 1.975092 2.935235
-4.880126 1.974602 2.930576
-4.855153 1.974074 2.922209
-4.785267 1.972354 2.920783
-4.766769 1.972885 2.906083
-4.757576 1.972974 2.903848
-4.727282 1.971533 2.934467
-4.700346 1.971714 2.935668
-4.685236 1.973457 2.902811
-4.673670 1.973200 2.910367
-4.668732 1.973723 2.900114
-4.598533 1.972986 2.930524
-4.616315 1.973668 2.907115
-4.526567 1.972872 2.931189
-4.517887 1.973100 2.920197
-4.392140 1.969633 2.913193
-4.375420 1.967505 2.939043
-4.336257 1.961956 2.937316
-4.463464 1.973148 2.901376
-4.426715 1.971953 2.916810
-4.278002 1.953165 2.922376
-4.236219 1.949182 2.924280
-4.207766 1.946981 2.913135
-4.196856 1.946972 2.919532
-4.174393 1.945901 2.908979
-4.149606 1.948056 2.941331
-4.102965 1.947992 2.910451
-4.065259 1.951257 2.903514
-4.056787 1.952556 2.918111
-4.033180 1.956039 2.921093
-4.022712 1.957522 2.938119
-3.995955 1.960732 2.911435
-3.983752 1.962187 2.935599
-5.719438 1.976919 3.160905
-5.675119 1.975378 3.147527
-5.615687 1.973572 3.123478
-5.592760 1.972783 3.161181
-5.568583 1.973227 3.125900
-5.545422 1.972685 3.157204
-5.504786 1.972561 3.138066
-5.466089 1.972315 3.153251
-5.439932 1.972243 3.150951
-5.403091 1.972355 3.147700
-5.385432 1.972525 3.155241
-5.348029 1.972830 3.157108
-5.325271 1.972232 3.121701
-5.197927 1.974494 3.153285
-5.155519 1.975067 3.145278
-5.133505 1.975009 3.119822
-5.098373 1.974709 3.149829
-5.084737 1.974398 3.136191
-5.054694 1.973675 3.149126
-5.064229 1.973927 3.121210
-3.739381 1.793203 3.160028
-3.680383 1.772457 3.123956
-3.726377 1.823578 3.151831
-3.707451 1.797489 3.135385
-3.733715 1.866258 3.160575
-3.705577 1.841230 3.134559
-6.785369 1.978996 3.398412
-6.763447 1.978892 3.399043
-6.693047 1.978119 3.414810
-6.682821 1.978251 3.395466
-6.646935 1.977527 3.412082
-6.595591 1.976304 3.428576
-6.572549 1.975753 3.428008
-6.503975 1.973467 3.417588
-6.498470 1.975077 3.388518
-6.448049 1.973384 3.396546
-6.437042 1.972952 3.405127
-6.423636 1.973768 3.391617
-6.357654 1.974449 3.411496
-6.351023 1.974614 3.414451
-6.334866 1.975420 3.399736
-6.242093 1.977018 3.420840
-6.209238 1.977149 3.413981
-6.147171 1.977059 3.390720
-6.117027 1.977035 3.427005
-6.097819 1.977053 3.389460
-6.076025 1.977040 3.409466
-6.057996 1.977011 3.402993
-6.018713 1.977018 3.393847
-6.024728 1.977037 3.413277
-5.985837 1.977135 3.400678
-5.938756 1.977276 3.396685
-5.911975 1.977219 3.409328
-5.878113 1.977136 3.421252
-5.835366 1.976546 3.390623
-5.830067 1.976703 3.409761
-5.818996 1.976617 3.410936
-5.783634 1.976581 3.425677
-5.769995 1.976100 3.411939
-5.752100 1.975645 3.396878
-5.734953 1.975404 3.393950
-5.670019 1.973966 3.428633
-5.636272 1.973844 3.409701
-5.625416 1.973900 3.404061
-5.590633 1.974163 3.407501
-5.571676 1.974397 3.411430
-5.516822 1.974849 3.411298
-5.509244 1.974972 3.425261
-5.501356 1.974801 3.394254
-5.435928 1.974899 3.390927
-5.409218 1.975276 3.406672
-5.388330 1.975487 3.413195
-5.547599 1.974893 3.466975
-5.536368 1.974918 3.451914
-5.506865 1.975154 3.465767
-5.497141 1.975180 3.446247
-5.453376 1.975316 3.435348
-5.434723 1.975557 3.458105
-5.388038 1.975787 3.432109
-5.397424 1.975843 3.467560
-5.368591 1.975921 3.438218
-5.372818 1.975966 3.473303
-5.325735 1.975875 3.465480
-5.324229 1.975905 3.437524
-5.250082 1.974888 3.473120
-5.216831 1.974334 3.454843
-5.188901 1.974015 3.451575
-5.162376 1.973804 3.451659
-5.149223 1.973713 3.446706
-5.134226 1.973685 3.445384
-5.081997 1.973579 3.460285
-5.071772 1.973567 3.462940
-5.054790 1.973513 3.439696
-5.169626 1.973967 3.566731
-5.157482 1.973804 3.585406
-5.141317 1.973567 3.605275
-5.113997 1.973572 3.564255
-3.813868 1.789724 3.999189
-3.823454 1.760917 3.971987
-3.807815 1.825966 3.988150
-3.832813 1.879549 3.971356
-3.799990 1.844630 3.960773
-4.969976 1.966442 3.974792
-4.964511 1.967501 3.999042
-4.910016 1.965390 3.971248
-4.875644 1.964995 3.969360
-4.835774 1.966075 3.983231
-4.831723 1.966986 3.995664
-4.772735 1.966641 3.968406
-4.797768 1.967610 3.996369
-4.762079 1.967083 3.972544
-4.718646 1.968911 3.994574
-4.712997 1.968588 3.982771
-4.677262 1.968665 3.998097
-3.883724 1.787357 4.146844
-3.874256 1.809727 4.145786
-3.876152 1.809540 4.157534
-3.870127 1.879093 4.175709
-5.025771 1.970475 4.156526
-5.009651 1.970510 4.143568
-4.962091 1.970402 4.148991
-4.951018 1.970249 4.181661
-4.920230 1.970234 4.171155
-4.860828 1.970473 4.150952
-4.846985 1.970533 4.143010
-4.827859 1.970585 4.138019
-4.819578 1.970965 4.176357
-4.766988 1.970783 4.141755
-4.681359 1.970315 4.146474
-4.793611 1.971119 4.167894
-4.636865 1.970449 4.168699
-4.624238 1.970388 4.160910
-4.592841 1.970517 4.169251
-4.569671 1.970496 4.153221
-4.551094 1.970651 4.163593
-4.419092 1.971037 4.165421
-4.387185 1.970979 4.174375
-4.364759 1.970636 4.157773
-4.358508 1.970622 4.163000
-4.320706 1.970237 4.140135
-4.446481 1.971076 4.161391
-4.316924 1.970269 4.148324
-4.298949 1.970201 4.138205
-4.272785 1.970213 4.141244
-4.245948 1.970294 4.143681
-4.196948 1.970361 4.146882
-4.181381 1.970610 4.164470
-4.124640 1.969523 4.151278
-4.122539 1.969968 4.169744
-4.085437 1.968643 4.153140
-4.065853 1.968667 4.170101
-4.028506 1.965923 4.143425
-4.034986 1.967433 4.172610
-3.971685 1.960815 4.168002
-3.884885 1.911132 4.145621
-3.877243 1.901958 4.140960
-3.959103 1.957752 4.170860
-3.924369 1.944408 4.159747
-3.915808 1.942571 4.180598
-3.879935 1.819677 4.198320
-3.876136 1.837375 4.200859
-3.875543 1.848299 4.200141
-3.876221 1.859852 4.219356
-5.022038 1.970265 4.206262
-4.985726 1.970294 4.184103
-4.933222 1.970309 4.211451
-4.856667 1.970603 4.183779
-4.848936 1.970674 4.199653
-4.825240 1.970940 4.182948
-4.790549 1.971329 4.193807
-4.757607 1.971591 4.193658
-4.637414 1.970821 4.199694
-4.588333 1.970647 4.200663
-4.558292 1.970749 4.188190
-4.566594 1.970758 4.210193
-4.663315 1.971320 4.225292
-4.341026 1.970993 4.216195
-4.494300 1.971164 4.196747
-4.422804 1.971425 4.212638
-4.381940 1.971255 4.212136
-4.299455 1.970489 4.186790
-4.213512 1.970891 4.182443
-4.224820 1.971080 4.198752
-4.183237 1.971565 4.210112
-4.140011 1.970671 4.182886
-4.104360 1.970770 4.208202
-4.094001 1.970482 4.204025
-4.057532 1.969186 4.192186
-4.028993 1.968074 4.197956
-4.020098 1.968010 4.205644
-3.891661 1.922947 4.183216
-3.937202 1.952207 4.187638
-3.922098 1.948188 4.198442
-3.915487 1.944391 4.212144
-3.896487 1.928803 4.187990
-6.499952 1.745454 4.290112
-6.482560 1.750811 4.304404
-6.472320 1.782352 4.309545
-6.504564 1.802795 4.275121
-6.483610 1.817589 4.291785
-6.485194 1.837175 4.286590
-6.488223 1.838810 4.283015
-6.457430 1.880999 4.305106
-3.907181 1.755327 4.351688
-3.901819 1.819008 4.342925
-3.896415 1.881762 4.340021
-5.015600 1.971496 4.353557
-4.994754 1.971172 4.326531
-4.979715 1.971249 4.327654
-4.931328 1.971722 4.344473
-4.841041 1.971782 4.356919
-4.831120 1.971484 4.322181
-4.791895 1.971936 4.339382
-4.752397 1.972214 4.315079
-4.738374 1.972473 4.340078
-4.687292 1.972230 4.324062
-4.541701 1.971038 4.326063
-4.509868 1.970998 4.351519
-4.651141 1.971931 4.315886
-4.644170 1.972283 4.348685
-4.616798 1.972095 4.341822
-4.616796 1.972227 4.350120
-4.582153 1.971823 4.335290
-4.547144 1.971470 4.345752
-4.488572 1.970671 4.344201
-4.456496 1.970513 4.347283
-4.428546 1.970444 4.329368
-4.411425 1.970658 4.352657
-4.397444 1.970676 4.343066
-4.341529 1.970891 4.320062
-4.296507 1.971670 4.350022
-4.241419 1.973237 4.349640
-4.247421 1.972840 4.332856
-4.202276 1.974101 4.338789
-4.185123 1.974601 4.348033
-6.374470 1.791415 4.445062
-6.383595 1.808855 4.424957
-6.373608 1.851625 4.433383
-6.364133 1.877482 4.438743
-6.374186 1.885564 4.418840
-6.347779 1.903337 4.438100
-6.271311 1.954707 4.417943
-6.255138 1.952010 4.446110
-6.217218 1.962966 4.425464
-6.136880 1.969126 4.413582
-6.121719 1.969263 4.436642
-6.094041 1.970718 4.415760
-6.076468 1.971318 4.403517
-6.038699 1.971823 4.429793
-6.027770 1.972050 4.412379
-5.977538 1.972472 4.434729
-5.957154 1.972547 4.430502
-5.926511 1.972410 4.408306
-5.903442 1.972344 4.408942
-5.849455 1.971949 4.412133
-5.810960 1.971647 4.418859
-5.819394 1.971603 4.406927
-5.777045 1.971512 4.437871
-5.710556 1.970340 4.418463
-5.682214 1.970105 4.428527
-5.655666 1.969791 4.426347
-5.608272 1.969801 4.438519
-5.548952 1.969826 4.441619
-5.540204 1.969299 4.418292
-5.472378 1.968514 4.424366
-3.914432 1.792685 4.474579
-3.913084 1.812103 4.488029
-3.909705 1.816790 4.456021
-3.913048 1.876804 4.471704
-5.023360 1.971700 4.452931
-4.972706 1.972232 4.484232
-4.951168 1.972630 4.479399
-4.879183 1.973679 4.479207
-4.848898 1.973674 4.465624
-4.792839 1.973554 4.453969
-4.762101 1.973744 4.461959
-4.696216 1.973495 4.461159
-4.673062 1.973298 4.451244
-4.639476 1.973156 4.453898
-3.924039 1.767565 4.510679
-3.923924 1.763296 4.501766
-3.920900 1.779255 4.502849
-3.915892 1.821613 4.520037
-3.912930 1.847289 4.507790
-4.992129 1.972174 4.508136
-6.212145 1.757376 4.770830
-6.199758 1.822167 4.765620
-6.188151 1.856602 4.771938
-6.162654 1.902041 4.780058
-6.157882 1.897546 4.799256
-6.106095 1.943776 4.780138
-6.073112 1.953423 4.781877
-6.046914 1.956979 4.793322
-5.992449 1.966877 4.776831
-5.959833 1.969643 4.778234
-5.924485 1.970343 4.800346
-5.872400 1.970915 4.789941
-5.850757 1.971081 4.792603
-5.836668 1.971190 4.795382
-5.822283 1.971581 4.772920
-5.737082 1.971885 4.770207
-5.720071 1.971663 4.800260
-5.710126 1.971680 4.781297
-5.676203 1.971640 4.775164
-5.663919 1.971634 4.771925
-5.508917 1.971991 4.760720
-5.448522 1.972204 4.765824
-5.387750 1.972432 4.758109
-5.404269 1.972428 4.800006
-5.375357 1.972531 4.765007
-5.322837 1.972954 4.760328
-5.308181 1.972914 4.799707
-5.266585 1.973357 4.765969
-5.261496 1.973362 4.770420
-5.247400 1.973218 4.787611
-5.226575 1.973286 4.782927
-4.267236 1.879739 5.105905
-4.189416 1.881713 5.110063
-4.032599 1.760969 5.111636
-4.004528 1.755608 5.084263
-4.086472 1.834788 5.111025
-4.080076 1.853680 5.102127
-4.054736 1.868302 5.082359
-4.025957 1.807037 5.088511
-4.030292 1.820098 5.087790
-4.034277 1.851485 5.077904
-4.943330 1.964576 5.110741
-4.962589 1.967628 5.076667
-4.936366 1.966656 5.069937
-4.892931 1.958486 5.109896
-4.853888 1.960713 5.069850
-5.027568 1.971215 5.076271
-4.845051 1.951951 5.095156
-4.805458 1.945015 5.094209
-4.781388 1.951841 5.072056
-4.690114 1.914694 5.109336
-4.750732 1.937520 5.093468
-4.726783 1.930179 5.102863
-4.702898 1.938439 5.084401
-4.674603 1.927560 5.096076
-4.644650 1.907400 5.103940
-4.608515 1.918174 5.090001
-4.613653 1.895384 5.107181
-4.611581 1.933732 5.074067
-4.595613 1.934005 5.072135
-4.583689 1.897900 5.102346
-4.530875 1.923538 5.077014
-4.519093 1.900886 5.095752
-4.537459 1.927135 5.074779
-4.476670 1.919580 5.076750
-4.453472 1.917649 5.079133
-4.409565 1.895844 5.111797
-4.412289 1.903750 5.100103
-4.390724 1.895172 5.111631
-4.388975 1.916616 5.080168
-4.349855 1.912572 5.087068
-4.332198 1.901418 5.097980
-4.278914 1.924214 5.072194
-4.304875 1.889153 5.105420
-4.250974 1.912194 5.082890
-4.273503 1.906725 5.085797
-5.208245 1.787047 5.304006
-5.243235 1.750971 5.329140
-5.273208 1.835197 5.327731
-5.219031 1.826633 5.300701
-5.246070 1.824652 5.314125
-5.275686 1.873652 5.328144
-5.281919 1.871048 5.331789
-5.225196 1.860132 5.297857
-5.222784 1.875950 5.294133
-5.170044 1.762267 5.299824
-5.303810 1.790233 5.347026
-5.320473 1.763801 5.367766
-5.280445 1.788735 5.333229
-5.291373 1.763397 5.348330
-5.293993 1.835263 5.339108
-5.328373 1.819612 5.363182
-5.300855 1.871558 5.343556
-3.510649 1.763985 0.843651
-3.520380 1.811541 0.832356
-4.067460 1.890189 0.847628
-4.059116 1.923131 0.858255
-4.028322 1.910704 0.838055
-4.022629 1.940810 0.858108
-3.981917 1.937430 0.837688
-3.964443 1.950478 0.847258
-3.944013 1.961949 0.860237
-3.907030 1.960035 0.830546
-3.888185 1.969352 0.859212
-3.849514 1.970320 0.838871
-3.838377 1.969890 0.827079
-3.848897 1.971348 0.847824
-3.822423 1.972052 0.846679
-3.825663 1.971353 0.835760
-4.372912 1.776434 1.073150
-4.356333 1.772430 1.050182
-4.352497 1.806604 1.049401
-4.337249 1.876106 1.047858
-3.245718 1.972701 1.318159
-3.192398 1.972412 1.321302
-3.192500 1.972647 1.344073
-3.149137 1.972113 1.315439
-3.120093 1.971787 1.319561
-3.076544 1.969687 1.333035
-3.006850 1.960186 1.346484
-2.922519 1.924119 1.330863
-2.953928 1.942076 1.308472
-2.930544 1.930644 1.319993
-2.885276 1.888348 1.328512
-4.037835 1.974050 1.433486
-4.022709 1.975155 1.393427
-3.966202 1.974242 1.417291
-3.933448 1.973645 1.430597
-3.877083 1.974195 1.393136
-3.849508 1.973602 1.410523
-3.799508 1.973811 1.400214
-3.801521 1.973313 1.435021
-3.657411 1.970986 1.416808
-3.620183 1.970690 1.417107
-3.779286 1.973871 1.400211
-3.773589 1.973551 1.424051
-3.727803 1.973609 1.403911
-3.642136 1.971347 1.405582
-3.610467 1.970722 1.416591
-3.559805 1.971528 1.423274
-3.527483 1.972313 1.422506
-3.513237 1.973277 1.407880
-3.480675 1.974017 1.405038
-3.469360 1.974221 1.409773
-3.437734 1.974590 1.407289
-3.415045 1.974591 1.422467
-3.372893 1.974091 1.408622
-3.354509 1.973789 1.413247
-3.341660 1.973772 1.433010
-3.292531 1.973259 1.423570
-3.268820 1.973354 1.423874
-3.221637 1.973372 1.408565
-3.185583 1.973473 1.423599
-3.173034 1.973315 1.416779
-3.164942 1.973243 1.419264
-3.036449 1.964841 1.424072
-3.028122 1.961928 1.435449
-3.000947 1.957114 1.394364
-2.940425 1.910346 1.417856
-2.931238 1.889219 1.420799
-2.985195 1.951167 1.394952
-2.953481 1.933344 1.400769
-5.005299 1.980407 1.708052
-4.985501 1.980356 1.709499
-4.957096 1.980514 1.742725
-4.929677 1.980462 1.705974
-4.889316 1.980646 1.715827
-4.856583 1.980623 1.718461
-4.847108 1.980620 1.725659
-4.810139 1.980438 1.742013
-4.795664 1.980154 1.715638
-4.775403 1.980019 1.723228
-4.743276 1.979973 1.745912
-4.723671 1.979841 1.727747
-4.679565 1.979691 1.713135
-4.665719 1.979607 1.726077
-4.532900 1.977230 1.703417
-4.526349 1.977466 1.733476
-4.460452 1.976109 1.730965
-4.412916 1.975203 1.712424
-4.381048 1.975007 1.737889
-4.337681 1.974205 1.741462
-4.326512 1.973789 1.721985
-4.248685 1.970268 1.719766
-4.251217 1.970562 1.705360
-4.168310 1.961997 1.730979
-4.155416 1.961272 1.706907
-4.294251 1.972785 1.732177
-4.132681 1.958027 1.715835
-4.100673 1.953507 1.714905
-4.073008 1.947485 1.736970
-4.080292 1.950041 1.712547
-4.016214 1.940747 1.703419
-4.025295 1.940940 1.722421
-3.973319 1.937990 1.707328
-4.002131 1.937606 1.739830
-3.952163 1.937374 1.733191
-3.921130 1.937847 1.745097
-3.920114 1.938249 1.731885
-3.911650 1.938423 1.745753
-3.863563 1.943039 1.734952
-3.799073 1.955442 1.725445
-4.368768 1.975644 1.801303
-4.362325 1.975720 1.818799
-4.320513 1.974483 1.796854
-4.223045 1.967953 1.804447
-4.187028 1.963906 1.790990
-4.148811 1.958741 1.813656
-4.309208 1.974031 1.805228
-4.259362 1.971546 1.790829
-4.099939 1.951042 1.802176
-4.090341 1.948886 1.822578
-4.046829 1.940436 1.824251
-4.017817 1.936938 1.806466
-4.000202 1.936134 1.798238
-3.994653 1.934491 1.825027
-3.954253 1.934570 1.832071
-3.930373 1.936932 1.809569
-3.878453 1.942159 1.811545
-3.870169 1.943911 1.831323
-3.840734 1.947252 1.792912
-3.818424 1.951314 1.797111
-3.776417 1.958606 1.813224
-3.738103 1.963769 1.819404
-3.726395 1.965056 1.804106
-3.698393 1.967423 1.814801
-3.685787 1.968089 1.801940
-3.645998 1.969425 1.808085
-3.607911 1.969854 1.829375
-3.600588 1.969845 1.827335
-3.565979 1.969792 1.803450
-3.538026 1.969629 1.812520
-3.517835 1.969569 1.819255
-3.485334 1.969625 1.826275
-3.459751 1.969779 1.806041
-3.442867 1.969950 1.818732
-3.383355 1.969836 1.823758
-3.292962 1.966508 1.804264
-3.212754 1.959403 1.833182
-3.200555 1.957574 1.818664
-3.192700 1.957085 1.794148
-3.087204 1.909706 1.817406
-3.134314 1.939378 1.825455
-3.159607 1.950073 1.793809
-3.120302 1.933133 1.832422
-3.008491 1.790532 2.098572
-3.033304 1.836561 2.088806
-3.012479 1.801177 2.062875
-5.017480 1.977713 2.099356
-4.980294 1.977651 2.086025
-4.946810 1.977586 2.095952
-4.856050 1.977912 2.099246
-6.818853 1.767857 2.183090
-6.810235 1.795653 2.180409
-6.768601 1.743506 2.151914
-6.789030 1.775403 2.165526
-6.770556 1.786143 2.156580
-6.785646 1.812199 2.169324
-6.779599 1.799814 2.163133
-6.732619 1.818873 2.146569
-6.782426 1.856037 2.184167
-6.767376 1.875905 2.184478
-6.745190 1.872928 2.169632
-6.711243 1.849192 2.146407
-6.738747 1.898898 2.181338
-6.688481 1.923768 2.176456
-6.655146 1.899255 2.149774
-6.633615 1.917994 2.155615
-6.616991 1.923545 2.154362
-6.589834 1.939355 2.150932
-6.574676 1.959962 2.183396
-6.542562 1.965759 2.167997
-6.446715 1.980985 2.176355
-6.418193 1.983223 2.155672
-6.437458 1.981938 2.186784
-6.361040 1.986204 2.185351
-6.325098 1.986874 2.175901
-6.289244 1.987581 2.153979
-6.269769 1.987439 2.182017
-6.229904 1.988158 2.168314
-6.213309 1.988188 2.176328
-6.182363 1.988962 2.152564
-6.571140 1.972630 2.262846
-6.533241 1.975327 2.255354
-6.496655 1.978424 2.259473
-6.483517 1.979204 2.233718
-6.471875 1.979731 2.276062
-6.410900 1.983266 2.236279
-6.370994 1.983568 2.265070
-6.369256 1.984079 2.253576
-6.342474 1.984269 2.270826
-6.321664 1.985250 2.260119
-6.297627 1.985632 2.259707
-6.258027 1.986222 2.251405
-6.233278 1.986643 2.240119
-6.138423 1.987009 2.253801
-6.127723 1.987065 2.248259
-6.070117 1.986416 2.251219
-6.083315 1.986156 2.275633
-6.033307 1.986140 2.238397
-6.026219 1.985742 2.259690
-5.975828 1.984755 2.263247
-5.931127 1.983930 2.259662
-5.888198 1.983033 2.263767
-5.845569 1.981981 2.244294
-5.788489 1.981294 2.273474
-5.791032 1.981264 2.263363
-5.740454 1.980767 2.263501
-5.683826 1.980548 2.276390
-5.609587 1.979675 2.266829
-5.585027 1.979332 2.255120
-5.564204 1.978802 2.263860
-5.558846 1.978984 2.235577
-5.542753 1.978374 2.275793
-5.489141 1.977818 2.238529
-5.453973 1.977410 2.243708
-5.392919 1.976675 2.240937
-5.382658 1.976602 2.242237
-5.315950 1.976312 2.264104
-5.296083 1.976327 2.243425
-5.227966 1.975972 2.268868
-5.205801 1.976350 2.241031
-3.790507 1.784268 3.216518
-3.805002 1.837854 3.238731
-3.799680 1.809430 3.224020
-3.791173 1.862934 3.224769
-3.813974 1.745888 3.273066
-3.826722 1.765759 3.280711
-3.805119 1.757045 3.253170
-3.822961 1.809661 3.263560
-3.832025 1.801393 3.277191
-3.829926 1.843634 3.286160
-3.837811 1.777640 3.638921
-3.814756 1.819413 3.630480
-3.796494 1.873070 3.643455
-3.785921 1.880845 3.625607
-4.947297 1.970640 3.638963
-4.933745 1.970288 3.643988
-4.909687 1.969946 3.641309
-4.885753 1.970091 3.627637
-4.880784 1.969588 3.641074
-5.026722 1.971745 3.615450
-4.930601 1.971396 3.607586
-4.839192 1.970118 3.623371
-4.810168 1.970048 3.628077
-4.755063 1.970084 3.632457
-4.745087 1.969914 3.643144
-4.708729 1.969763 3.644408
-4.698428 1.970183 3.606892
-4.657364 1.969419 3.632985
-4.623587 1.969293 3.624819
-4.609775 1.969593 3.607358
-4.564670 1.966581 3.639879
-4.539815 1.965398 3.636742
-6.691667 1.812486 4.083914
-6.690980 1.832007 4.072145
-6.680341 1.855534 4.071895
-6.669131 1.871584 4.077298
-6.653740 1.914322 4.052332
-6.650500 1.890803 4.090996
-6.587803 1.944223 4.090436
-6.572116 1.959096 4.057949
-6.562492 1.961279 4.055457
-6.510020 1.965671 4.073023
-6.504478 1.968006 4.056211
-6.485277 1.966094 4.083991
-6.470669 1.966909 4.086203
-6.427637 1.969233 4.090004
-6.401453 1.971041 4.072052
-6.412027 1.971643 4.051580
-6.387737 1.971160 4.077370
-6.387795 1.971772 4.054513
-6.319039 1.973044 4.049668
-6.286581 1.974104 4.065454
-6.279651 1.974226 4.092454
-6.176981 1.975349 4.065626
-6.133472 1.975291 4.070144
-6.130961 1.975502 4.050363
-6.086350 1.975296 4.064253
-6.038358 1.975155 4.053082
-5.980720 1.974719 4.056731
-5.963934 1.974587 4.057322
-5.947379 1.973985 4.090829
-5.897830 1.973514 4.073108
-5.872071 1.973230 4.057863
-5.841868 1.972615 4.073927
-5.758379 1.971534 4.062981
-5.719241 1.970858 4.064881
-5.665111 1.969397 4.070483
-5.584529 1.965877 4.078972
-4.832288 1.969929 4.096072
-4.776534 1.970236 4.113240
-4.737588 1.970191 4.118475
-4.720463 1.970382 4.134184
-4.718094 1.969882 4.106458
-4.699377 1.969586 4.095345
-4.639719 1.969557 4.102309
-4.625912 1.969947 4.127347
-4.596026 1.969700 4.099843
-4.581142 1.970316 4.135866
-4.519844 1.970365 4.117303
-4.479918 1.970329 4.114400
-4.459854 1.970186 4.109143
-4.380682 1.970246 4.100419
-4.376935 1.970413 4.120966
-4.358860 1.970257 4.095088
-4.301333 1.970139 4.114977
-4.248294 1.969705 4.110314
-4.232629 1.970069 4.128570
-4.215287 1.969308 4.096771
-4.211395 1.969787 4.122371
-4.163361 1.969368 4.121734
-4.104147 1.968078 4.121172
-4.091240 1.967415 4.114897
-4.086643 1.967802 4.129356
-4.048257 1.965629 4.114339
-4.022318 1.964471 4.125392
-3.985790 1.959322 4.125250
-3.900900 1.921221 4.108329
-3.883116 1.907703 4.126608
-3.958346 1.950801 4.107764
-3.938592 1.944970 4.125453
-3.889946 1.826051 4.253801
-3.892895 1.812262 4.259631
-3.877633 1.859682 4.234863
