-7.567508 0.644791 3.004943
-7.569378 0.663460 3.010267
-7.574542 0.697178 3.025946
-7.571247 0.730128 3.003591
-7.573781 0.743974 3.012126
-7.572254 0.764933 3.005766
-7.568390 0.776735 2.991766
-7.570867 0.851927 3.003123
-7.576422 0.869809 3.023314
-7.575395 0.928057 3.011820
-7.572493 0.944003 3.003503
-7.567122 0.990957 2.991387
-7.564414 1.039187 2.986947
-7.570212 1.026050 3.001596
-7.564337 1.047152 2.987388
-3.977703 0.511231 0.762961
-3.977802 0.537165 0.764659
-3.979180 0.562942 0.767227
-3.971483 0.573073 0.762874
-3.966839 0.637185 0.759066
-3.975713 0.622216 0.766064
-3.983108 0.658103 0.769610
-3.972250 0.680719 0.760394
-3.987099 0.776924 0.770175
-3.943517 0.504385 0.737823
-3.934931 0.486956 0.730434
-3.935338 0.537184 0.733100
-3.963998 0.559491 0.756808
-3.943165 0.569510 0.740449
-3.930068 0.608143 0.730335
-3.939993 0.655538 0.736502
-3.936412 0.661743 0.733547
-3.959668 0.763937 0.750592
-3.952831 0.742496 0.745202
-3.949111 0.814899 0.743231
-3.944838 0.776231 0.739247
-3.986188 0.863813 0.771413
-3.976228 0.868216 0.764548
-3.982112 0.925284 0.770440
-3.967129 0.961016 0.761076
-3.968477 1.015129 0.762313
-3.980927 1.011442 0.771310
-3.974715 1.046062 0.766896
-3.974056 1.152962 0.769791
-3.967898 -0.867522 0.794473
-3.965987 -0.846598 0.789786
-3.989772 -0.838730 0.807893
-3.972386 -0.795578 0.790530
-3.986299 -0.794060 0.802371
-3.996554 -0.740483 0.808987
-3.982800 -0.743591 0.797185
-4.002646 -0.730157 0.813889
-4.004345 -0.686623 0.813922
-3.978412 -0.655372 0.789461
-4.010225 -0.611713 0.815771
-3.981444 -0.615816 0.790713
-4.005120 -0.628767 0.812081
-3.934000 -0.909317 0.795721
-3.886352 -0.917913 0.786370
-3.891953 -0.918432 0.790525
-3.931776 -0.891247 0.779905
-3.912351 -0.900854 0.775555
-3.860356 -0.920322 0.785646
-3.808237 -0.926628 0.798732
-3.803946 -0.908281 0.772661
-3.949138 -0.861984 0.779286
-3.957386 -0.818236 0.779357
-3.785805 -0.914915 0.787540
-3.761906 -0.904175 0.790024
-3.721480 -0.869487 0.806791
-3.717623 -0.873293 0.813639
-3.722824 -0.853609 0.797529
-3.701483 -0.798611 0.799301
-3.691316 -0.780248 0.802701
-3.684759 -0.739347 0.791065
-3.678109 -0.688741 0.780252
-3.675189 -0.704317 0.789927
-4.170249 1.711305 0.883540
-4.123378 1.727043 0.860933
-4.273931 1.186587 0.934189
-4.247959 1.175518 0.914318
-4.276534 1.254383 0.939542
-4.249582 1.229654 0.918001
-4.252057 1.254848 0.920913
-4.257096 1.278209 0.925393
-4.281071 1.338517 0.946432
-4.231948 1.341528 0.908312
-4.281312 1.375277 0.947981
-4.278415 1.384471 0.945524
-4.263452 1.376494 0.933235
-4.242088 1.369226 0.916883
-4.275930 1.406144 0.943611
-4.263471 1.426751 0.934619
-4.233329 1.408648 0.911651
-4.225701 1.417238 0.906759
-4.270229 1.461990 0.940984
-4.244293 1.457918 0.921437
-4.262409 1.518634 0.937570
-4.236801 1.521013 0.918234
-4.224700 1.474037 0.908058
-4.264826 1.549776 0.940787
-4.235937 1.541646 0.918399
-4.269064 1.570996 0.944835
-4.247432 1.614194 0.929901
-4.227694 1.561867 0.913121
-4.230459 1.591053 0.915969
-4.218037 1.582007 0.907307
-4.268737 1.627534 0.946879
-4.236783 1.652625 0.922632
-4.258595 1.662314 0.939975
-4.247504 1.685927 0.931848
-4.215990 1.619614 0.907036
-4.219507 1.667967 0.910747
-4.323882 -0.242822 1.010115
-4.320617 -0.227322 1.005442
-4.333173 -0.166028 1.010566
-4.326396 -0.117493 0.995878
-4.358336 -0.142970 1.035486
-4.333245 -0.100185 1.001598
-4.342653 -0.068249 1.008892
-4.361535 -0.039095 1.027789
-4.354904 -0.033210 1.019670
-4.365477 -0.003083 1.029753
-4.352942 0.001316 1.015129
-4.369520 0.071049 1.030629
-4.351353 0.079060 1.008612
-4.345562 0.107667 1.000790
-4.365252 0.127019 1.023089
-4.351740 0.122679 1.007443
-4.355300 0.146986 1.010845
-4.364830 0.159396 1.021720
-4.375803 0.185610 1.035835
-4.360455 0.156829 1.016523
-4.352338 0.179871 1.006397
-4.360659 0.199998 1.015531
-4.345930 0.249176 0.996753
-4.358595 0.317343 1.009780
-4.353229 0.321712 1.003268
-4.377443 0.383285 1.031157
-4.381960 0.435386 1.036825
-4.373031 0.454237 1.026035
-4.360688 0.452564 1.010226
-4.350634 0.439135 0.997476
-4.314965 -0.215876 0.998999
-4.364192 -0.669268 1.098297
-4.394866 -0.660453 1.119145
-4.401049 -0.637382 1.122733
-4.371911 -0.604327 1.100622
-4.383273 -0.562330 1.105969
-4.400198 -0.590888 1.119965
-4.363571 -0.579556 1.092921
-4.384704 -0.467081 1.100189
-4.374666 -0.491444 1.094230
-4.405570 -0.443760 1.114950
-4.386183 -0.434155 1.097862
-4.376812 -0.417504 1.087351
-4.395055 -0.385563 1.100031
-4.391559 -0.362141 1.094363
-4.389345 -0.336133 1.089405
-4.418156 -0.308451 1.112642
-4.425628 -0.307725 1.119101
-4.413204 -0.251180 1.103471
-4.388167 -0.328826 1.087535
-4.397841 -0.279705 1.091865
-4.294597 -0.942099 1.120547
-4.299613 -0.915246 1.083068
-4.254633 -0.935213 1.090859
-4.275020 -0.936710 1.103708
-4.195343 -0.944770 1.082296
-4.170918 -0.949399 1.082787
-4.466051 1.544216 1.169125
-4.460296 1.612946 1.170570
-4.445307 1.610367 1.153983
-4.449918 1.620646 1.159921
-4.421908 1.633027 1.128834
-4.430063 1.692741 1.140944
-4.427883 1.675761 1.137692
-4.449933 1.738081 1.162396
-4.426110 1.728069 1.136782
-4.523910 0.850982 1.194307
-4.509352 0.829461 1.183552
-4.515227 0.893972 1.188266
-4.504666 0.890379 1.180344
-4.543792 0.930445 1.210549
-4.523749 0.930841 1.195872
-4.534230 0.972072 1.206750
-4.515570 0.995530 1.195704
-4.533708 1.038315 1.214167
-4.522474 1.032138 1.205282
-4.531413 1.065698 1.211863
-4.534029 1.121821 1.209221
-4.539053 1.164435 1.211897
-4.501100 1.165990 1.183187
-4.483724 1.044954 1.176461
-4.542724 1.176119 1.214743
-4.521622 1.209883 1.199292
-4.525047 1.177776 1.201262
-4.512885 1.239514 1.193593
-4.523414 1.275203 1.203592
-4.497217 1.301176 1.184148
-4.508332 1.308851 1.193285
-4.528064 1.348053 1.209779
-4.485461 1.291420 1.174071
-4.491316 1.315493 1.180021
-4.499874 1.425674 1.192740
-4.517170 1.434111 1.205210
-4.504919 1.447132 1.197248
-4.499310 1.453095 1.193571
-4.508222 1.516175 1.202099
-4.488394 1.387780 1.181401
-4.484754 1.371610 1.177435
-4.473988 1.412044 1.170972
-4.782219 -0.292227 1.341173
-4.783822 -0.283087 1.341895
-4.721111 -0.288471 1.310328
-4.711517 -0.315554 1.305712
-4.713342 -0.295464 1.306362
-4.751256 -0.250116 1.325393
-4.768358 -0.233819 1.334015
-4.785443 -0.207709 1.342279
-4.794690 -0.192176 1.346831
-4.770345 -0.155459 1.334743
-4.718331 -0.231528 1.308051
-4.747696 -0.178429 1.323077
-4.723760 -0.180803 1.310588
-4.789809 -0.123757 1.344696
-4.764868 -0.089639 1.331473
-4.720720 -0.128511 1.309023
-4.754466 -0.104588 1.326504
-4.713912 -0.094896 1.304853
-4.780377 -0.047913 1.337984
-4.793970 -0.009871 1.343765
-4.776236 0.019318 1.334666
-4.728411 -0.033893 1.311133
-4.713951 -0.040345 1.303690
-4.745850 0.008436 1.319479
-4.735343 -0.019605 1.314413
-4.798608 0.023037 1.345510
-4.771583 0.060333 1.331953
-4.800540 0.071986 1.345813
-4.764235 0.071598 1.328338
-4.762333 0.063119 1.327463
-4.745523 0.054042 1.318884
-4.718329 0.105602 1.305321
-4.631276 -0.955177 1.395751
-4.656184 -0.962489 1.428899
-4.665574 -0.952300 1.402472
-4.602885 -0.971113 1.422319
-4.547774 -0.975830 1.403459
-4.577389 -0.980284 1.431468
-4.501200 -0.995402 1.431638
-4.529368 -0.980256 1.405425
-4.512209 -0.994627 1.435328
-4.477078 -0.999063 1.431528
-4.488526 -0.987213 1.401113
-5.118114 0.854180 1.478606
-5.077493 0.850758 1.465326
-5.065727 0.859562 1.461282
-5.029712 0.822522 1.449173
-5.106868 0.880047 1.474820
-5.090117 0.877522 1.469311
-5.072208 0.891758 1.463362
-5.078270 0.915468 1.465357
-5.052650 0.944574 1.456816
-5.056502 0.915118 1.457884
-5.078947 0.963581 1.466231
-5.061267 0.979932 1.460603
-5.060195 0.957741 1.459672
-5.090358 1.024720 1.471467
-5.064833 1.028787 1.463055
-5.030856 1.007016 1.450649
-5.107501 1.077051 1.478645
-5.059839 1.081607 1.462755
-5.050043 1.060025 1.458794
-5.100776 1.098227 1.476933
-5.103522 1.112065 1.478151
-5.043113 1.088163 1.457137
-5.053285 1.122569 1.461460
-5.098773 1.136343 1.477047
-5.074396 1.134016 1.468920
-5.067982 1.147694 1.466853
-5.046777 1.156444 1.459692
-5.103077 1.174170 1.478922
-5.101155 1.188273 1.478423
-5.074953 1.256487 1.470823
-5.061184 1.252477 1.466201
-5.081210 1.280735 1.473406
-5.034606 1.294796 1.458275
-5.063993 1.318742 1.468542
-5.061048 1.310994 1.467366
-5.078496 1.359442 1.474538
-5.056037 1.359753 1.466996
-5.048411 1.402476 1.465755
-5.064196 1.479299 1.474478
-5.055783 1.450262 1.470216
-5.065531 1.510622 1.476808
-5.041822 1.504882 1.468344
-5.049946 1.570072 1.476855
-5.046654 1.591679 1.480529
-5.605882 1.177960 1.606540
-5.593180 1.186338 1.603909
-5.565704 1.194040 1.598107
-5.591496 1.236220 1.604766
-5.580766 1.222115 1.602013
-5.612352 1.300828 1.612300
-5.592796 1.282695 1.607140
-5.583157 1.302064 1.606414
-5.529647 1.215840 1.590731
-5.495063 1.218012 1.583283
-5.538937 1.248733 1.593625
-5.518264 1.230842 1.588604
-5.496187 1.246575 1.584107
-5.473821 1.230624 1.578938
-5.457003 1.210553 1.574707
-5.454509 1.187979 1.573524
-5.465621 1.253670 1.577567
-5.440115 1.237710 1.571563
-5.555572 1.279439 1.598899
-5.495394 1.288480 1.584954
-5.499332 1.271236 1.585363
-5.552440 1.337612 1.600841
-5.467405 1.280251 1.578490
-5.428416 1.295187 1.570225
-5.452341 1.317729 1.576031
-5.591695 1.354014 1.610680
-5.586101 1.438803 1.610860
-5.587933 1.465128 1.610595
-5.588340 1.487040 1.610762
-5.587806 1.519304 1.610952
-5.518128 1.368840 1.592449
-5.510634 1.376789 1.590779
-5.482178 1.368866 1.584047
-5.540067 1.418514 1.598382
-5.537457 1.437151 1.598271
-5.503497 1.404116 1.589792
-5.478767 1.414520 1.584806
-5.436409 1.356277 1.573731
-5.428979 1.378674 1.572867
-5.423338 1.360251 1.571012
-5.459676 1.436426 1.581537
-5.512606 1.474373 1.593605
-5.474225 1.455228 1.585136
-5.545690 1.494743 1.601125
-5.521978 1.499040 1.596000
-5.510011 1.502157 1.593447
-5.421371 1.440094 1.573121
-5.427499 1.512327 1.575521
-5.416686 1.523674 1.573138
-5.415403 1.496229 1.572588
-5.882018 0.234814 1.668477
-5.854876 0.212178 1.660721
-5.861787 0.237537 1.662661
-5.894703 0.264961 1.672267
-5.902040 0.253904 1.674424
-5.984178 0.307571 1.700421
-5.922966 0.324459 1.680884
-5.922001 0.292913 1.680935
-5.976738 0.360069 1.698079
-5.920124 0.335902 1.680006
-5.918509 0.356555 1.679142
-5.971988 0.381903 1.696331
-5.987129 0.412703 1.700668
-5.950677 0.399697 1.688965
-5.946715 0.436211 1.687645
-5.859366 0.303966 1.661881
-5.913697 0.373627 1.677291
-5.853746 0.359453 1.660601
-5.861940 0.336766 1.662485
-5.881632 0.382224 1.668108
-5.897776 0.405714 1.672859
-5.863801 0.394478 1.663402
-5.845787 0.388275 1.658853
-5.851815 0.449482 1.661377
-5.843496 0.425126 1.658793
-4.957138 -1.001212 1.663960
-4.962274 -1.005924 1.685311
-4.926075 -1.003716 1.662959
-4.934039 -1.007545 1.682770
-6.092269 -0.937689 1.769895
-6.095081 -0.911049 1.748184
-6.146573 -0.904015 1.769370
-6.144593 -0.869704 1.762050
-6.115594 -0.905214 1.755131
-6.107811 -0.885773 1.748912
-6.213395 -0.825626 1.789583
-6.193136 -0.821720 1.779900
-6.163823 -0.846883 1.768356
-6.164124 -0.827482 1.767404
-6.113282 -0.847845 1.747829
-6.148808 -0.813043 1.760501
-6.168364 -0.781267 1.767505
-6.211280 -0.738565 1.785116
-6.190884 -0.689767 1.776042
-6.175797 -0.770382 1.770261
-6.136817 -0.748734 1.754317
-6.174092 -0.727200 1.768911
-6.123570 -0.696620 1.749195
-6.204515 -0.666855 1.781928
-6.203245 -0.645883 1.781635
-6.219814 -0.624314 1.788726
-6.187027 -0.615937 1.775180
-6.173606 -0.664588 1.769231
-6.138367 -0.646024 1.755439
-6.129170 -0.652998 1.751813
-6.119626 -0.660020 1.748085
-6.179437 -0.631428 1.771900
-6.127021 -0.620662 1.751390
-6.075349 -0.922491 1.747033
-6.431926 0.858719 1.900255
-6.403162 0.858578 1.884228
-6.426085 0.902366 1.897995
-6.438941 0.916569 1.905485
-6.399082 0.949123 1.884320
-6.418985 0.985639 1.896288
-6.393589 0.959499 1.881532
-6.412727 1.028830 1.894101
-6.440892 1.055440 1.911021
-6.417960 1.084096 1.900308
-6.396489 1.058579 1.886785
-6.424683 1.091348 1.904675
-6.407559 1.108521 1.897281
-6.387247 1.109133 1.886039
-6.381658 1.108939 1.882931
-6.426086 1.139426 1.909685
-6.407569 1.174647 1.901706
-6.379807 1.214955 1.887911
-6.379807 1.189282 1.887758
-6.425107 1.226628 1.908924
-6.412601 1.261985 1.903397
-6.387910 1.230834 1.892138
-6.394267 1.218686 1.894399
-6.362156 1.240118 1.882249
-6.407879 1.267565 1.901346
-6.413121 1.297220 1.905224
-6.364867 1.269747 1.886645
-6.393304 1.305669 1.898376
-6.421876 1.338401 1.909184
-6.388093 1.332378 1.896438
-6.363180 1.339557 1.888294
-6.350701 1.327307 1.883731
-6.347084 1.332973 1.881962
-6.443953 1.363528 1.918208
-6.439318 1.356638 1.916197
-6.386660 1.379797 1.892926
-6.375439 1.358046 1.891176
-6.437154 1.413564 1.913720
-6.400146 1.400355 1.896932
-6.366269 1.405107 1.882304
-6.350782 1.366332 1.881243
-6.434146 1.479576 1.910825
-6.401520 1.460580 1.894317
-6.443550 1.524758 1.915308
-6.419319 1.501608 1.902737
-6.453355 -0.953996 1.996874
-6.428264 -0.962133 2.005022
-6.363721 -0.961304 1.974169
-6.343086 -0.976153 2.000098
-6.275109 -0.977314 1.971684
-6.179833 -1.002442 1.999116
-6.205485 -1.000405 2.004597
-6.148884 -1.001447 1.980734
-6.143807 -1.008114 2.007044
-6.751294 0.485066 2.094125
-6.715989 0.496193 2.069186
-6.749536 0.515954 2.093208
-6.719256 0.519939 2.071738
-6.703642 0.504258 2.060720
-6.704983 0.520431 2.061774
-6.755622 0.592300 2.098495
-6.744201 0.557591 2.089987
-6.729507 0.582132 2.079827
-6.716691 0.637863 2.071685
-6.705330 0.605771 2.063164
-6.733942 0.665360 2.084324
-6.733520 0.682430 2.084452
-6.731763 0.710841 2.083934
-6.726339 0.692223 2.079691
-6.714060 0.770952 2.073534
-6.732018 0.763952 2.085769
-6.734012 0.788840 2.087956
-6.698730 0.766050 2.062858
-6.709331 0.802566 2.071142
-6.939053 -0.025942 2.231625
-6.918661 -0.055400 2.215235
-6.893498 -0.028016 2.195437
-6.903902 0.016831 2.203713
-6.908835 0.000524 2.207587
-6.922896 0.056457 2.219062
-6.898626 0.109748 2.200209
-6.916528 0.077781 2.214161
-6.939184 0.153701 2.233191
-6.913124 0.123100 2.211962
-6.915109 0.145173 2.213824
-6.931926 0.183982 2.227816
-6.912543 0.202616 2.212644
-6.914114 0.232800 2.214341
-6.913484 0.266456 2.214459
-6.894435 0.267164 2.199187
-6.886874 0.250300 2.192881
-6.929018 0.297380 2.228549
-6.897241 0.318674 2.202508
-6.896285 0.346823 2.202669
-6.902128 0.372022 2.208294
-6.882976 0.329423 2.191129
-6.905130 0.390799 2.211584
-6.909527 0.401608 2.215811
-6.902712 0.457404 2.211676
-6.878716 0.459579 2.191641
-7.007886 -0.654748 2.288990
-7.011112 -0.620980 2.292050
-7.031317 -0.583569 2.310079
-7.010591 -0.556026 2.291697
-7.011122 -0.535894 2.292245
-7.021298 -0.482673 2.301606
-7.013962 -0.470874 2.295545
-7.004223 -0.486212 2.286925
-7.035056 -0.455567 2.314592
-7.042247 -0.437208 2.320897
-7.004865 -0.437484 2.289248
-6.998366 -0.460119 2.282591
-7.022975 -0.386985 2.307373
-7.029060 -0.359673 2.312995
-7.025147 -0.324834 2.309093
-7.027025 -0.301055 2.308997
-7.037764 -0.246165 2.317636
-6.995368 -0.282679 2.281070
-7.001889 -0.245571 2.285851
-7.039852 -0.207560 2.319944
-6.996642 -0.203237 2.281442
-7.037051 -0.167774 2.317162
-7.022043 -0.166480 2.303558
-7.010562 -0.166977 2.293581
-7.002874 -0.186697 2.286878
-7.025543 -0.123081 2.307060
-7.041972 -0.125298 2.321630
-6.994331 -0.138849 2.279510
-7.032057 -0.110032 2.312850
-7.020827 -0.101331 2.302918
-7.008239 -0.071345 2.291626
-7.253870 -0.555221 2.532398
-7.233585 -0.568352 2.509897
-7.232747 -0.545939 2.508862
-7.257023 -0.477223 2.537534
-7.242759 -0.438183 2.521513
-7.259280 -0.443420 2.540925
-7.233653 -0.483513 2.510288
-7.239569 -0.506866 2.516446
-7.235296 -0.452254 2.512672
-7.256520 -0.390855 2.537974
-7.249107 -0.351865 2.528543
-7.255189 -0.349106 2.535518
-7.239465 -0.383563 2.518275
-7.238487 -0.343298 2.516088
-7.255527 -0.324338 2.535189
-7.258334 -0.295029 2.537916
-7.257809 -0.267587 2.537270
-7.236630 -0.329778 2.513949
-7.228204 -0.255990 2.504271
-7.127412 -0.946468 2.513093
-7.242469 -0.203974 2.520017
-7.260678 -0.220016 2.540637
-7.256944 -0.184250 2.536447
-7.236376 -0.180913 2.513733
-7.254816 -0.146209 2.533882
-7.258850 -0.142896 2.538280
-7.255457 -0.104172 2.534457
-7.242248 -0.085065 2.519974
-7.256647 -0.028505 2.536535
-7.261161 -0.003157 2.542013
-7.246522 0.010364 2.526288
-7.245710 0.043200 2.526049
-7.253846 0.106322 2.535786
-7.313099 -0.561361 2.601224
-7.307351 -0.569888 2.594031
-7.313668 -0.536685 2.603238
-7.306757 -0.498988 2.596782
-7.311484 -0.457189 2.602654
-7.314793 -0.438769 2.605972
-7.333919 -0.365799 2.626403
-7.327965 -0.403158 2.620389
-7.305167 -0.382792 2.592602
-7.317328 -0.352532 2.606631
-7.313399 -0.344718 2.601606
-7.312313 -0.319364 2.599812
-7.318004 -0.276292 2.606622
-7.338133 -0.204474 2.630742
-7.326724 -0.205906 2.617113
-7.325021 -0.237768 2.615053
-7.306535 -0.156088 2.592757
-7.321081 -0.198795 2.610255
-7.318798 -0.119576 2.607791
-7.315323 -0.152008 2.603491
-7.330839 -0.101315 2.622638
-7.336103 -0.064925 2.629391
-7.335320 0.031713 2.630381
-7.331848 0.097314 2.626822
-7.309562 -0.021868 2.597898
-7.308469 -0.042790 2.596204
-7.317312 -0.009017 2.607558
-7.319179 0.044693 2.610752
-7.308107 0.041178 2.597294
-7.330493 0.082536 2.624929
-7.309236 0.075394 2.599163
-7.307138 0.150128 2.597563
-7.213599 -0.965637 2.661900
-7.167708 -0.982049 2.652434
-7.114522 -1.002875 2.664615
-7.112225 -0.996141 2.632041
-7.079599 -1.007360 2.656130
-7.139201 -0.995375 2.659118
-7.446654 -0.867668 2.802706
-7.405925 -0.917045 2.799864
-7.408557 -0.893869 2.775547
-7.430348 -0.858661 2.776035
-7.453994 -0.837047 2.799857
-7.462285 -0.790842 2.801088
-7.446189 -0.788937 2.778722
-7.474381 0.466456 2.824107
-7.475387 0.501464 2.826497
-7.480999 0.513246 2.835202
-7.481536 0.552399 2.836906
-7.475339 0.559874 2.827057
-7.465629 0.563840 2.812035
-7.487915 0.610479 2.845206
-7.470006 0.609793 2.818347
-7.468315 0.680647 2.815776
-7.472593 0.709217 2.821570
-7.488827 0.703432 2.845147
-7.472269 0.776512 2.821013
-7.485082 0.819584 2.839768
-7.556687 0.835593 2.964209
-7.550215 0.854993 2.950364
-7.553906 0.899102 2.958813
-7.558087 0.890705 2.967950
-7.555116 0.984541 2.964177
-7.545451 1.009226 2.945498
-7.550601 1.043002 2.957619
-7.548498 1.103544 2.956743
-7.544978 1.141783 2.951851
-7.551453 1.185114 2.970150
-7.548258 1.261507 2.977001
-7.538023 1.225052 2.945623
-7.549159 1.272166 2.984113
-7.528103 1.305982 2.951704
-7.540395 1.309447 2.983274
-7.523767 1.318801 2.951331
-7.513432 1.364417 2.952904
-7.515406 1.367236 2.961152
-7.519422 1.372676 2.979723
-7.514998 1.511536 2.965686
-7.498817 1.477512 2.949217
-7.505624 1.503642 2.955839
-7.530617 1.550651 2.974490
-7.518452 1.554077 2.960171
-7.514727 1.599361 2.944254
-7.534708 1.608344 2.967292
-7.534303 1.633974 2.960941
-7.546332 1.653615 2.977479
-7.537189 1.732220 2.951888
-3.792847 -0.242110 0.626353
-3.814795 -0.215998 0.638359
-3.814636 -0.183996 0.636505
-3.793355 -0.144402 0.617853
-3.817143 -0.131389 0.636224
-3.760246 -0.209217 0.609047
-3.760303 -0.225967 0.611719
-3.706500 -0.213645 0.606991
-3.786992 -0.194646 0.618200
-3.776043 -0.196545 0.613866
-3.765495 -0.158378 0.603684
-3.723168 -0.177061 0.596746
-3.666397 -0.230049 0.623789
-3.630090 -0.199321 0.632123
-3.688993 -0.175719 0.600176
-3.645879 -0.158878 0.613000
-3.640709 -0.176907 0.620853
-3.617393 -0.189829 0.637373
-3.785403 -0.120869 0.610232
-3.760529 -0.135273 0.596132
-3.775203 -0.106971 0.600390
-3.646555 -0.141945 0.609509
-3.627223 -0.140082 0.621792
-3.650731 -0.109734 0.599514
-3.611869 -0.105987 0.625415
-3.788733 -0.065972 0.607087
-3.826187 -0.012512 0.637789
-3.799617 0.039524 0.610497
-3.823504 0.047837 0.633372
-3.790548 0.077165 0.600076
-3.826781 0.090413 0.634702
-3.782269 -0.013385 0.596692
-3.613817 -0.029074 0.594925
-3.829218 0.149518 0.633596
-3.803627 0.113464 0.610684
-3.807847 0.139971 0.613231
-3.825791 0.157720 0.629796
-3.834991 0.243700 0.635992
-3.821894 0.214742 0.623839
-3.826570 0.280055 0.628000
-3.811006 0.260051 0.612926
-3.829860 0.313196 0.631637
-3.801793 0.318467 0.605425
-3.824794 0.346144 0.627588
-3.797403 0.368078 0.603072
-3.835920 0.998893 0.651117
-3.835009 1.011724 0.650366
-3.832346 1.013734 0.647994
-3.821803 1.012807 0.639531
-3.841210 1.053781 0.656169
-3.862060 1.095935 0.675312
-3.842377 1.117287 0.657605
-3.835346 1.146136 0.651565
-3.846808 1.170036 0.662413
-3.833462 1.208264 0.651113
-3.850970 1.200651 0.666856
-3.845495 1.232501 0.662772
-3.851816 1.295274 0.670925
-3.835474 1.334638 0.657552
-3.827713 1.343532 0.650937
-3.825065 1.315754 0.647267
-3.838255 1.358967 0.661207
-3.832605 1.415581 0.658891
-3.818492 1.415503 0.646427
-3.850523 1.445842 0.676399
-3.841331 1.480646 0.670774
-3.817084 1.464278 0.649368
-3.814532 1.445108 0.644881
-3.836462 1.527712 0.669494
-3.817122 1.519314 0.654261
-3.802712 1.502808 0.641539
-3.614048 1.362304 0.640621
-3.659691 1.424994 0.641162
-3.635786 1.432402 0.663576
-3.644377 1.403423 0.642981
-3.649960 1.466874 0.665001
-3.648767 1.442277 0.657615
-3.666405 1.521368 0.664841
-3.689960 1.503434 0.644730
-3.642989 1.493899 0.677585
-3.804945 1.558598 0.649234
-3.825475 1.534095 0.661747
-3.844479 1.589607 0.678419
-3.831204 1.586677 0.667952
-3.794983 1.590363 0.644448
-3.816813 1.618439 0.660050
-3.841729 1.662096 0.679045
-3.820828 1.681895 0.663856
-3.788440 1.672045 0.641927
-3.566308 -0.397725 0.692003
-3.561125 -0.238227 0.684433
-3.989325 1.724356 0.792015
-3.978941 1.720936 0.785611
-4.060943 -0.518011 0.853766
-4.042207 -0.585973 0.841667
-4.030177 -0.568885 0.830993
-4.022399 -0.547405 0.823777
-4.062165 -0.477001 0.851650
-4.067502 -0.437832 0.852787
-4.040848 -0.493825 0.836025
-4.027335 -0.477591 0.824038
-4.056959 -0.412477 0.842383
-4.080898 -0.374475 0.856627
-4.076364 -0.339558 0.849339
-4.030400 -0.392778 0.820841
-4.054079 -0.296155 0.831449
-4.096882 -0.292958 0.858481
-4.080179 -0.268656 0.846528
-4.064414 -0.269836 0.836676
-4.050345 -0.250799 0.827099
-4.062080 -0.236635 0.833789
-4.111486 -0.186430 0.858328
-4.098346 -0.160568 0.848859
-4.071931 -0.184582 0.836263
-4.055668 -0.192119 0.827959
-4.229280 1.736136 0.919131
-4.208626 1.726322 0.905139
-4.132223 -0.947372 1.037493
-4.253118 -0.756350 1.021921
-4.239246 -0.692825 1.006787
-4.248787 -0.704981 1.014951
-4.227434 -0.766079 1.003210
-4.218121 -0.760594 0.995672
-4.258272 -0.654511 1.018016
-4.243656 -0.665794 1.007600
-4.276985 -0.598223 1.027814
-4.253590 -0.618559 1.011015
-4.229009 -0.638622 0.993529
-4.276404 -0.562419 1.022065
-4.282540 -0.561070 1.026914
-4.269130 -0.568386 1.017019
-4.237469 -0.594276 0.994909
-4.290534 -0.540366 1.030143
-4.292289 -0.516686 1.027901
-4.257877 -0.530118 1.000993
-4.293916 -0.495937 1.025530
-4.283498 -0.466038 1.010638
-4.262626 -0.501153 0.999519
-4.301778 -0.447824 1.024013
-4.316395 -0.412476 1.030675
-4.283935 -0.401572 0.998865
-4.295247 -0.369401 1.002985
-4.302943 -0.344184 1.005768
-4.408830 -0.927223 1.166055
-4.418377 -0.875002 1.145420
-4.437382 -0.868781 1.156828
-4.377277 -0.931056 1.150292
-4.396889 -0.920656 1.150942
-4.339938 -0.935698 1.139743
-4.328363 -0.944155 1.163368
-4.404619 -0.871670 1.135410
-4.409420 -0.827847 1.134344
-4.465585 -0.818016 1.168479
-4.409393 -0.775191 1.131617
-4.443076 -0.813507 1.154606
-4.470424 -0.748413 1.169063
-4.459117 -0.730693 1.162526
-4.422719 -0.741563 1.139694
-4.434915 -0.761564 1.147629
-4.448350 -0.715887 1.155837
-4.433688 -0.726849 1.146619
-4.403635 -0.736740 1.127301
-4.470470 -0.649349 1.167822
-4.409445 -0.655231 1.129140
-4.467847 -0.634048 1.165988
-4.469028 -0.599847 1.166617
-4.448114 -0.625631 1.153668
-4.415798 -0.634618 1.132664
-4.450080 -0.594491 1.154080
-4.421216 -0.558025 1.133553
-4.464037 -0.549388 1.163298
-4.458598 -0.516880 1.158938
-4.419627 -0.551826 1.132194
-4.428406 -0.525598 1.137733
-4.476606 -0.498169 1.170469
-4.450188 -0.505398 1.152747
-4.419320 -0.465588 1.127515
-4.473762 -0.461307 1.166149
-4.444039 -0.438901 1.143885
-4.420289 -0.449318 1.126876
-4.472562 -0.419028 1.162679
-4.480402 -0.384711 1.166412
-4.452536 -0.361062 1.144762
-4.482779 -0.334208 1.165925
-4.437380 -0.344512 1.131644
-4.469586 -0.312137 1.155024
-4.463377 -0.289897 1.149494
-4.451785 -0.304909 1.141254
-4.434825 -0.322022 1.127974
-4.488574 -0.255486 1.168007
-4.283650 -0.949542 1.150552
-4.316185 -0.946391 1.152220
-4.266381 -0.946814 1.128158
-4.529232 0.216483 1.190873
-4.506850 0.246565 1.173514
-4.559048 0.314706 1.211881
-4.516999 0.291603 1.181684
-4.505354 0.309345 1.172340
-4.560021 0.356211 1.212132
-4.556557 0.400719 1.209637
-4.526762 0.420966 1.187669
-4.510923 0.406238 1.175422
-4.557504 0.430790 1.210496
-4.529007 0.456903 1.189721
-4.522529 0.429742 1.184501
-4.622699 -0.596668 1.258401
-4.619878 -0.583332 1.257026
-4.606314 -0.537198 1.250044
-4.578898 -0.538830 1.234782
-4.561672 -0.527675 1.224789
-4.594563 -0.502254 1.243474
-4.614564 -0.435508 1.253307
-4.568563 -0.466167 1.227320
-4.583839 -0.453190 1.236093
-4.549292 -0.458301 1.215679
-4.616222 -0.414152 1.253944
-4.623706 -0.394863 1.258106
-4.592280 -0.341968 1.238815
-4.551600 -0.415391 1.215997
-4.570277 -0.357087 1.225979
-4.558246 -0.342572 1.218294
-4.605265 -0.327976 1.246398
-4.607560 -0.293664 1.247080
-4.587410 -0.286435 1.234649
-4.593894 -0.258106 1.238012
-4.566865 -0.329799 1.223225
-4.566011 -0.285553 1.221642
-4.614963 -0.229906 1.250342
-4.608888 -0.205918 1.246488
-4.630258 -0.181943 1.258892
-4.611916 -0.169292 1.247860
-4.566089 -0.225250 1.220716
-4.578337 -0.171350 1.227889
-4.629199 -0.122278 1.257390
-4.592126 -0.120662 1.235636
-4.626291 -0.089188 1.255150
-4.604673 -0.105341 1.242706
-4.567170 -0.113219 1.220190
-4.578028 -0.069708 1.225885
-4.619459 -0.027729 1.249954
-4.605512 -0.054990 1.242148
-4.590920 0.019283 1.232116
-4.596989 0.006874 1.235926
-4.576903 -0.051103 1.224699
-4.575818 -0.011659 1.223099
-4.622373 0.087636 1.251409
-4.585449 0.075449 1.228780
-4.760658 1.096162 1.336794
-4.735730 1.109869 1.324587
-4.696301 1.125060 1.305018
-4.740173 1.151304 1.328117
-4.739860 1.188104 1.329240
-4.702060 1.199231 1.310453
-4.751022 1.222885 1.336031
-4.713359 1.248359 1.318461
-4.769573 1.276455 1.347664
-4.739205 1.276954 1.332528
-4.720269 1.292226 1.324056
-4.709050 1.274943 1.317395
-4.694054 1.264403 1.308978
-4.719254 1.321613 1.324858
-4.709884 1.341122 1.320885
-4.680048 1.310946 1.303775
-4.756224 1.366770 1.344000
-4.743761 1.381918 1.338680
-4.718041 1.376054 1.326605
-4.681641 1.378468 1.308650
-4.718569 1.398186 1.328039
-4.727191 1.437333 1.336307
-4.703689 1.400483 1.321229
-4.688577 1.437134 1.318945
-4.742726 1.442002 1.343262
-4.734252 1.473543 1.344704
-4.705410 1.478563 1.332060
-4.681361 1.459047 1.317457
-4.730849 1.506525 1.346038
-4.704595 1.501700 1.331361
-4.707105 1.490135 1.333269
-5.038152 -0.916664 1.471441
-5.077418 -0.871371 1.469936
-5.062776 -0.891462 1.469211
-5.035705 -0.889791 1.458995
-5.130253 -0.797712 1.480230
-5.109098 -0.848579 1.476693
-5.086127 -0.841001 1.468655
-5.071444 -0.834540 1.463318
-5.093225 -0.787706 1.467564
-5.095741 -0.811103 1.469313
-5.071593 -0.813911 1.461699
-5.045555 -0.796384 1.451752
-5.113328 -0.753451 1.473713
-5.088193 -0.767698 1.465400
-5.057122 -0.753637 1.454768
-5.044670 -0.765006 1.450642
-5.056584 -0.693556 1.454411
-5.039833 -0.712270 1.448587
-5.127411 -0.629892 1.479365
-5.092243 -0.645635 1.467026
-5.075460 -0.650837 1.461248
-5.053311 -0.662378 1.453453
-5.040323 -0.664173 1.448932
-5.085287 -0.620344 1.465009
-5.064243 -0.609209 1.457904
-5.028741 -0.618799 1.445367
-5.125893 -0.527647 1.479614
-5.051123 -0.587697 1.453624
-5.094753 -0.536082 1.469219
-5.084923 -0.540407 1.465852
-5.065954 -0.516599 1.459643
-5.037538 -0.517164 1.450036
-5.124047 -0.477128 1.478829
-5.111270 -0.507442 1.474853
-5.101113 -0.472918 1.471387
-5.048907 -0.472581 1.454013
-5.035969 -0.486161 1.449628
-5.091496 -0.421222 1.468041
-5.086405 -0.464479 1.466585
-5.059565 -0.460040 1.457611
-5.122019 -0.361801 1.478053
-5.247150 1.214531 1.523561
-5.238899 1.174412 1.519914
-5.223437 1.254856 1.518220
-5.209972 1.326828 1.515337
-5.234094 1.335685 1.522617
-5.162812 1.175218 1.497619
-5.155875 1.195610 1.495787
-5.192305 1.241081 1.508151
-5.168041 1.248900 1.500543
-5.156435 1.249235 1.496895
-5.126061 1.255428 1.487375
-5.110741 1.209691 1.481718
-5.109727 1.233808 1.481749
-5.182081 1.273627 1.505588
-5.167243 1.289808 1.501133
-5.149957 1.290526 1.495679
-5.121295 1.269928 1.486163
-5.185772 1.323017 1.507694
-5.161922 1.349954 1.501061
-5.155462 1.323776 1.498276
-5.127614 1.323416 1.489541
-5.115091 1.325604 1.485656
-5.208902 1.477559 1.519564
-5.179465 1.351763 1.506522
-5.145355 1.379348 1.496723
-5.126423 1.384530 1.490961
-5.198068 1.420089 1.514268
-5.189056 1.435644 1.511895
-5.136789 1.401864 1.494748
-5.094520 1.426664 1.482455
-5.149707 1.467048 1.501596
-5.135636 1.462968 1.497049
-5.175165 1.498285 1.510626
-5.123795 1.485689 1.494802
-5.126381 1.494285 1.496235
-5.082055 1.482257 1.481102
-5.091512 1.443968 1.482211
-5.400501 0.655887 1.561101
-5.405996 0.697559 1.564185
-5.401471 0.723152 1.563373
-5.386468 0.768682 1.558490
-5.425801 0.781389 1.568319
-5.388379 0.801274 1.558410
-5.369011 0.491780 1.549376
-5.339679 0.501803 1.541213
-5.313051 0.467896 1.533299
-5.358634 0.543516 1.547349
-5.363832 0.514736 1.548494
-5.309856 0.524460 1.532398
-5.291036 0.522196 1.526714
-5.341160 0.591187 1.542336
-5.308693 0.573459 1.532421
-5.352568 0.608902 1.545888
-5.338582 0.621900 1.542158
-5.304120 0.605031 1.531836
-5.296728 0.613700 1.530004
-5.321692 0.645476 1.537982
-5.307452 0.658070 1.534322
-5.358509 0.713711 1.550733
-5.368800 0.696004 1.553349
-5.325722 0.701223 1.540359
-5.319572 0.689301 1.538517
-5.273390 0.686249 1.525244
-5.279474 0.645722 1.525825
-5.364896 0.734023 1.553137
-5.352722 0.772114 1.548845
-5.302199 0.733377 1.534085
-5.362637 0.811097 1.550951
-5.338303 0.787000 1.544458
-5.326244 0.786530 1.540794
-5.295545 0.783960 1.531637
-5.387012 0.822585 1.557793
-5.388737 0.850591 1.557950
-5.425275 0.875001 1.566777
-5.390514 0.889929 1.557590
-5.389874 0.911008 1.556975
-5.441801 0.992818 1.568799
-5.391892 0.956813 1.556775
-5.593115 -0.914842 1.611333
-5.609878 -0.885041 1.608254
-5.573074 -0.889122 1.598872
-5.649065 -0.824146 1.611062
-5.641866 -0.842049 1.610762
-5.604261 -0.796768 1.599908
-5.600913 -0.798612 1.599199
-5.483528 -0.922858 1.596353
-5.510387 -0.914287 1.593754
-5.544327 -0.893782 1.592758
-5.433016 -0.912936 1.578291
-5.444527 -0.937884 1.604610
-5.387506 -0.942430 1.599787
-5.418805 -0.917699 1.579909
-5.459407 -0.873404 1.572929
-5.529767 -0.859807 1.585439
-5.541395 -0.821505 1.586669
-5.505227 -0.839989 1.579431
-5.475846 -0.843907 1.573748
-5.530923 -0.810733 1.584060
-5.542685 -0.785544 1.585959
-5.482135 -0.800827 1.573459
-5.624998 -0.769929 1.604203
-5.583805 -0.751971 1.594643
-5.568628 -0.762005 1.591320
-5.641329 -0.686270 1.607656
-5.563130 -0.687967 1.590225
-5.661381 -0.629459 1.612849
-5.607428 -0.643329 1.600504
-5.581903 -0.680017 1.594423
-5.562197 -0.676715 1.590186
-5.603568 -0.609610 1.599964
-5.577256 -0.620260 1.594207
-5.537602 -0.736195 1.584497
-5.557451 -0.772888 1.588886
-5.508540 -0.767424 1.578259
-5.480919 -0.741994 1.572334
-5.541996 -0.686709 1.585629
-5.484341 -0.692138 1.573134
-5.476374 -0.724019 1.571348
-5.531095 -0.667630 1.583434
-5.504678 -0.669195 1.577655
-5.498488 -0.680532 1.576239
-5.536074 -0.611875 1.585077
-5.553038 -0.635572 1.588828
-5.493407 -0.606732 1.575480
-5.490542 -0.637252 1.574805
-5.371459 -0.933935 1.582206
-5.358090 -0.947509 1.600293
-5.324538 -0.941815 1.574381
-5.317894 -0.951145 1.596951
-5.842851 -0.241344 1.656818
-5.829487 -0.216290 1.652948
-5.819822 -0.228452 1.650352
-5.796094 -0.213588 1.644359
-5.764999 -0.200108 1.636904
-5.737605 -0.214432 1.630335
-5.794648 -0.197680 1.644120
-5.819304 -0.159088 1.650301
-5.777376 -0.190015 1.639864
-5.826541 -0.112088 1.652149
-5.826460 -0.066481 1.652442
-5.787201 -0.138678 1.642335
-5.750407 -0.117338 1.633703
-5.812806 -0.084094 1.648823
-5.806891 -0.101163 1.647247
-5.756951 -0.088193 1.635194
-5.833266 -0.063531 1.654360
-5.833585 -0.020751 1.654788
-5.838284 0.020000 1.656306
-5.804596 -0.048106 1.647023
-5.772939 -0.048876 1.639184
-5.814277 -0.002968 1.649839
-5.777662 0.018743 1.641245
-5.827757 0.026681 1.653443
-5.830871 0.080903 1.654435
-5.839779 0.107885 1.656819
-5.796548 0.033948 1.645878
-5.785816 0.038725 1.643348
-5.771253 0.047704 1.640234
-5.747414 0.036827 1.635273
-5.792873 0.100172 1.644983
-5.787220 0.114213 1.643581
-5.771945 0.135743 1.639621
-5.820006 0.187770 1.651378
-5.784245 0.175687 1.642415
-5.766897 0.158841 1.638187
-5.752667 0.178817 1.634706
-5.839350 0.232399 1.656400
-5.838167 0.275006 1.656210
-5.831932 0.267220 1.654484
-5.786782 0.212631 1.642991
-5.774869 0.216537 1.640113
-5.766102 0.237384 1.638152
-5.802332 0.265184 1.646981
-5.810464 0.278474 1.649076
-5.773660 0.262131 1.640121
-5.746771 0.279325 1.634362
-5.808022 0.313550 1.648735
-5.787813 0.326546 1.644145
-5.749939 0.321932 1.635646
-5.742323 0.326089 1.634024
-5.812804 0.333673 1.650110
-5.757487 0.365404 1.638525
-5.829269 0.454605 1.656193
-5.823111 0.416855 1.653793
-5.812418 0.417511 1.651838
-5.739449 0.386269 1.636305
-5.819702 0.451731 1.654188
-5.789552 0.438196 1.648685
-5.747470 0.425768 1.641614
-6.074960 1.180403 1.741438
-6.064153 1.216860 1.738247
-6.038786 1.184084 1.727975
-6.027298 1.174950 1.723620
-6.071988 1.248842 1.741777
-6.051046 1.230869 1.733586
-6.037133 1.245621 1.728621
-6.005015 1.228237 1.716797
-5.970093 1.179749 1.703752
-6.000476 1.258621 1.715407
-5.971031 1.231127 1.705309
-6.078566 1.287960 1.744627
-6.032140 1.287032 1.727200
-6.014703 1.287417 1.720798
-6.071607 1.310552 1.742161
-6.052870 1.329299 1.735291
-6.034789 1.338519 1.728680
-6.020895 1.329371 1.723528
-5.979110 1.331311 1.709161
-6.071254 1.375247 1.742929
-6.056826 1.415253 1.738650
-6.067403 1.438700 1.742989
-6.014899 1.397179 1.723268
-5.992048 1.363759 1.714462
-5.978332 1.380087 1.710493
-5.956756 1.365274 1.702917
-5.972692 1.429766 1.710994
-5.955229 1.434467 1.705611
-5.947679 1.417239 1.702405
-6.215164 0.479861 1.789073
-6.194838 0.543855 1.780096
-6.157389 0.502135 1.764526
-6.140971 0.485912 1.758328
-6.115340 0.504155 1.747839
-6.178595 0.515057 1.773302
-6.150556 0.546496 1.761626
-6.190377 0.585676 1.778476
-6.217908 0.590773 1.790191
-6.208862 0.606951 1.786455
-6.207469 0.640324 1.786135
-6.179265 0.593152 1.773754
-6.151309 0.581838 1.762330
-6.110476 0.582682 1.746275
-6.162376 0.640189 1.767321
-6.130602 0.629197 1.754507
-6.199941 0.657143 1.783261
-6.190446 0.726265 1.780133
-6.144376 0.645834 1.760111
-6.150312 0.677030 1.762828
-6.165137 0.712936 1.769336
-6.109652 0.690545 1.746893
-6.182626 0.760055 1.777390
-6.207800 0.744915 1.788020
-6.135471 0.747360 1.757982
-6.132360 0.737846 1.756690
-6.176943 0.779211 1.775355
-6.143877 0.806716 1.762179
-6.129788 0.791554 1.756265
-6.297134 -0.918951 1.869073
-6.286220 -0.929455 1.874149
-6.332400 -0.892810 1.869125
-6.311266 -0.885887 1.853853
-6.384289 -0.859304 1.876624
-6.394011 -0.826488 1.875180
-6.404541 -0.785647 1.877794
-6.371098 -0.789976 1.861629
-6.332098 -0.826223 1.845813
-6.350622 -0.812791 1.852929
-6.340911 -0.817273 1.848554
-6.319260 -0.786602 1.836767
-6.235768 -0.947352 1.866999
-6.236549 -0.932924 1.839058
-6.208715 -0.945672 1.845544
-6.408011 -0.735718 1.878840
-6.392798 -0.758100 1.871131
-6.395094 -0.771338 1.872404
-6.395319 -0.717746 1.872134
-6.360980 -0.715878 1.855060
-6.343838 -0.773053 1.847763
-6.333847 -0.751090 1.842588
-6.327839 -0.707546 1.839043
-6.370215 -0.680334 1.859573
-6.390412 -0.633678 1.869799
-6.337511 -0.662656 1.843511
-6.324257 -0.674908 1.837077
-6.348621 -0.627670 1.849065
-6.329247 -0.625113 1.839576
-6.390992 -0.584379 1.870624
-6.361857 -0.568416 1.856073
-6.404540 -0.530592 1.878337
-6.394998 -0.537528 1.873158
-6.351245 -0.582660 1.850675
-6.350026 -0.595504 1.849962
-6.321599 -0.512354 1.836573
-6.404931 -0.505440 1.878825
-6.403318 -0.478311 1.878082
-6.380259 -0.487788 1.866145
-6.375896 -0.487766 1.863936
-6.399878 -0.437514 1.876686
-6.341547 -0.492320 1.846858
-6.334854 -0.488501 1.843623
-6.348489 -0.443286 1.850998
-6.351794 -0.461227 1.852229
-6.385868 -0.381414 1.869986
-6.368744 -0.419479 1.861628
-6.395149 -0.355455 1.874133
-6.375111 -0.362008 1.864262
-6.321779 -0.413584 1.838125
-6.338609 -0.380827 1.846095
-6.386115 -0.301984 1.868475
-6.399886 -0.246350 1.875066
-6.375119 -0.276143 1.862626
-6.339587 -0.324273 1.845583
-6.320116 -0.309023 1.835897
-6.348277 -0.264660 1.849247
-6.339615 -0.253059 1.844963
-6.512803 -0.869309 1.946701
-6.500346 -0.824391 1.931331
-6.504807 -0.803303 1.932627
-6.523281 -0.815505 1.943927
-6.536932 -0.759095 1.949930
-6.534598 -0.727957 1.948356
-6.527323 -0.764988 1.944351
-6.493848 -0.736946 1.925359
-6.532445 -0.691305 1.947641
-6.511036 -0.690884 1.935709
-6.534500 -0.684660 1.948922
-6.557982 -0.652655 1.963310
-6.531673 -0.658999 1.947802
-6.493285 -0.661387 1.926299
-6.488939 -0.677226 1.923636
-6.498892 -0.626123 1.929727
-6.557022 -0.583538 1.963339
-6.559014 -0.543603 1.965297
-6.514119 -0.594401 1.938309
-6.489653 -0.561602 1.925385
-6.517175 -0.530917 1.941062
-6.519092 -0.539704 1.941992
-6.559409 -0.493300 1.965905
-6.546414 -0.427725 1.957431
-6.526650 -0.470530 1.946495
-6.496543 -0.508486 1.929899
-6.504721 -0.431561 1.933142
-6.493115 -0.449755 1.926905
-6.547827 -0.370275 1.957394
-6.539145 -0.360552 1.952374
-6.513911 -0.414998 1.938219
-6.509318 -0.387367 1.935493
-6.523398 -0.342177 1.943365
-6.495809 -0.360882 1.927774
-6.630233 -0.917736 2.051641
-6.675241 -0.884502 2.054161
-6.622323 -0.863731 2.014152
-6.685205 -0.830830 2.046464
-6.635942 -0.830530 2.015804
-6.669578 -0.790468 2.033012
-6.678324 -0.776985 2.038139
-6.658182 -0.797476 2.026295
-6.546812 -0.938103 2.025409
-6.691087 -0.769794 2.046423
-6.646066 -0.733934 2.016664
-6.691435 -0.719684 2.045907
-6.655015 -0.687265 2.021789
-6.642087 -0.646683 2.013997
-6.654435 -0.674084 2.021564
-6.672978 -0.617234 2.034058
-6.657867 -0.613598 2.024337
-6.801194 -0.831528 2.127967
-6.826849 -0.805767 2.144351
-6.827580 -0.755305 2.142383
-6.818198 -0.732394 2.134723
-6.808148 -0.644555 2.128418
-6.782961 -0.911779 2.144721
-6.782280 -0.882198 2.127514
-6.765842 -0.894933 2.120852
-6.750135 -0.896672 2.110066
-6.692984 -0.939975 2.120986
-6.783937 -0.854141 2.118923
-6.771901 -0.821629 2.105133
-6.780831 -0.816333 2.110981
-6.788992 -0.787613 2.115027
-6.772337 -0.745928 2.102049
-6.781167 -0.708156 2.108146
-6.793610 -0.668501 2.117441
-6.786958 -0.632318 2.113513
-7.003373 1.742618 2.362649
-7.478029 0.825564 2.829679
-7.470865 0.900848 2.820471
-7.472178 0.917860 2.822645
-7.485152 0.921269 2.841690
-7.489713 0.977557 2.849209
-7.477812 0.998242 2.832182
-7.473844 1.053036 2.827919
-7.464175 1.072009 2.814398
-7.463869 1.087356 2.814512
-7.482047 1.104774 2.842050
-7.462072 1.119860 2.813457
-7.477986 1.147398 2.838187
-7.459060 1.171093 2.811508
-7.482884 1.175272 2.846870
-7.461002 1.208871 2.815748
-7.482531 1.222196 2.849089
-7.470022 1.246888 2.831524
-7.474766 1.268975 2.840476
-7.476602 1.299217 2.846169
-7.469868 1.383198 2.849144
-7.461748 1.402157 2.837592
-7.450951 1.481062 2.834320
-7.450939 1.501498 2.836399
-7.441532 1.494086 2.811698
-7.452236 1.569359 2.852051
-7.443541 1.548831 2.820932
-7.450105 1.599393 2.837263
-7.448682 1.602069 2.832929
-7.453387 1.631188 2.834969
-7.451972 1.654261 2.826053
-7.463253 1.663761 2.842848
-7.457721 1.693416 2.825669
-7.565844 1.119250 2.998142
-7.561197 1.136073 2.986643
-7.565252 1.194999 3.008409
-7.563876 1.202787 3.005734
-7.562006 1.242273 3.012692
-7.560404 1.258079 3.012965
-7.553870 1.298150 3.013409
-7.551354 1.270325 2.988636
-7.545600 1.319948 3.007840
-7.541328 1.311185 2.987063
-7.545084 1.334596 3.023264
-7.532508 1.360365 3.011413
-7.519427 1.388282 2.993787
-7.532583 1.418234 3.027245
-7.520764 1.410267 2.998221
-7.540977 1.470024 3.022876
-7.525807 1.467396 2.998234
-7.530596 1.502685 2.990541
-7.552391 1.528644 3.013918
-7.541746 1.546204 2.989231
-7.555691 1.599831 3.003783
-7.564829 1.595802 3.025205
-7.556181 1.648073 2.997890
-7.566382 1.652852 3.022308
-7.569223 1.696484 3.026552
-7.562501 1.693863 3.009729
-7.562570 1.714745 3.007998
-7.567114 1.740348 3.019504
-3.582166 0.480113 0.593372
-3.600164 0.541427 0.586775
-3.609031 0.566799 0.586059
-3.584047 1.022300 0.581730
-3.543580 1.033002 0.590584
-3.601578 1.060511 0.568292
-3.570740 1.048715 0.577543
-3.549475 1.082812 0.578043
-3.544816 1.058837 0.584335
-3.587304 1.114756 0.564162
-3.560661 1.125510 0.571311
-3.552464 1.096781 0.577126
-3.532684 1.156260 0.591237
-3.584413 1.176340 0.568829
-3.558540 1.213892 0.590286
-3.557680 1.206001 0.588243
-3.580554 1.248572 0.591258
-3.577102 1.221450 0.582566
-3.597596 1.275718 0.594336
-3.761870 1.633223 0.636766
-3.746375 1.659682 0.634604
-3.734902 1.660209 0.637019
-3.730753 1.643440 0.638579
-3.759215 1.698187 0.634905
-3.752152 1.713128 0.633137
-3.729668 1.734398 0.634890
-3.573417 0.476224 0.599781
-3.554032 0.508390 0.614153
-3.570786 0.531339 0.605549
-3.558648 0.537313 0.613976
-3.552628 0.581446 0.621804
-3.578336 0.629762 0.612235
-3.551159 0.613964 0.625833
-3.589287 0.678255 0.610358
-3.571274 0.659893 0.618303
-3.579146 0.725272 0.620492
-3.577646 0.687515 0.617037
-3.573298 0.772334 0.629727
-3.604561 0.805336 0.620818
-3.609038 0.839652 0.618740
-3.596774 0.862076 0.619314
-3.601547 0.889846 0.611930
-3.552681 0.906059 0.621763
-3.575720 0.916647 0.611415
-3.544308 0.945019 0.613932
-3.596704 0.961317 0.595100
-4.041360 -0.192923 0.819219
-4.105073 -0.125016 0.849447
-4.088745 -0.128510 0.841649
-4.067565 -0.111514 0.830323
-4.100735 -0.069999 0.845219
-4.083223 -0.084204 0.837160
-4.068152 -0.084010 0.829789
-4.039980 -0.145528 0.816700
-4.150730 0.095785 0.858509
-4.127707 -0.065125 0.856773
-4.117159 -0.028953 0.850369
-4.069630 -0.058890 0.829762
-4.057477 -0.032657 0.823012
-4.113518 -0.007432 0.847753
-4.084207 -0.016527 0.835072
-4.070213 0.017838 0.827096
-4.111045 0.024910 0.844914
-4.092527 0.043371 0.836190
-4.064833 0.053577 0.823043
-4.105953 0.105469 0.839353
-4.118470 0.072332 0.845812
-4.080059 0.100444 0.827922
-4.158444 0.140717 0.860442
-4.144851 0.223770 0.851907
-4.149238 0.287412 0.852323
-4.134614 0.140055 0.849991
-4.109571 0.143702 0.839313
-4.093039 0.129479 0.832748
-4.115887 0.183471 0.840625
-4.114024 0.159102 0.840670
-4.120051 0.225825 0.841242
-4.104994 0.222971 0.834904
-4.078833 0.221428 0.822878
-4.130959 0.261324 0.844996
-4.123163 0.261064 0.841612
-4.067931 0.244947 0.817156
-4.079250 0.287014 0.821329
-4.153155 0.307712 0.853743
-4.157074 0.336607 0.855137
-4.145677 0.461753 0.849594
-4.130902 0.299904 0.844049
-4.104812 0.300581 0.832621
-4.077291 0.289409 0.820372
-4.084220 0.322366 0.822850
-4.122664 0.370581 0.839621
-4.114392 0.378576 0.835894
-4.125968 0.416483 0.840899
-4.080824 0.400919 0.820789
-4.104211 0.446025 0.831285
-4.231222 0.493265 0.894237
-4.169058 0.484462 0.860633
-4.230890 0.512913 0.894605
-4.185233 0.553892 0.869378
-4.169041 0.520545 0.861145
-4.241157 0.576386 0.900967
-4.203978 0.557313 0.879664
-4.197185 0.564825 0.875769
-4.213718 0.620339 0.884489
-4.175879 0.635521 0.864174
-4.231075 0.693019 0.894869
-4.207200 0.680352 0.881106
-4.181315 0.666627 0.866858
-4.217822 0.724959 0.887796
-4.199972 0.714011 0.877360
-4.244249 0.749396 0.904738
-4.231496 0.769010 0.896394
-4.231775 0.802540 0.897063
-4.229542 0.741977 0.894809
-4.207598 0.742561 0.882167
-4.184066 0.772121 0.869204
-4.230509 0.779271 0.895924
-4.242649 0.843013 0.904820
-4.205117 0.859132 0.882187
-4.215097 0.908001 0.888587
-4.182227 0.900631 0.870243
-4.234217 0.994965 0.901775
-4.223508 0.927828 0.893807
-4.188112 0.914684 0.873359
-4.190945 0.961470 0.876035
-4.183803 0.956137 0.872294
-4.230125 1.014111 0.899354
-4.199677 1.010187 0.881254
-4.181405 1.021504 0.871152
-4.182638 1.037407 0.871527
-4.202368 1.050901 0.882728
-4.216624 1.071925 0.891217
-4.183936 1.047828 0.872146
-4.212987 1.102916 0.889382
-4.207799 1.120143 0.886846
-4.160315 1.097829 0.862321
-4.213744 1.150815 0.891183
-4.194577 1.157740 0.880575
-3.974403 -0.955792 0.939127
-3.929790 -0.968089 0.944652
-3.865929 -0.971949 0.908117
-3.758024 -0.985085 0.904911
-4.088324 -0.938554 0.941106
-4.086881 -0.928356 0.926493
-4.132698 -0.873509 0.937618
-4.051716 -0.945426 0.923750
-3.999578 -0.950825 0.925356
-4.105321 -0.862929 0.910153
-4.107250 -0.850737 0.910599
-4.106263 -0.816628 0.906947
-4.111123 -0.789173 0.909972
-4.149109 -0.722626 0.937982
-4.143585 -0.709310 0.932754
-4.158520 -0.657037 0.940775
-4.169370 -0.616380 0.945376
-4.126744 -0.767912 0.922094
-4.112470 -0.740789 0.908646
-4.141001 -0.701876 0.930191
-4.117603 -0.705040 0.911082
-4.129457 -0.643568 0.917142
-4.135591 -0.635050 0.921146
-4.124695 -0.601567 0.909672
-4.114316 -0.938263 0.976547
-4.108088 -0.933976 0.956112
-4.204393 -0.764333 0.984860
-4.181000 -0.763515 0.965921
-4.210810 -0.726690 0.987695
-4.188451 -0.715959 0.968886
-4.218244 -0.681813 0.989601
-4.195060 -0.645622 0.968220
-4.183083 -0.665158 0.960671
-4.195832 -0.617308 0.965851
-4.227378 -0.586520 0.985694
-4.194261 -0.566117 0.957874
-4.226960 -0.532996 0.976884
-4.247128 -0.467461 0.980894
-4.249003 -0.457723 0.980570
-4.204767 -0.502855 0.955588
-4.222739 -0.469509 0.962814
-4.224926 -0.420930 0.955644
-4.235840 -0.407090 0.961042
-4.272116 -0.364245 0.981677
-4.262771 -0.335911 0.969705
-4.292633 -0.313504 0.990831
-4.256814 -0.322627 0.962886
-4.292694 -0.246959 0.981809
-4.269761 -0.245070 0.962445
-4.347438 0.862507 1.001519
-4.351326 0.822623 1.005015
-4.348894 0.883196 1.003787
-4.350512 0.934522 1.007669
-4.345640 0.921063 1.001325
-4.348907 0.982193 1.007377
-4.350127 0.952795 1.008150
-4.356322 1.031542 1.018222
-4.362838 1.082942 1.029885
-4.339640 1.059931 0.998438
-4.345153 1.124051 1.008339
-4.355718 1.091516 1.020958
-4.365125 1.167393 1.034892
-4.363163 1.170727 1.032255
-4.362513 1.212641 1.032780
-4.341681 1.189698 1.005425
-4.356771 1.230990 1.026408
-4.336208 1.249675 1.001402
-4.357343 1.268334 1.029208
-4.356192 1.277661 1.028143
-4.338454 1.300284 1.006497
-4.333410 1.339605 1.001612
-4.343125 1.396353 1.015467
-4.348892 1.421779 1.023070
-4.350499 1.487870 1.026179
-4.330459 1.518628 1.003125
-4.521808 1.557637 1.214820
-4.497265 1.545530 1.195921
-4.510924 1.587612 1.209891
-4.504277 1.627853 1.208300
-4.481247 1.556814 1.183154
-4.487045 1.540920 1.186888
-4.492816 1.616542 1.199334
-4.477325 1.575971 1.181365
-4.478613 1.653646 1.188136
-4.485702 1.622660 1.193407
-4.483381 1.702815 1.191606
-4.486998 1.720243 1.194246
-4.465288 1.737730 1.176165
-4.841529 -0.312283 1.369697
-4.834106 -0.287188 1.366064
-4.828039 -0.247033 1.363101
-4.883539 -0.190139 1.387291
-4.894730 -0.164348 1.391774
-4.872928 -0.141171 1.382384
-4.881160 -0.123886 1.385762
-4.886817 -0.094073 1.387834
-4.871934 -0.091688 1.381433
-4.807100 -0.238030 1.353271
-4.799153 -0.219268 1.349139
-4.849728 -0.188341 1.372832
-4.808963 -0.190986 1.353864
-4.832877 -0.129029 1.364821
-4.809163 -0.111522 1.354223
-4.808897 -0.067005 1.352648
-4.823940 -0.097370 1.360442
-4.897042 -0.035306 1.391849
-4.863369 -0.053024 1.377149
-4.896845 -0.016071 1.391540
-4.888209 0.003702 1.387285
-4.860991 -0.006334 1.375286
-4.890306 0.047524 1.387453
-4.884413 0.066852 1.384525
-4.853138 0.110418 1.370174
-4.862299 0.097613 1.374377
-4.829455 -0.032979 1.361251
-4.843326 -0.020112 1.367483
-4.821558 0.064294 1.355908
-4.838957 0.025061 1.364593
-4.840819 0.082730 1.364738
-4.828072 0.094333 1.358663
-4.939707 0.152109 1.407437
-5.002101 0.194186 1.431104
-4.983776 0.182319 1.424179
-4.957651 0.162114 1.414259
-4.925238 0.131517 1.401497
-4.915857 0.180551 1.397110
-5.001515 0.231772 1.430763
-4.976230 0.218329 1.421061
-5.015612 0.270384 1.436053
-4.994180 0.284777 1.427941
-4.969943 0.259241 1.418574
-4.936099 0.223582 1.405309
-4.920564 0.224588 1.398742
-4.931748 0.268485 1.403367
-4.988142 0.322049 1.425687
-4.962458 0.294429 1.415658
