-2.131992 0.289240 -0.050521
-2.095708 0.316796 -0.040674
-2.085369 0.328366 -0.063727
-2.069240 0.344459 -0.037370
-2.053106 0.364360 -0.039909
-2.038530 0.383742 -0.047328
-2.015975 0.409879 -0.056864
-2.026280 0.398618 -0.042831
-2.003533 0.423500 -0.061236
-1.984899 0.443180 -0.051220
-1.995079 0.432182 -0.057965
-2.734660 -0.517001 0.183251
-2.748830 -0.538532 0.171256
-2.722044 -0.492407 0.169868
-2.723494 -0.492145 0.159603
-2.708691 -0.471225 0.166392
-2.705690 -0.470262 0.183249
-2.699919 -0.457761 0.160292
-2.681112 -0.427764 0.158714
-2.694628 -0.451553 0.174448
-2.671478 -0.410445 0.172993
-2.675505 -0.418973 0.173566
-2.664009 -0.394812 0.174376
-2.648165 -0.362406 0.160747
-2.625093 -0.321023 0.159770
-2.624496 -0.318557 0.165323
-2.739468 -0.530529 0.234230
-2.749184 -0.545177 0.243369
-2.714361 -0.489404 0.238494
-2.725045 -0.507101 0.236921
-2.694389 -0.454955 0.221908
-2.679987 -0.428056 0.216204
-2.685631 -0.437616 0.238824
-2.663718 -0.393632 0.232575
-2.667750 -0.401616 0.246262
-2.656017 -0.375689 0.237289
-2.652119 -0.367503 0.218865
-2.643512 -0.344014 0.243676
-2.643826 -0.347632 0.219168
-2.768847 -0.544235 0.492718
-2.767280 -0.544164 0.476286
-2.868922 -0.614181 0.581854
-2.881882 -0.624340 0.566920
-2.858770 -0.605358 0.582369
-2.837777 -0.586524 0.570828
-2.838480 -0.586208 0.584039
-2.826725 -0.577682 0.567011
-2.807204 -0.561674 0.577606
-2.819212 -0.571992 0.566959
-3.008370 -0.780339 0.615196
-3.013224 -0.785416 0.598392
-2.987070 -0.749565 0.619256
-2.969779 -0.719955 0.615021
-2.966986 -0.709452 0.594806
-2.947068 -0.683724 0.598250
-2.909480 -0.649110 0.605671
-2.635164 -0.279037 0.627671
-2.616855 -0.248462 0.651816
-2.623567 -0.259105 0.642823
-2.613044 -0.243884 0.625983
-2.597222 -0.220735 0.645962
-2.588274 -0.210282 0.625724
-2.581832 -0.199886 0.649911
-2.564030 -0.174952 0.638281
-2.548571 -0.151477 0.636732
-2.556830 -0.164944 0.626652
-2.525423 -0.112606 0.650582
-2.529176 -0.119567 0.644488
-2.504427 -0.079515 0.645432
-2.508481 -0.086239 0.643726
-2.486393 -0.048386 0.650708
-2.499529 -0.074205 0.641154
-2.482895 -0.057860 0.625011
-2.464773 -0.025908 0.631482
-2.455269 -0.002302 0.644533
-2.452216 -0.008353 0.626839
-2.446859 0.014651 0.649277
-2.449207 0.010195 0.648513
-2.426453 0.039351 0.636145
-2.432275 0.037037 0.651495
-2.404275 0.072675 0.627660
-2.405899 0.068844 0.624093
-2.396640 0.083373 0.625314
-2.381335 0.103401 0.648025
-2.370037 0.115495 0.632110
-2.328273 0.159185 0.635800
-2.305371 0.187040 0.633356
-2.272236 0.228876 0.636114
-2.279177 0.219981 0.637330
-2.860320 -0.649694 0.779272
-2.865542 -0.651335 0.765012
-2.884806 -0.671660 0.759679
-2.856860 -0.642874 0.770183
-2.852371 -0.637284 0.767727
-2.854125 -0.635960 0.756867
-2.801962 -0.586151 0.769373
-2.807752 -0.587815 0.753626
-2.779715 -0.560626 0.763828
-2.794535 -0.576016 0.757047
-2.783814 -0.567982 0.775607
-2.686326 -0.407776 0.819560
-2.683002 -0.395089 0.842924
-2.678408 -0.369959 0.825413
-2.679812 -0.377344 0.833986
-2.671297 -0.343441 0.820733
-2.675637 -0.358199 0.814525
-2.662910 -0.306714 0.815869
-2.668215 -0.322265 0.827628
-2.653204 -0.276293 0.818410
-2.664194 -0.291770 0.828121
-2.625781 -0.248392 0.819216
-2.618356 -0.240173 0.830517
-2.635123 -0.251257 0.833300
-2.595469 -0.216687 0.840589
-2.597984 -0.219601 0.812425
-2.582876 -0.201210 0.819484
-2.569962 -0.180268 0.820526
-2.549037 -0.142716 0.827297
-2.555465 -0.154494 0.825762
-2.534326 -0.113921 0.837055
-2.530694 -0.107810 0.842623
-2.530908 -0.101262 0.821744
-2.506973 -0.057487 0.834876
-2.512293 -0.062998 0.823808
-2.486355 -0.022982 0.833060
-2.482388 -0.014819 0.826109
-2.460849 0.014151 0.816413
-2.469861 -0.002879 0.840589
-2.430700 0.045036 0.825239
-2.448351 0.023806 0.836671
-2.404329 0.069225 0.837336
-2.416523 0.058928 0.827454
-2.388502 0.087442 0.831196
-2.388823 0.085410 0.839621
-2.922055 -0.734891 0.867030
-2.896908 -0.705922 0.868727
-2.908014 -0.718047 0.845775
-2.889861 -0.697360 0.852858
-2.881474 -0.687897 0.872791
-2.885924 -0.692754 0.848741
-2.860292 -0.662837 0.845231
-2.864959 -0.668660 0.857395
-2.838042 -0.637536 0.843372
-2.835216 -0.635187 0.872389
-2.796205 -0.594835 0.856384
-2.807103 -0.605937 0.861239
-2.781470 -0.579913 0.851060
-2.779875 -0.579185 0.867067
-2.761359 -0.559319 0.851791
-2.200344 0.281966 0.918773
-2.194633 0.285167 0.927242
-2.191080 0.294809 0.907053
-2.175105 0.310605 0.916650
-2.183273 0.299714 0.924012
-2.165812 0.320469 0.909715
-2.140831 0.354222 0.925007
-2.147194 0.344280 0.908919
-2.125406 0.376290 0.927190
-2.131743 0.367244 0.925577
-2.095196 0.418712 0.916651
-2.101874 0.410252 0.929636
-2.088543 0.429775 0.931341
-2.071303 0.451997 0.914523
-2.989546 -0.818830 0.941787
-2.974782 -0.799363 0.963359
-2.956630 -0.774128 0.944997
-2.968309 -0.789568 0.957335
-2.934887 -0.745408 0.959212
-2.949909 -0.765758 0.944175
-2.912884 -0.720002 0.947552
-2.909619 -0.712453 0.968469
-2.884250 -0.685568 0.948097
-2.886807 -0.687142 0.955722
-2.444794 -0.067158 1.023238
-2.449012 -0.066275 1.004618
-2.422935 -0.036588 1.012218
-2.402390 -0.018850 1.029790
-2.388822 0.002553 1.011416
-2.401114 -0.010687 1.012181
-2.381235 0.010166 1.011671
-2.359727 0.032647 1.012132
-2.352434 0.042926 1.008514
-2.334693 0.073522 1.013193
-2.329228 0.077476 1.030315
-2.329741 0.083827 1.011215
-2.314286 0.106699 1.025816
-2.320451 0.104468 1.002205
-2.300167 0.131948 1.009337
-2.269621 0.161342 1.028734
-2.282231 0.149452 1.025010
-2.266263 0.171812 1.005856
-2.289180 0.148021 1.002846
-2.245943 0.188511 1.016068
-2.234519 0.204483 1.002780
-2.205168 0.228385 1.028536
-2.206917 0.229868 1.019428
-2.229533 0.209768 1.003448
-2.182652 0.266151 1.014102
-2.198104 0.236592 1.029179
-2.169880 0.292709 1.005269
-2.167258 0.289113 1.021913
-2.151295 0.324049 1.024923
-2.158692 0.308825 1.019933
-2.137079 0.356640 1.008674
-2.135988 0.355112 1.026155
-2.124239 0.369174 1.031370
-2.121024 0.376241 1.005605
-2.113721 0.383844 1.008404
-2.083677 0.413122 1.030118
-2.094650 0.408028 1.005494
-2.064238 0.454553 1.014078
-2.615187 -0.277658 1.089396
-2.626316 -0.282782 1.064016
-2.598169 -0.255158 1.085115
-2.595492 -0.246120 1.069333
-2.567955 -0.219229 1.083106
-2.564117 -0.209303 1.066792
-2.532494 -0.177473 1.071974
-2.537166 -0.183491 1.075221
-2.513569 -0.157361 1.069445
-2.798288 -0.582681 1.120997
-2.817461 -0.605231 1.116559
-2.786325 -0.568796 1.123241
-2.775916 -0.554767 1.108831
-2.791182 -0.573917 1.119646
-2.780814 -0.559769 1.102156
-2.262704 0.147621 1.271324
-2.240807 0.167488 1.252567
-2.257495 0.152875 1.275541
-2.217883 0.186734 1.252532
-2.201168 0.199422 1.280484
-2.173077 0.224328 1.256196
-2.190695 0.208256 1.269284
-2.159379 0.235760 1.274807
-2.166062 0.230169 1.265611
-2.139349 0.253522 1.264174
-2.123243 0.267123 1.271085
-2.111231 0.277554 1.270737
-2.091002 0.300687 1.251541
-2.085536 0.303115 1.272381
-2.065057 0.329700 1.268282
-2.053007 0.341286 1.281377
-2.059066 0.338912 1.263549
-2.040630 0.360689 1.270742
-2.020854 0.383511 1.281211
-2.030379 0.379948 1.254754
-2.001796 0.422539 1.254627
-2.009523 0.408519 1.258832
-1.982174 0.448964 1.279687
-1.983158 0.454391 1.262024
-1.995260 0.435389 1.252622
-2.901049 -0.817307 1.337715
-2.876856 -0.779761 1.325364
-2.876908 -0.776953 1.314728
-2.862449 -0.760875 1.327768
-2.837219 -0.725307 1.338179
-2.806523 -0.676691 1.321066
-2.821398 -0.695637 1.318610
-2.817621 -0.695438 1.336598
-1.623200 1.081598 2.192768
-1.646121 1.087311 2.200834
-1.606523 1.104563 2.210950
-1.614805 1.094541 2.202485
-1.585117 1.108024 2.206282
-1.555320 1.122761 2.209740
-1.566718 1.126818 2.222198
-1.508987 1.139259 2.202911
-1.534544 1.139271 2.222359
-1.528575 1.130334 2.201479
-1.556102 1.269351 2.293661
-1.562497 1.261595 2.290230
-1.537676 1.250013 2.292313
-1.547034 1.278897 2.296618
-1.571322 1.281271 2.289425
-1.512078 1.284286 2.303476
-1.539805 1.279974 2.298362
-1.548111 1.312162 2.294218
-1.484591 1.261145 2.293052
-1.498442 1.244790 2.287556
-2.101153 0.739436 -0.841112
-2.617870 -0.177901 -0.431231
-2.606187 -0.152129 -0.411702
-2.580805 -0.114194 -0.413210
-2.597737 -0.139084 -0.425020
-2.546650 -0.077622 -0.419927
-2.550949 -0.082269 -0.413222
-2.530355 -0.062364 -0.423603
-2.542304 -0.073313 -0.427968
-2.042491 0.462420 -0.377295
-2.030598 0.482489 -0.370415
-2.039552 0.465929 -0.370651
-2.015300 0.507699 -0.353539
-2.029142 0.488144 -0.376277
-2.014905 0.527118 -0.374727
-2.010237 0.536705 -0.368760
-1.990487 0.577943 -0.358593
-1.999501 0.561638 -0.362885
-1.987425 0.596268 -0.373669
-1.988735 0.584834 -0.362775
-1.969611 0.611143 -0.352028
-1.960820 0.632401 -0.357964
-1.976834 0.616097 -0.372451
-1.977290 0.618033 -0.375490
-1.953008 0.665547 -0.372239
-1.941323 0.674113 -0.358207
-1.944305 0.699909 -0.377390
-1.940053 0.691930 -0.366760
-1.931563 0.731315 -0.374591
-1.923679 0.713674 -0.354325
-1.915265 0.743447 -0.359987
-1.914998 0.759528 -0.372609
-1.904568 0.751899 -0.351091
-1.890947 0.784408 -0.353278
-1.902312 0.790098 -0.376103
-1.894325 0.812779 -0.373187
-1.889314 0.815366 -0.364811
-1.883175 0.815024 -0.353821
-1.893420 0.861807 -0.379913
-1.886055 0.839030 -0.364642
-1.892899 0.882203 -0.380021
-1.885370 0.879791 -0.367553
-2.812809 -0.554053 -0.197938
-2.801084 -0.529857 -0.212848
-2.809786 -0.541448 -0.208384
-2.821843 -0.544492 -0.218525
-2.805312 -0.545659 -0.198675
-2.778754 -0.518675 -0.194591
-2.764956 -0.491107 -0.206928
-2.786741 -0.507007 -0.221870
-2.770423 -0.539082 -0.143272
-2.755295 -0.518539 -0.137767
-2.738190 -0.488541 -0.135353
-2.754516 -0.510913 -0.149457
-1.639454 1.210897 -0.065963
-1.634792 1.253162 -0.058940
-1.635580 1.302630 -0.041344
-1.637421 1.291190 -0.060218
-1.638663 1.331539 -0.038371
-1.626546 1.220116 -0.039069
-1.632332 1.242865 -0.053471
-1.640577 1.343053 -0.041363
-2.751448 -0.525103 0.099561
-2.761758 -0.545058 0.100160
-2.744839 -0.510569 0.090904
-2.738220 -0.504242 0.114541
-2.707624 -0.458914 0.118962
-2.711223 -0.463940 0.118721
-2.720148 -0.473498 0.105999
-2.699405 -0.448079 0.120233
-2.693125 -0.434908 0.100113
-2.673913 -0.409148 0.112243
-2.643193 -0.360027 0.093292
-2.661650 -0.388639 0.095884
-2.643040 -0.359547 0.099738
-2.626437 -0.333770 0.113575
-2.603228 -0.303537 0.111328
-2.593126 -0.289193 0.119454
-2.587667 -0.289486 0.093566
-2.561416 -0.246794 0.111910
-2.569497 -0.265399 0.095821
-2.549999 -0.228511 0.110114
-2.534669 -0.203786 0.100096
-2.520831 -0.176361 0.095817
-2.535764 -0.199922 0.114916
-2.514530 -0.156271 0.119100
-2.008008 0.456229 0.214749
-1.988187 0.501300 0.187050
-1.992380 0.493952 0.202864
-1.977531 0.532450 0.189503
-1.979303 0.536132 0.206611
-1.958413 0.575442 0.184698
-1.972725 0.561670 0.215405
-1.964366 0.584949 0.214632
-1.959282 0.593312 0.211004
-1.947850 0.608518 0.198474
-1.928596 0.638139 0.197248
-1.944512 0.617304 0.202714
-1.905721 0.669158 0.206707
-1.914825 0.662057 0.212542
-1.902623 0.675961 0.214572
-1.866980 0.706162 0.203065
-1.882669 0.689794 0.199831
-1.858849 0.714991 0.203594
-1.859296 0.709917 0.190792
-1.842143 0.731759 0.197427
-1.827749 0.756927 0.210806
-1.837564 0.738553 0.201511
-1.821098 0.760943 0.198802
-1.799893 0.793094 0.185229
-1.807957 0.795427 0.212353
-1.792721 0.824786 0.201582
-1.785202 0.847639 0.203276
-1.778995 0.848840 0.186371
-1.768868 0.893326 0.205679
-1.778966 0.870187 0.207992
-1.761250 0.912392 0.209326
-1.754981 0.926727 0.211150
-1.741414 0.953816 0.205300
-1.751548 0.929409 0.195349
-1.736197 0.965016 0.186432
-1.734161 0.968038 0.199719
-1.725634 1.000747 0.191436
-1.713874 1.038750 0.193877
-1.717925 1.022332 0.201163
-1.699200 1.063438 0.205091
-1.693639 1.072163 0.200621
-2.673402 -0.414067 0.402189
-2.669061 -0.404672 0.395372
-2.655399 -0.368931 0.383056
-2.659514 -0.380773 0.398028
-2.645210 -0.331888 0.378241
-2.647340 -0.339170 0.400323
-2.638461 -0.303363 0.397849
-2.621768 -0.270112 0.382688
-2.625913 -0.274671 0.400376
-2.613664 -0.253642 0.398772
-2.587260 -0.216917 0.379169
-2.593394 -0.223650 0.392065
-2.577194 -0.198066 0.399928
-2.561340 -0.172154 0.399819
-2.571537 -0.191930 0.384569
-2.552538 -0.156523 0.389450
-2.557628 -0.166661 0.390367
-2.529962 -0.116194 0.390332
-2.543054 -0.139726 0.386067
-2.519805 -0.098580 0.376903
-2.500939 -0.071355 0.376939
-2.475963 -0.046122 0.402562
-2.462515 -0.028689 0.391805
-2.463183 -0.026585 0.375109
-2.428287 0.011588 0.382673
-2.437928 -0.001199 0.396647
-2.421013 0.019158 0.388787
-2.407660 0.034507 0.398690
-2.411644 0.032218 0.375528
-2.388027 0.062417 0.385239
-2.398198 0.048409 0.380794
-2.387051 0.064222 0.378902
-2.359886 0.107594 0.386115
-2.368498 0.095098 0.399974
-2.344464 0.126397 0.377386
-2.345761 0.129303 0.398439
-2.328959 0.145675 0.380174
-2.000807 0.486259 0.462224
-2.008912 0.464127 0.460000
-1.988473 0.505139 0.439462
-1.981642 0.531713 0.457821
-1.973990 0.544814 0.437799
-1.968198 0.571195 0.458186
-1.969818 0.559101 0.439056
-1.957696 0.600928 0.450894
-1.961220 0.590204 0.449495
-1.948061 0.623096 0.459007
-1.947660 0.623507 0.462166
-1.920967 0.674844 0.453024
-1.939906 0.645350 0.442616
-1.903707 0.697756 0.449012
-1.911089 0.689582 0.445130
-1.881991 0.722003 0.465840
-1.874855 0.733180 0.439736
-1.859409 0.751459 0.439200
-1.861971 0.746174 0.459163
-1.828808 0.800883 0.440761
-1.834473 0.788951 0.446950
-1.823615 0.809891 0.460351
-1.818233 0.835487 0.435826
-1.814889 0.835895 0.466595
-1.791954 0.893303 0.441105
-1.800421 0.876737 0.453474
-1.784267 0.903782 0.459951
-1.784063 0.904445 0.451890
-1.755175 0.941067 0.461061
-1.750947 0.949894 0.442178
-2.371118 0.103306 0.486405
-2.378516 0.085498 0.482453
-2.358454 0.135856 0.492641
-2.366622 0.112702 0.485531
-2.347605 0.151589 0.474987
-2.336415 0.177481 0.490749
-2.332396 0.180394 0.480919
-2.312196 0.202952 0.468799
-2.297536 0.226805 0.495577
-2.308915 0.210055 0.483273
-2.265686 0.252443 0.478439
-2.258386 0.255621 0.470041
-2.206667 0.283224 0.470786
-2.184828 0.293285 0.474508
-2.191336 0.294029 0.496209
-2.147721 0.314140 0.486891
-2.162807 0.306485 0.492642
-2.123778 0.329291 0.484403
-2.105639 0.341547 0.478211
-2.093509 0.351714 0.475937
-2.078913 0.370101 0.486603
-2.060795 0.390575 0.486679
-2.068904 0.382185 0.488400
-2.043503 0.409773 0.479639
-2.051034 0.397189 0.476018
-2.032540 0.422014 0.471318
-2.034703 0.434421 0.495899
-2.029073 0.426539 0.468947
-2.042315 0.480021 0.587577
-2.047520 0.459546 0.565944
-2.035445 0.480365 0.565343
-2.014782 0.517417 0.565027
-2.019823 0.510595 0.568499
-2.017646 0.520988 0.591248
-2.015730 0.518986 0.574299
-1.998678 0.539832 0.569524
-1.999736 0.541537 0.592295
-1.989091 0.553564 0.561694
-1.972928 0.576776 0.590791
-1.969584 0.581874 0.582856
-1.947078 0.611981 0.584637
-1.944881 0.615710 0.573468
-1.945925 0.615214 0.568370
-1.903921 0.662691 0.577666
-1.914805 0.650070 0.569746
-1.855098 0.728210 0.575669
-1.863325 0.716666 0.579334
-1.851459 0.730763 0.581912
-1.847853 0.739337 0.567988
-1.826071 0.769854 0.564233
-1.808757 0.800512 0.562299
-1.812372 0.793286 0.564494
-1.816919 0.770542 0.591625
-1.792957 0.829182 0.569044
-1.785941 0.846999 0.569887
-1.771768 0.864059 0.588649
-1.748510 0.915922 0.568752
-1.740270 0.928588 0.567373
-1.724548 0.943598 0.591718
-1.705340 0.972210 0.565992
-1.714369 0.960746 0.570266
-2.056424 0.467620 0.661744
-2.035342 0.492554 0.683549
-2.021454 0.511306 0.662552
-1.988444 0.547729 0.681919
-2.008790 0.525868 0.664702
-1.961254 0.580172 0.681910
-1.971768 0.570213 0.665063
-1.942043 0.606387 0.659422
-1.932943 0.617053 0.655979
-1.932197 0.616408 0.663271
-1.906811 0.640711 0.673970
-1.887002 0.664238 0.660562
-2.046923 0.477139 0.693039
-2.051041 0.468780 0.714317
-2.012775 0.516351 0.705661
-2.023288 0.503657 0.710124
-2.026153 0.501749 0.696798
-2.017440 0.512809 0.689004
-1.985980 0.548880 0.697332
-2.005440 0.525704 0.699152
-1.984122 0.550786 0.699648
-1.961387 0.575126 0.713043
-1.979035 0.557647 0.692367
-1.948449 0.590871 0.703067
-1.937645 0.605417 0.688408
-1.904764 0.635467 0.707759
-1.912395 0.628569 0.704252
-1.891546 0.650547 0.698616
-2.992804 -0.813560 0.808440
-2.986029 -0.801668 0.800372
-2.999544 -0.819200 0.793442
-2.963359 -0.776467 0.808248
-2.963159 -0.774939 0.801631
-2.981741 -0.792929 0.785734
-2.945529 -0.756104 0.808623
-2.945243 -0.754078 0.800649
-2.858322 -0.659280 0.912234
-2.865567 -0.667428 0.914001
-2.851421 -0.650633 0.921875
-2.830482 -0.627208 0.921984
-2.815714 -0.612137 0.919972
-2.801378 -0.597746 0.936741
-2.803200 -0.600304 0.914139
-2.787193 -0.585695 0.910479
-2.776959 -0.575696 0.930766
-2.753316 -0.551679 0.920798
-2.756903 -0.554761 0.931934
-2.969094 -0.808783 1.014206
-2.963548 -0.792170 1.001924
-2.929523 -0.740293 1.024537
-2.938142 -0.755733 1.027414
-2.923058 -0.728909 1.009906
-2.923807 -0.731746 1.027521
-2.915451 -0.718375 1.008054
-2.898965 -0.696690 1.018335
-2.879483 -0.674275 1.004034
-2.757601 -0.539712 1.147764
-2.762699 -0.545558 1.144073
-2.740360 -0.514058 1.136887
-2.723573 -0.489579 1.154948
-2.730865 -0.497918 1.137571
-2.711357 -0.456995 1.130388
-2.722417 -0.480901 1.135824
-2.697137 -0.427530 1.126389
-2.678220 -0.396578 1.148002
-2.685504 -0.404844 1.128701
-2.671214 -0.381175 1.141809
-2.645368 -0.336318 1.143858
-2.657025 -0.352451 1.134728
-2.627352 -0.305904 1.129710
-2.628181 -0.310109 1.142196
-2.609783 -0.285299 1.140561
-2.615160 -0.292723 1.142738
-2.596507 -0.267249 1.131165
-2.602041 -0.273630 1.130422
-2.582994 -0.251644 1.130123
-2.584433 -0.257115 1.145492
-2.565648 -0.235181 1.140773
-2.549848 -0.219340 1.144724
-2.537884 -0.203710 1.135396
-2.513989 -0.184624 1.152610
-1.989831 0.484655 1.162512
-1.997064 0.473878 1.163307
-1.974252 0.504225 1.187163
-1.954094 0.545359 1.169634
-1.964098 0.527517 1.173165
-1.949781 0.552781 1.159295
-1.930852 0.578708 1.168597
-1.946608 0.556971 1.176034
-2.785061 -0.598570 1.211563
-2.790969 -0.600158 1.198523
-2.770970 -0.570074 1.193840
-2.754660 -0.552641 1.205821
-2.901579 -0.785135 1.229165
-2.899476 -0.780530 1.222623
-2.888721 -0.770601 1.250094
-2.869728 -0.741195 1.244882
-2.888760 -0.765473 1.228676
-2.885119 -0.763631 1.242898
-2.868173 -0.730649 1.222987
-2.848962 -0.708694 1.245065
-2.830789 -0.680574 1.240372
-2.817755 -0.656462 1.228515
-2.797413 -0.627508 1.228030
-2.784226 -0.612192 1.235819
-2.788877 -0.610459 1.220981
-2.735985 -0.542250 1.251848
-2.732404 -0.537973 1.256328
-2.703393 -0.491599 1.263601
-2.703348 -0.500417 1.281568
-2.684613 -0.457199 1.265751
-2.691819 -0.473893 1.270872
-2.674649 -0.432081 1.252757
-2.678106 -0.452914 1.281732
-2.668566 -0.431189 1.276992
-2.652807 -0.396051 1.275561
-2.655796 -0.394319 1.251772
-2.647286 -0.383239 1.274732
-2.625115 -0.329366 1.261347
-2.625402 -0.337436 1.279745
-2.615172 -0.305373 1.254284
-2.604195 -0.281862 1.255914
-2.606526 -0.286912 1.270564
-2.577857 -0.252179 1.268453
-2.544569 -0.236865 1.270927
-2.574414 -0.249191 1.277317
-2.522285 -0.223515 1.281860
-2.524739 -0.220430 1.259599
-1.975299 0.460553 1.290790
-1.957080 0.510921 1.290963
-1.958881 0.498805 1.310124
-1.952272 0.526087 1.283669
-1.951970 0.520229 1.306985
-1.940929 0.547472 1.303215
-1.944486 0.541854 1.293277
-1.930772 0.564034 1.312498
-1.934241 0.560731 1.298961
-1.913352 0.593594 1.306728
-1.911471 0.599274 1.291781
-1.900012 0.616269 1.286524
-1.900831 0.613426 1.297179
-2.498740 -0.180781 1.395597
-2.511804 -0.199055 1.394632
-2.487769 -0.163784 1.402064
-2.471859 -0.147633 1.390727
-2.460555 -0.130191 1.404773
-2.453069 -0.128370 1.380590
-2.445268 -0.119835 1.380267
-2.447557 -0.119948 1.389356
-2.418679 -0.086671 1.399181
-2.433732 -0.107718 1.378328
-2.414941 -0.086423 1.381701
-2.400004 -0.065217 1.396555
-2.387118 -0.049070 1.403851
-2.381963 -0.041176 1.406559
-2.369926 -0.025044 1.393835
-2.382209 -0.045618 1.384166
-2.361269 -0.011822 1.394130
-2.644816 -0.541968 1.580520
-2.635377 -0.531836 1.591069
-2.635468 -0.519313 1.566795
-2.622451 -0.487678 1.569565
-2.625214 -0.513423 1.591738
-2.241937 0.199064 1.695863
-2.218019 0.215198 1.697582
-2.216591 0.219387 1.712757
-2.172530 0.246321 1.712850
-2.165331 0.252915 1.721592
-2.163840 0.248668 1.699021
-2.139493 0.268621 1.713915
-2.118918 0.282622 1.711989
-2.130079 0.277124 1.720593
-2.098224 0.295060 1.705242
-2.077057 0.309089 1.703671
-2.085020 0.303448 1.703602
-2.049853 0.327142 1.696812
-2.043501 0.333744 1.702033
-2.031351 0.343535 1.699633
-2.002768 0.370819 1.704884
-1.995462 0.376364 1.698982
-2.003817 0.366101 1.690557
-1.970819 0.403490 1.717403
-1.966069 0.406478 1.709588
-1.966224 0.404952 1.698534
-1.942041 0.429510 1.715422
-1.933740 0.434927 1.695066
-1.494918 1.175395 1.861851
-1.483507 1.188792 1.855947
-1.463528 1.204688 1.868798
-1.462170 1.211220 1.848824
-1.434010 1.228633 1.873165
-1.441615 1.227269 1.852937
-2.027502 0.419745 1.985641
-2.039041 0.411283 1.983743
-1.998744 0.441297 1.999419
-1.989472 0.445494 1.973081
-1.670780 0.989423 2.049304
-1.685540 0.966372 2.044400
-1.666667 0.998852 2.064160
-1.654478 1.012526 2.048364
-1.637061 1.035782 2.039860
-1.609837 1.066933 2.052216
-1.584409 1.094141 2.041831
-1.591654 1.084496 2.066836
-1.561711 1.109905 2.064609
-1.554958 1.118732 2.042719
-1.551260 1.118676 2.055755
-1.534001 1.127503 2.066634
-1.534832 1.130600 2.051436
-1.509444 1.146386 2.050173
-1.494711 1.157788 2.046359
-1.489444 1.160547 2.049514
-1.505759 1.151114 2.042064
-1.503367 1.148112 2.058408
-1.470566 1.169984 2.064634
-1.453595 1.186491 2.057204
-1.467078 1.178996 2.043427
-1.436343 1.209157 2.036059
-1.416698 1.221252 2.063729
-1.429948 1.211012 2.051435
-1.833533 0.730949 2.086414
-1.830060 0.722913 2.080101
-1.842179 0.740884 2.096633
-1.815845 0.738668 2.068321
-1.819923 0.796099 2.086177
-1.818110 0.830967 2.091256
-1.803701 0.826867 2.077825
-1.798314 0.819406 2.071490
-1.808875 0.860816 2.095952
-1.797451 0.842830 2.078598
-1.785406 0.842367 2.067379
-1.800266 0.864711 2.091562
-1.776832 0.894105 2.093582
-1.776402 0.865256 2.069975
-1.790786 0.870612 2.088586
-1.762093 0.904048 2.090543
-1.744930 0.919501 2.090573
-1.750793 0.901959 2.075136
-1.704017 0.957428 2.079508
-1.719816 0.941045 2.086360
-1.601903 1.175825 2.260402
-1.610463 1.195334 2.266997
-1.594489 1.198771 2.270211
-1.550921 1.173442 2.257790
-1.523612 1.177306 2.255280
-1.542750 1.187900 2.265182
-1.569013 1.181608 2.264290
-1.513336 1.196504 2.265002
-1.532610 1.203622 2.272359
-1.527777 1.183891 2.259957
-1.616452 1.223484 2.274114
-1.623130 1.210023 2.270240
-1.594164 1.227653 2.279932
-1.625793 1.270327 2.274738
-1.579194 1.248022 2.286145
-1.600091 1.269417 2.282192
-1.552964 1.222926 2.281534
-1.532655 1.226063 2.283459
-1.603106 1.279063 2.279969
-1.588385 1.276816 2.284756
-1.611640 1.315376 2.269762
-1.576380 1.315983 2.282018
-1.586816 1.304557 2.280845
-1.569196 1.316815 2.284714
-2.077663 0.470931 -0.509210
-2.092880 0.461095 -0.522600
-2.055272 0.507359 -0.513918
-2.048401 0.532277 -0.526237
-2.033245 0.543090 -0.506852
-2.024607 0.590530 -0.528178
-2.022444 0.601772 -0.534352
-2.628489 -0.184715 -0.482690
-2.609878 -0.157918 -0.480117
-2.619133 -0.167714 -0.491931
-2.588930 -0.120236 -0.503790
-2.597859 -0.137130 -0.489671
-2.562707 -0.086244 -0.492948
-2.570310 -0.097338 -0.488363
-2.554581 -0.074293 -0.499836
-2.551069 -0.077071 -0.477065
-2.534001 -0.059359 -0.476385
-2.542913 -0.062835 -0.491280
-2.662903 -0.238592 -0.456988
-2.644551 -0.216942 -0.453727
-2.653306 -0.224888 -0.462816
-2.708101 -0.297585 -0.411747
-2.706791 -0.292966 -0.422261
-2.684033 -0.267947 -0.431464
-2.676189 -0.260992 -0.426566
-2.652746 -0.237321 -0.417922
-2.646405 -0.226952 -0.424718
-2.864980 -0.511380 -0.289320
-2.838236 -0.488605 -0.300601
-2.839942 -0.481657 -0.311361
-2.810418 -0.465948 -0.304925
-2.811774 -0.478614 -0.290324
-2.824802 -0.485051 -0.294881
-2.774621 -0.440591 -0.291124
-2.780881 -0.448044 -0.290924
-2.784683 -0.439483 -0.309450
-2.784313 -0.437003 -0.312723
-2.764241 -0.416898 -0.309050
-2.491772 -0.051470 -0.204745
-2.505656 -0.062586 -0.198335
-2.508684 -0.061011 -0.219643
-2.461061 -0.029449 -0.220204
-2.480929 -0.043078 -0.210130
-2.437720 -0.017197 -0.203074
-2.421317 -0.007045 -0.206032
-2.412585 -0.001798 -0.200378
-2.358887 0.040699 -0.208430
-2.362878 0.037407 -0.193950
-2.340171 0.060850 -0.196261
-2.327742 0.075773 -0.196032
-2.346848 0.052121 -0.221474
-2.313148 0.107631 -0.210457
-2.321256 0.085705 -0.210738
-2.311672 0.116688 -0.201242
-2.303448 0.152439 -0.195311
-2.301535 0.155367 -0.206508
-2.295613 0.174265 -0.199905
-2.283419 0.198747 -0.210214
-2.292318 0.181766 -0.195897
-2.996678 -0.810368 -0.108044
-3.004326 -0.808802 -0.119988
-2.963631 -0.774076 -0.106724
-2.978324 -0.778503 -0.122627
-2.952503 -0.761161 -0.108418
-2.927542 -0.738038 -0.101807
-2.942827 -0.753065 -0.104793
-2.932006 -0.730144 -0.123187
-2.902818 -0.708024 -0.106873
-2.910591 -0.704286 -0.128171
-2.877218 -0.676260 -0.113728
-2.866456 -0.663944 -0.113743
-2.868800 -0.668148 -0.110491
-2.851662 -0.645476 -0.118764
-2.856968 -0.656807 -0.107158
-2.831007 -0.629342 -0.103377
-2.845599 -0.639667 -0.116546
-2.820830 -0.617632 -0.104399
-2.803536 -0.598526 -0.102627
-2.803608 -0.593187 -0.116133
-2.775487 -0.557301 -0.118912
-2.786807 -0.578295 -0.101943
-1.885256 0.575509 -0.049016
-1.863327 0.606003 -0.062282
-1.875797 0.591379 -0.041922
-1.848831 0.633770 -0.059112
-1.832033 0.671732 -0.060204
-1.840303 0.652163 -0.062622
-1.825455 0.685368 -0.063575
-1.816203 0.701970 -0.047320
-1.821607 0.692852 -0.046224
-1.804065 0.720849 -0.040242
-1.807471 0.716367 -0.050177
-1.776028 0.766327 -0.046519
-1.781202 0.760313 -0.064627
-1.773186 0.773410 -0.061897
-1.763700 0.786686 -0.039459
-1.744169 0.829852 -0.062259
-1.754930 0.806372 -0.057559
-1.732289 0.858283 -0.060656
-1.722882 0.887763 -0.059347
-1.718617 0.912543 -0.066537
-1.715677 0.917472 -0.039766
-1.714407 0.951679 -0.059825
-1.715091 0.937760 -0.052445
-1.714159 0.975657 -0.043397
-1.713938 0.960664 -0.058706
-1.714519 0.996550 -0.046003
-1.711135 1.040036 -0.039700
-1.712146 1.033658 -0.051219
-1.708426 1.054162 -0.036018
-1.705205 1.075718 -0.062748
-1.686212 1.113037 -0.046175
-1.676486 1.134460 -0.054444
-1.680424 1.133468 -0.062785
-1.657460 1.146100 -0.037430
-1.672254 1.147527 -0.064896
-1.648309 1.166051 -0.046336
-1.660802 1.153151 -0.051839
-1.641457 1.200911 -0.063781
-1.634934 1.196103 -0.049769
-1.626384 1.208158 -0.038259
-2.937712 -0.789135 -0.031119
-2.919903 -0.771497 -0.014200
-2.905768 -0.750958 -0.019396
-2.900741 -0.740748 -0.028296
-2.912038 -0.755267 -0.028771
-2.913760 -0.756696 -0.030539
-2.878150 -0.714381 -0.017513
-2.887936 -0.730955 -0.007913
-2.862621 -0.690309 -0.027156
-2.867482 -0.699118 -0.017123
-2.853830 -0.681590 -0.013521
-2.831615 -0.654109 -0.011462
-2.842046 -0.665539 -0.019104
-2.805241 -0.620356 -0.014803
-2.803555 -0.619760 -0.005770
-2.784991 -0.592829 -0.013705
-2.787571 -0.595567 -0.031979
-2.772089 -0.570241 -0.011786
-2.510083 -0.155113 0.082542
-2.493910 -0.111428 0.080760
-2.504203 -0.138408 0.088700
-2.482555 -0.085039 0.072127
-2.491997 -0.106899 0.084335
-2.473960 -0.068993 0.058985
-2.472506 -0.064400 0.077941
-2.452492 -0.030090 0.077166
-2.436886 -0.009724 0.063057
-2.425168 0.006953 0.066913
-2.409523 0.031630 0.077362
-2.415106 0.022793 0.078411
-2.392239 0.060491 0.088339
-2.397455 0.051349 0.080584
-2.372193 0.091207 0.081779
-2.374772 0.087582 0.081068
-2.367594 0.097018 0.059244
-2.336360 0.134981 0.059143
-2.351513 0.118466 0.089881
-2.306653 0.163358 0.071657
-2.322489 0.149299 0.086786
-2.263598 0.196859 0.064369
-2.280780 0.183858 0.077640
-2.260607 0.199077 0.061010
-2.240963 0.211748 0.069172
-2.235567 0.214688 0.087893
-2.204352 0.235031 0.069306
-2.223035 0.222898 0.081020
-2.171415 0.255117 0.067469
-2.187646 0.245354 0.063862
-2.155542 0.264981 0.080332
-2.160502 0.261987 0.074716
-2.762227 -0.560959 0.166515
-2.130138 0.288853 0.193031
-2.114115 0.305103 0.214873
-2.119060 0.299826 0.208467
-2.096857 0.319538 0.196193
-2.102809 0.315719 0.214663
-2.075609 0.345008 0.213514
-2.070183 0.349905 0.199434
-2.042475 0.389439 0.185829
-2.046286 0.383849 0.188089
-2.027749 0.415774 0.200199
-2.037318 0.398817 0.198315
-2.013886 0.442442 0.203775
-2.016110 0.436374 0.187502
-2.007673 0.455894 0.207194
-2.929441 -0.812449 0.256726
-2.895753 -0.767875 0.262707
-2.911628 -0.791229 0.251112
-2.915529 -0.789286 0.269630
-2.880103 -0.753445 0.250218
-2.860492 -0.724872 0.259348
-2.863732 -0.731544 0.253242
-2.853055 -0.711581 0.267310
-2.843644 -0.700581 0.258452
-1.733070 0.975629 0.316949
-1.713032 1.009147 0.334928
-1.723018 0.991295 0.320718
-1.702918 1.027509 0.334293
-1.703549 1.025717 0.317974
-1.683935 1.068381 0.337804
-1.690577 1.053440 0.327146
-1.674734 1.092756 0.324138
-1.660089 1.138427 0.310803
-1.662650 1.125230 0.333530
-1.649515 1.162215 0.324799
-1.654181 1.152730 0.317002
-1.638524 1.185215 0.333773
-1.634141 1.196253 0.321318
-1.619757 1.225855 0.326571
-1.618327 1.231554 0.312190
-1.612048 1.245173 0.312390
-1.609390 1.245822 0.335457
-1.602822 1.265703 0.312871
-1.584717 1.295153 0.322327
-1.594318 1.280601 0.316815
-1.572813 1.315732 0.314786
-1.566941 1.315574 0.330401
-1.569309 1.316330 0.323027
-2.838228 -0.650060 0.352181
-2.842595 -0.646578 0.372566
-2.829378 -0.637154 0.359401
-2.812457 -0.616041 0.365691
-2.820965 -0.626132 0.364478
-2.783587 -0.580333 0.358041
-2.763950 -0.555774 0.343557
-2.779255 -0.574570 0.357398
-2.760809 -0.549669 0.367093
-2.007637 0.472675 0.468544
-1.993422 0.512129 0.477250
-2.000340 0.503720 0.491713
-1.987843 0.522423 0.471827
-1.984213 0.529727 0.467926
-1.968999 0.573582 0.472752
-1.972389 0.563153 0.470537
-1.976073 0.563261 0.496848
-1.954105 0.609256 0.470797
-1.960799 0.592278 0.466858
-1.948107 0.620387 0.484877
-1.939388 0.633636 0.495447
-1.940246 0.636818 0.468057
-1.934138 0.647563 0.468673
-1.892690 0.703252 0.490763
-1.911199 0.682051 0.474834
-1.869980 0.733428 0.482458
-1.878245 0.725851 0.468754
-1.854594 0.752185 0.485188
-1.866799 0.738771 0.473183
-1.851331 0.755163 0.496785
-2.657475 -0.312566 0.548278
-2.661703 -0.322693 0.549825
-2.638710 -0.275874 0.554848
-2.645250 -0.286930 0.546788
-2.632734 -0.266426 0.550907
-2.618938 -0.248772 0.555442
-2.625401 -0.256034 0.539769
-2.587677 -0.209097 0.553413
-2.599913 -0.223533 0.542641
-2.578308 -0.196942 0.550009
-2.566911 -0.182289 0.553419
-2.574061 -0.191878 0.553710
-2.544960 -0.153099 0.559182
-2.521979 -0.124766 0.559355
-2.523720 -0.127414 0.544802
-2.508863 -0.109902 0.539481
-2.504524 -0.104578 0.546840
-2.489712 -0.087241 0.549761
-2.458242 -0.046372 0.557730
-2.468028 -0.059668 0.553133
-2.451372 -0.037016 0.543522
-2.441109 -0.017867 0.560109
-2.425389 0.006556 0.536769
-2.434042 -0.009168 0.534981
-2.410407 0.038219 0.550895
-2.388970 0.078157 0.540157
-2.397757 0.062624 0.548983
-2.376006 0.107266 0.549317
-2.364637 0.126970 0.550273
-2.357380 0.140020 0.553540
-2.343146 0.159052 0.559102
-2.347383 0.159130 0.537439
-2.324941 0.183194 0.559490
-2.317712 0.199454 0.538693
-2.295086 0.230597 0.544227
-2.274177 0.255040 0.547611
-2.273138 0.254896 0.559140
-3.024189 -0.804177 0.573307
-3.031064 -0.817270 0.578012
-3.004107 -0.768401 0.582674
-3.013822 -0.785145 0.584221
-2.991246 -0.745248 0.573266
-2.992028 -0.746129 0.568785
-2.965589 -0.706576 0.583522
-2.974380 -0.720034 0.575470
-2.956572 -0.695000 0.569743
-2.944103 -0.679577 0.577898
-2.923848 -0.659231 0.589689
-2.934634 -0.670203 0.563325
-2.918210 -0.654291 0.591051
-2.898656 -0.638499 0.574197
-2.984980 -0.807920 0.901597
-2.954434 -0.771138 0.886008
-2.967986 -0.786923 0.880191
-2.951285 -0.767502 0.886093
-2.925262 -0.739049 0.894680
-2.940095 -0.755138 0.879610
-2.651942 -0.289444 0.993451
-2.622846 -0.251567 0.993657
-2.611399 -0.234859 0.979049
-2.587051 -0.211242 0.992989
-2.606611 -0.232808 0.991213
-2.567838 -0.190561 0.993047
-2.558789 -0.176138 0.970367
-2.552988 -0.170342 0.971028
-2.520134 -0.140422 0.989183
-2.529679 -0.145855 0.973041
-2.492558 -0.114126 0.999187
-2.510587 -0.125234 0.973319
-2.490758 -0.103074 0.973437
-2.486237 -0.105030 0.992705
-2.467859 -0.083520 0.991255
-2.459463 -0.067508 0.975107
-2.960502 -0.803824 1.037752
-2.964735 -0.816388 1.042944
-2.955061 -0.795948 1.043941
-2.950549 -0.786408 1.043544
-2.931881 -0.750706 1.047861
-2.932089 -0.755922 1.058885
-2.906801 -0.711178 1.048716
-2.914399 -0.722970 1.048647
-2.879039 -0.673439 1.048139
-2.083643 0.400530 1.069209
-2.075804 0.402454 1.090767
-2.065636 0.413883 1.089102
-2.046337 0.439459 1.085086
-2.041317 0.450104 1.080333
-2.930251 -0.802368 1.140227
-2.938663 -0.815910 1.136621
-2.929676 -0.798269 1.132219
-2.918292 -0.788742 1.155814
-2.920348 -0.777917 1.127402
-2.897542 -0.750453 1.154959
-2.907696 -0.751784 1.127822
-2.889884 -0.713975 1.127221
-2.885383 -0.711294 1.135340
-2.868332 -0.686522 1.143115
-2.874216 -0.701753 1.152913
-2.847529 -0.651053 1.138352
-2.854157 -0.658383 1.132373
-2.833474 -0.629096 1.132194
-2.836079 -0.637616 1.146465
-2.821775 -0.611325 1.126200
-2.509737 -0.202880 1.237316
-2.493348 -0.186082 1.238518
-2.499508 -0.189546 1.221498
-2.506558 -0.202515 1.248464
-2.455024 -0.146030 1.234274
-2.470644 -0.162321 1.228458
-2.465294 -0.155719 1.220262
-2.427550 -0.111370 1.229568
-2.449379 -0.139376 1.236749
-2.423492 -0.105423 1.246278
-2.409408 -0.086576 1.237719
-2.396597 -0.065588 1.228754
-2.394666 -0.062486 1.241126
-2.369558 -0.015055 1.249879
-2.376097 -0.022620 1.223023
-2.359035 0.010672 1.234997
-2.372049 -0.013266 1.220123
-2.357127 0.017362 1.227807
-2.347415 0.034927 1.232116
-2.342259 0.038808 1.248634
-2.326986 0.067273 1.238569
-2.337354 0.050529 1.240877
-2.321860 0.077198 1.230963
-2.317520 0.083994 1.226551
-2.268787 0.139436 1.223399
-2.275543 0.131640 1.240015
-2.758602 -0.583091 1.257770
-2.763013 -0.596758 1.271421
-2.742210 -0.557510 1.262045
-2.752193 -0.570973 1.254806
-2.889532 -0.804931 1.395750
-2.895654 -0.815396 1.405876
-2.887907 -0.802818 1.398902
-2.873996 -0.783881 1.389955
-2.885003 -0.798319 1.392477
-2.844754 -0.745567 1.397043
-2.856339 -0.761030 1.393462
-2.829104 -0.722116 1.378114
-2.816202 -0.707688 1.397985
-2.822504 -0.713650 1.385800
-2.806130 -0.691979 1.382939
-2.813018 -0.703456 1.396867
-2.774935 -0.653113 1.392755
-2.792207 -0.673320 1.379946
-2.750363 -0.617619 1.401695
-2.739482 -0.598227 1.402304
-2.743732 -0.599125 1.381421
-2.723681 -0.563841 1.382098
-2.484049 -0.141830 1.448644
-2.507015 -0.168161 1.450961
-2.484954 -0.134779 1.469512
-2.471250 -0.127904 1.448173
-2.426436 -0.081265 1.445546
-2.442502 -0.097062 1.447522
-2.448286 -0.103029 1.447604
-2.424781 -0.075581 1.456701
-2.410012 -0.060116 1.451525
-2.389562 -0.036805 1.447421
-2.378102 -0.020049 1.447646
-2.361284 0.008443 1.448513
-2.379585 -0.010538 1.468634
-2.357875 0.019384 1.457377
-2.347077 0.045015 1.452378
-2.355522 0.022269 1.453573
-2.342637 0.059712 1.468980
-2.338150 0.071484 1.445598
-2.301485 0.103427 1.449202
-2.316977 0.094942 1.457679
-2.292749 0.108498 1.443749
-2.280653 0.114877 1.468827
-2.275015 0.114429 1.452345
-2.240528 0.140839 1.447653
-2.253763 0.128697 1.455537
-2.216981 0.172696 1.450354
-2.224391 0.163297 1.455178
-2.201090 0.189305 1.465351
-2.211561 0.178527 1.462201
-2.197895 0.192483 1.469087
-2.179331 0.210388 1.444552
-2.160444 0.224293 1.465128
-2.152243 0.232235 1.440777
-2.115159 0.258181 1.455042
-2.133118 0.245189 1.454532
-2.078460 0.288215 1.464597
-2.082508 0.284807 1.462461
-2.068274 0.297180 1.454117
-2.073391 0.292273 1.455211
-2.047758 0.319378 1.444948
-2.046870 0.318815 1.470439
-2.037816 0.330194 1.453137
-2.627391 -0.467013 1.542001
-2.625446 -0.450030 1.535588
-2.616985 -0.443302 1.563522
-2.619671 -0.414287 1.534840
-2.614935 -0.413643 1.561167
-2.615301 -0.384897 1.536361
-2.613855 -0.378559 1.553141
-2.609871 -0.335457 1.547266
-2.611564 -0.355752 1.540848
-2.604001 -0.285961 1.554056
-2.604785 -0.293298 1.551626
-2.593344 -0.236705 1.563877
-2.597485 -0.264394 1.535661
-2.583345 -0.219794 1.555607
-2.587146 -0.226559 1.550570
-2.547875 -0.180975 1.539248
-2.551518 -0.184925 1.535320
-2.540355 -0.172119 1.545035
-2.535891 -0.164360 1.562950
-2.533404 -0.165090 1.546690
-1.865825 0.506730 1.579373
-1.828630 0.532475 1.587441
-1.830163 0.546050 1.565190
-1.839050 0.524692 1.586443
-1.819257 0.535053 1.595037
-1.810111 0.554469 1.578600
-1.795289 0.569267 1.579509
-1.782599 0.571894 1.595961
-1.765544 0.611000 1.584050
-1.775105 0.601074 1.576046
-1.763537 0.618753 1.579035
-1.759604 0.618567 1.587099
-1.736649 0.670364 1.571655
-1.738867 0.664502 1.574755
-1.718570 0.692904 1.583287
-1.724660 0.686877 1.576851
-1.725031 0.678861 1.589938
-1.711492 0.713035 1.567061
-1.690711 0.737959 1.576572
-1.677831 0.747744 1.593852
-1.686027 0.739966 1.586044
-1.678686 0.750546 1.584349
-1.680805 0.754705 1.567558
-1.643797 0.793712 1.585991
-1.661961 0.771729 1.589372
-1.617903 0.820630 1.592384
-1.633287 0.805787 1.578697
-1.583747 0.857551 1.582456
-1.596384 0.844527 1.592945
-1.562316 0.885382 1.580801
-1.550146 0.914877 1.593749
-1.544643 0.918881 1.578828
-1.536118 0.941356 1.573251
-2.364950 0.102756 1.723265
-2.336656 0.130674 1.727980
-2.320268 0.141736 1.727051
-2.298407 0.159498 1.727909
-2.274002 0.185420 1.741817
-2.271824 0.182843 1.724458
-2.258177 0.195135 1.726703
-2.207932 0.254846 1.850827
-2.167681 0.285775 1.875593
-2.161410 0.290603 1.860764
-2.164077 0.289321 1.875941
-2.140465 0.308696 1.858846
-2.149053 0.301830 1.866121
-2.135147 0.312634 1.852911
-2.117959 0.332741 1.875453
-2.107937 0.333492 1.848787
-2.077821 0.360804 1.870902
-2.102081 0.340429 1.857937
-2.094382 0.344203 1.853014
-2.058332 0.368540 1.857028
-2.043338 0.382710 1.878421
-2.033915 0.380800 1.850205
-1.986941 0.414139 1.869670
-1.998809 0.405071 1.865165
-1.971133 0.422451 1.862733
-1.950225 0.433960 1.851599
-1.938429 0.444577 1.855913
-1.805868 0.589517 1.934908
-1.808645 0.582330 1.929277
-1.786274 0.606565 1.915685
-1.777764 0.637556 1.931286
-1.782431 0.623937 1.928009
-1.768028 0.673604 1.934906
-1.771235 0.658945 1.932984
-1.767587 0.652609 1.920083
-1.762079 0.704108 1.935716
-1.764045 0.681407 1.929581
-1.755991 0.690750 1.914532
-1.759028 0.694526 1.923938
-1.747540 0.734578 1.916109
-1.742295 0.769569 1.929713
-1.747280 0.752929 1.928706
-1.732794 0.800683 1.931293
-1.730938 0.796517 1.924947
-1.722938 0.798331 1.910684
-1.730732 0.814806 1.937063
-1.719211 0.820440 1.919497
-1.721728 0.810632 1.917208
-1.706075 0.860267 1.925813
-1.716788 0.832711 1.923798
-1.706630 0.867797 1.935478
-1.690967 0.881462 1.910837
-1.680462 0.918913 1.927387
-1.679570 0.909488 1.910333
-1.667071 0.948197 1.932914
-1.666452 0.976243 1.990740
-1.657980 0.985576 1.979045
-1.645312 1.014135 1.998437
-1.637316 1.018255 1.974996
-1.628816 1.030833 1.974153
-1.634129 1.032259 2.000806
-1.604493 1.071246 1.998944
-1.606353 1.062667 1.973046
-1.591498 1.087221 2.000602
-1.589763 1.084431 1.976821
-1.545182 1.130503 2.004158
-1.532866 1.138018 1.978905
-1.529308 1.141548 2.001277
-1.514062 1.151978 1.993608
-1.517171 1.149728 1.981247
-1.478152 1.177480 2.001667
-1.500525 1.161878 1.986080
-1.447208 1.204699 1.995802
-1.458807 1.194245 2.000639
-1.443123 1.208822 1.991410
-1.425243 1.226935 2.003687
-2.116468 0.694146 -0.855187
-2.238933 0.485745 -0.747959
-2.246229 0.475671 -0.741026
-2.203622 0.513910 -0.734088
-2.214588 0.509519 -0.746576
-2.229206 0.497150 -0.752374
-2.192658 0.542794 -0.754261
-2.194820 0.535520 -0.748057
-2.190472 0.528484 -0.729256
-2.175750 0.560509 -0.743480
-2.175057 0.551741 -0.728796
-2.161937 0.572854 -0.730898
-2.152524 0.586691 -0.731718
-2.136774 0.618625 -0.749682
-2.124460 0.631562 -0.739918
-2.113492 0.640952 -0.726133
-2.107235 0.665813 -0.754832
-2.116455 0.646331 -0.746159
-2.102923 0.662520 -0.734256
-2.103992 0.671140 -0.754817
-2.096929 0.683034 -0.750618
-2.088024 0.688221 -0.726375
-2.074867 0.727386 -0.736176
-2.073626 0.741933 -0.748039
-2.069056 0.762895 -0.750217
-2.071913 0.752268 -0.751411
-2.059882 0.796622 -0.743788
-2.062135 0.789411 -0.745318
-2.053025 0.820813 -0.735229
-2.056962 0.808700 -0.741206
-2.494369 -0.080886 -0.059443
-2.503549 -0.091697 -0.054271
-2.502574 -0.095369 -0.037941
-2.482302 -0.067520 -0.064442
-2.468075 -0.053127 -0.038868
-2.465748 -0.050251 -0.063571
-2.456346 -0.039801 -0.038606
-2.455045 -0.038976 -0.065748
-2.435899 -0.016374 -0.049019
-2.447044 -0.029363 -0.048230
-2.420322 0.004478 -0.041389
-2.405770 0.023361 -0.051614
-2.394360 0.037636 -0.059789
-2.365441 0.078630 -0.050678
-2.381509 0.060745 -0.037031
-2.360200 0.092191 -0.039454
-2.349684 0.103996 -0.055074
-2.352110 0.105768 -0.040264
-2.339139 0.126973 -0.045902
-2.343847 0.118413 -0.048074
-2.301878 0.173698 -0.063343
-2.318767 0.154648 -0.044560
-2.293234 0.181475 -0.061803
-2.267945 0.198596 -0.038998
-2.277191 0.193744 -0.058119
-2.269077 0.199617 -0.053885
-2.242432 0.220073 -0.055819
-2.234501 0.227318 -0.064920
-2.224068 0.232616 -0.051558
-2.202555 0.248994 -0.063936
-2.196831 0.252403 -0.062641
-2.115626 0.298974 -0.015849
-2.133535 0.285730 -0.030218
-2.113393 0.301074 -0.033915
-2.091504 0.320476 -0.031439
-2.094147 0.318243 -0.014305
-2.079272 0.333186 -0.006368
-2.064655 0.350080 -0.027785
-2.043278 0.377556 -0.029921
-2.053630 0.363502 -0.029665
-2.017356 0.412396 -0.016006
-2.026731 0.399301 -0.030140
-1.999508 0.433628 -0.007847
-1.994298 0.438881 -0.009373
-1.997074 0.433577 -0.030771
-2.750875 -0.545991 0.191605
-2.720991 -0.495949 0.193328
-2.729549 -0.512798 0.209105
-2.704781 -0.471384 0.210155
-2.697483 -0.458164 0.187827
-2.684326 -0.435324 0.201508
-2.673599 -0.415980 0.194749
-2.671859 -0.412381 0.212153
-2.650896 -0.365213 0.194771
-2.660181 -0.385950 0.199115
-2.642618 -0.346807 0.204561
-2.624545 -0.312621 0.188876
-2.630143 -0.318619 0.205985
-2.934033 -0.801640 0.293031
-2.940405 -0.817732 0.279868
-2.934013 -0.792624 0.309642
-2.918380 -0.787867 0.281134
-2.920328 -0.784398 0.292008
-2.893821 -0.752680 0.290617
-2.866043 -0.712574 0.300372
-2.875802 -0.729623 0.291768
-2.845976 -0.694955 0.282853
-2.847146 -0.689937 0.296428
-2.670825 -0.406648 0.350295
-2.662916 -0.388857 0.363043
-2.647176 -0.337815 0.344611
-2.647552 -0.340727 0.367178
-2.642477 -0.322449 0.366356
-2.643342 -0.325101 0.357231
-2.621849 -0.275063 0.346964
-2.630016 -0.289499 0.352359
-2.616577 -0.263655 0.365510
-2.597760 -0.236039 0.347079
-2.585098 -0.217156 0.349716
-2.568753 -0.190686 0.360180
-2.551083 -0.156967 0.370772
-2.549149 -0.154838 0.344360
-2.543092 -0.140354 0.372603
-2.531070 -0.116796 0.358067
-2.537107 -0.129016 0.348793
-2.516725 -0.091759 0.353458
-2.524780 -0.105354 0.356391
-2.508348 -0.078624 0.358094
-2.483746 -0.048738 0.366968
-2.484310 -0.045965 0.344293
-2.469002 -0.031019 0.360347
-2.428877 0.012512 0.369355
-2.449213 -0.008562 0.356911
-2.422916 0.019235 0.369292
-2.403190 0.042657 0.352290
-2.416188 0.027441 0.357182
-2.398580 0.048376 0.354247
-2.378641 0.074854 0.349819
-2.381319 0.072801 0.361149
-2.366266 0.092639 0.358021
-2.352725 0.110474 0.352014
-2.337182 0.129061 0.351939
-2.342917 0.124012 0.359284
-1.994939 0.480004 0.420677
-1.998716 0.466473 0.412795
-1.990851 0.496684 0.434968
-1.985223 0.504102 0.415598
-1.981587 0.510410 0.404734
-1.975407 0.530419 0.404305
-1.962915 0.581477 0.426245
-1.971026 0.551944 0.427225
-1.961527 0.587598 0.431086
-1.962520 0.585064 0.411852
-1.949062 0.632302 0.422279
-1.941266 0.648161 0.427619
-1.919684 0.685507 0.417376
-1.925551 0.676567 0.425268
-1.916291 0.686057 0.435074
-1.890421 0.717996 0.418265
-1.879178 0.731158 0.415170
-1.862643 0.750628 0.415179
-1.833490 0.798050 0.408943
-1.846048 0.770050 0.429533
-1.823853 0.819456 0.429520
-1.827114 0.808203 0.433179
-1.812450 0.856040 0.417843
-1.815981 0.842529 0.433404
-1.793127 0.891825 0.419711
-1.803906 0.873046 0.425185
-1.782483 0.907268 0.424600
-1.771908 0.922018 0.431715
-1.788094 0.899363 0.418404
-1.754385 0.947541 0.422872
-1.759327 0.940718 0.406327
-2.018436 0.477791 0.516281
-2.023848 0.458992 0.504301
-2.010049 0.491659 0.510153
-1.992458 0.537794 0.520833
-1.994482 0.528069 0.509123
-1.970972 0.576440 0.506428
-1.971653 0.577140 0.524022
-1.965496 0.589425 0.522978
-1.959172 0.599389 0.499463
-1.948789 0.617536 0.509114
-1.929538 0.641748 0.524897
-1.946010 0.621719 0.511120
-1.917151 0.659052 0.520271
-1.927657 0.645274 0.519662
-1.914386 0.662516 0.522240
-1.887319 0.704216 0.513127
-1.894416 0.697834 0.501360
-1.862254 0.737048 0.514609
-1.862507 0.735267 0.520253
-1.874312 0.725586 0.498638
-1.843471 0.759039 0.527160
-1.851735 0.748694 0.522697
-2.769592 -0.527570 0.678155
-2.771920 -0.531087 0.682577
-2.736799 -0.488571 0.669764
-2.751539 -0.507119 0.681479
-2.718706 -0.464205 0.708254
-2.719871 -0.466832 0.711003
-2.706337 -0.439681 0.710380
-2.696269 -0.415703 0.690626
-2.697065 -0.418008 0.700965
-2.672127 -0.363644 0.703006
-2.684063 -0.389545 0.691581
-2.663138 -0.344968 0.696760
-2.649386 -0.313292 0.697913
-2.636729 -0.283217 0.697656
-2.618096 -0.244196 0.697969
-2.617064 -0.239436 0.716227
-2.589524 -0.204093 0.694785
-2.604329 -0.219609 0.717333
-2.586285 -0.198512 0.707062
-2.573136 -0.182971 0.713525
-2.551949 -0.151331 0.686993
-2.551307 -0.147388 0.711649
-2.536041 -0.119172 0.705071
-2.537399 -0.120815 0.712072
-2.518855 -0.086354 0.698998
-2.525993 -0.100669 0.700658
-2.514215 -0.073451 0.711094
-2.507323 -0.059027 0.712738
-2.512317 -0.073312 0.697299
-2.484961 -0.018290 0.713484
-2.493561 -0.034523 0.708714
-2.462842 0.014637 0.716053
-2.475538 -0.012414 0.686574
-2.450904 0.028933 0.710490
-2.446049 0.035052 0.712994
-2.420423 0.063464 0.715237
-2.430685 0.050387 0.694967
-2.684747 -0.397669 0.806657
-2.676187 -0.361868 0.792311
-2.683656 -0.390404 0.787902
-2.671096 -0.346338 0.797158
-2.664829 -0.332538 0.781226
-2.655167 -0.302431 0.788599
-2.664504 -0.327100 0.795916
-2.644663 -0.270315 0.808963
-2.647369 -0.286972 0.787310
-2.617621 -0.240514 0.785092
-2.629109 -0.254859 0.788410
-2.591782 -0.211508 0.809130
-2.599653 -0.218348 0.784073
-2.580920 -0.193825 0.789723
-2.582890 -0.197807 0.796798
-2.552673 -0.144690 0.803636
-2.558452 -0.157269 0.811812
-2.546873 -0.133181 0.807693
-2.540061 -0.118413 0.810796
-2.525070 -0.082573 0.791810
-2.528777 -0.093095 0.811040
-2.513827 -0.060694 0.802287
-2.493221 -0.025843 0.796367
-2.497162 -0.031691 0.792403
-2.482879 -0.010949 0.799820
-2.462571 0.014925 0.799442
-2.476995 -0.001382 0.784465
-2.434575 0.045648 0.803032
-2.420181 0.061425 0.796517
-2.405841 0.075228 0.798667
-2.410429 0.071674 0.792275
-2.391893 0.090301 0.794315
-2.375536 0.082874 0.898479
-2.361221 0.106302 0.886465
-2.330965 0.141215 0.899976
-2.337265 0.133398 0.898324
-2.349537 0.117298 0.896928
-2.331824 0.148886 0.877487
-2.317607 0.157346 0.901522
-2.320561 0.156791 0.892710
-2.295240 0.189262 0.880656
-2.288080 0.194281 0.889794
-2.272865 0.211202 0.884845
-2.247561 0.236503 0.883351
-2.230497 0.254308 0.886731
-2.223587 0.261903 0.891236
-2.226018 0.259529 0.887613
-2.199934 0.287316 0.896989
-2.218623 0.269589 0.880578
-2.190581 0.296070 0.898586
-2.168695 0.317148 0.892331
-2.166862 0.318400 0.876501
-2.163392 0.322912 0.892332
-2.139649 0.352876 0.882311
-2.151761 0.336858 0.891607
-2.122671 0.376081 0.883429
-2.127747 0.369871 0.891486
-2.096285 0.411186 0.877649
-2.100615 0.408662 0.898792
-2.072424 0.444678 0.883852
-2.860291 -0.651806 1.038680
-2.877053 -0.671251 1.050714
-2.857169 -0.648487 1.053040
-2.829036 -0.617948 1.046690
-2.845257 -0.635276 1.047491
-2.814019 -0.600103 1.062909
-2.821817 -0.609713 1.053126
-2.781840 -0.561555 1.054591
-2.787587 -0.571369 1.033047
-2.789139 -0.570791 1.056526
-2.765863 -0.540121 1.090429
-2.755760 -0.524980 1.087296
-2.761261 -0.532440 1.071486
-2.749320 -0.515095 1.084752
-2.722927 -0.468864 1.085926
-2.723019 -0.466672 1.066331
-2.702659 -0.429535 1.079698
-2.711110 -0.448078 1.091632
-2.687989 -0.395027 1.073536
-2.693632 -0.407290 1.070165
-2.681115 -0.377406 1.071589
-2.658610 -0.335957 1.084336
-2.669050 -0.348104 1.066646
-2.641670 -0.303437 1.064404
-2.657550 -0.327175 1.067033
