-5.789654 -0.326567 4.984572
-5.760781 -0.333435 4.974345
-5.797633 -0.290887 4.985952
-5.786810 -0.309736 4.982234
-5.767275 -0.309120 4.974724
-5.667645 0.497920 5.000146
-5.646904 0.499444 4.998128
-5.608059 0.495551 4.994554
-5.582763 0.477031 4.990150
-5.584194 0.480542 4.991047
-5.612634 0.509839 4.999063
-5.572505 0.476517 4.990366
-5.547162 0.477246 4.991287
-5.541707 0.522831 4.998896
-5.542784 0.502980 4.995635
-5.506615 0.478147 4.992322
-5.500675 0.496452 4.994488
-5.482089 0.499071 4.994656
-5.504277 0.503342 4.995274
-5.491775 0.526734 4.999225
-5.513805 0.538019 5.001035
-5.519450 0.532212 4.999839
-5.478979 0.534026 5.001049
-5.458672 0.392678 4.987771
-5.457256 0.399080 4.987996
-5.454321 0.413480 4.988553
-5.434762 0.399169 4.985950
-5.416560 0.408335 4.983882
-5.414000 0.374736 4.977960
-5.458671 0.445718 4.989775
-5.448594 0.431817 4.989071
-5.436012 0.441483 4.988221
-5.464893 0.473820 4.991472
-5.456928 0.454288 4.989976
-5.426729 0.452747 4.988091
-5.425004 0.473418 4.988873
-5.415673 0.425985 4.985337
-5.396015 0.444494 4.981956
-5.394111 0.460320 4.983719
-5.381057 0.449822 4.979190
-5.346485 0.463209 4.976486
-5.334480 0.474026 4.979180
-5.458697 0.493865 4.993280
-5.466274 0.514699 4.997196
-5.460378 0.524571 4.999196
-5.440083 0.522751 4.998922
-5.414979 0.493512 4.991572
-5.395481 0.496330 4.990910
-5.384036 0.520462 4.997126
-5.440672 0.532123 5.001436
-5.387734 0.532756 5.001307
-5.373398 0.535812 5.000771
-5.358501 0.491734 4.986747
-5.340893 0.501011 4.987755
-5.316095 0.482336 4.978980
-5.356071 0.513208 4.992462
-5.335955 0.510016 4.989756
-5.311210 0.528066 4.991977
-5.301146 0.484951 4.977650
-5.290374 0.500308 4.981515
-5.268829 0.496448 4.976678
-5.255102 0.500585 4.976073
-5.292125 0.528819 4.990080
-5.260280 0.511784 4.980592
-5.325625 0.545888 4.998745
-5.316979 0.543179 4.997046
-5.298927 0.553484 4.998413
-5.280481 0.548492 4.994758
-5.281063 0.559909 4.998347
-5.264784 0.575221 4.999534
-5.248434 1.517281 5.033888
-5.250655 1.565317 5.037926
-5.248635 1.638887 5.032004
-5.341612 1.729894 5.044652
-5.311831 1.710860 5.039090
-5.329916 1.732707 5.038498
-5.297389 1.705538 5.035110
-5.276186 1.696545 5.029685
-5.291569 1.709363 5.031281
-5.322455 1.741914 5.033359
-5.468217 0.764857 5.080460
-5.453937 0.769784 5.081131
-5.440472 0.764366 5.076756
-5.420102 0.765003 5.073459
-5.429555 0.781246 5.081545
-5.414260 0.755099 5.068649
-5.398806 0.765649 5.070528
-5.386525 0.751847 5.064393
-5.406970 0.791407 5.080644
-5.380332 0.785541 5.074224
-5.360136 0.742057 5.059621
-5.344609 0.768092 5.063452
-5.347569 0.755817 5.061464
-5.360989 0.777666 5.069238
-5.337501 0.787368 5.065413
-5.367483 0.807780 5.078227
-5.358638 0.822072 5.079159
-5.352483 0.811573 5.073730
-5.334043 0.803973 5.066476
-5.344570 0.847778 5.078601
-5.328635 0.850981 5.069381
-5.318312 0.835584 5.061638
-5.322247 0.879892 5.068275
-5.337612 0.901201 5.079237
-5.317899 0.894901 5.066646
-5.315901 0.899615 5.065814
-5.300303 0.899618 5.056703
-5.323706 0.933214 5.073127
-5.338098 0.946572 5.082942
-5.334074 0.951726 5.081142
-5.320898 0.953442 5.073386
-5.299218 0.936827 5.059529
-5.312461 0.968506 5.070178
-5.298327 0.992459 5.064438
-5.294176 0.981165 5.060523
-5.295326 1.005047 5.065024
-5.282066 1.014714 5.059047
-4.481771 -0.321626 4.694174
-4.454124 -0.338360 4.688880
-4.446710 -0.328390 4.686394
-4.484296 -0.304351 4.694651
-4.461979 -0.307537 4.690731
-4.456644 -0.303129 4.690156
-4.423460 -0.338178 4.679504
-4.412257 -0.316024 4.676043
-4.410812 -0.300063 4.676469
-4.542686 -0.257099 4.700584
-4.504506 -0.284122 4.696810
-4.486161 -0.282531 4.696128
-4.478168 -0.267302 4.697213
-4.440002 -0.265913 4.691351
-4.413697 -0.267767 4.680677
-4.418001 -0.241649 4.687949
-4.406983 -0.259442 4.678931
-4.420626 -0.233634 4.691521
-4.428125 -0.217256 4.700276
-4.419545 -0.198010 4.700215
-4.407333 -0.190929 4.694441
-4.406039 -0.174811 4.697488
-4.403587 -0.170786 4.697083
-4.493534 -0.482818 4.721029
-4.494469 -0.478853 4.721313
-4.486214 -0.459821 4.716555
-4.510336 -0.429446 4.724870
-4.515604 -0.415372 4.724260
-4.501987 -0.423630 4.720143
-4.504941 -0.404275 4.717692
-4.477265 -0.505228 4.709882
-4.463670 -0.475176 4.703473
-4.460480 -0.469372 4.702017
-4.484794 -0.449936 4.715381
-4.460157 -0.434870 4.701605
-4.481369 -0.426304 4.711494
-4.575906 -0.347473 4.726962
-4.553506 -0.371042 4.727004
-4.543826 -0.348067 4.716667
-4.514048 -0.384859 4.716899
-4.535110 -0.378480 4.722740
-4.503963 -0.387540 4.713575
-4.489127 -0.392014 4.708985
-4.521291 -0.367490 4.714831
-4.519991 -0.346245 4.708634
-4.501753 -0.352659 4.704653
-4.575022 -0.334286 4.722856
-4.568126 -0.327396 4.718628
-4.578082 -0.296993 4.716701
-4.568661 -0.292724 4.711762
-4.557874 -0.306616 4.710501
-4.531089 -0.336131 4.709103
-4.537328 -0.295665 4.702140
-4.482049 -0.395986 4.706881
-4.605776 -0.609438 4.747928
-4.704510 -0.234258 4.776896
-4.694346 -0.208616 4.780656
-4.658471 -0.213564 4.763276
-4.685697 -0.202262 4.779254
-4.645865 -0.212811 4.757853
-4.618724 -0.181576 4.757379
-4.649650 -0.174249 4.772496
-4.645971 -0.157607 4.777081
-4.626847 -0.140776 4.777371
-4.608861 -0.134557 4.775130
-4.788694 -0.666655 4.796721
-4.779952 -0.662133 4.794034
-4.807277 -0.633094 4.807163
-4.770908 -0.641096 4.793930
-4.757544 -0.630967 4.790418
-4.780562 -0.600798 4.800673
-4.759869 -0.605850 4.793171
-4.766998 -0.584815 4.797326
-4.751134 -0.613271 4.789847
-4.716589 -0.578800 4.784385
-4.787281 -0.539775 4.807769
-4.772678 -0.539739 4.803749
-4.782827 -0.527498 4.807607
-4.763529 -0.527256 4.803154
-4.748742 -0.554794 4.795405
-4.741197 -0.548859 4.794708
-4.719960 -0.549155 4.790382
-4.713602 -0.540740 4.791154
-4.747606 -0.528045 4.799868
-4.738348 -0.515119 4.801147
-4.669411 -0.536873 4.784783
-4.703096 -0.529993 4.791886
-4.683132 -0.526175 4.789267
-4.675351 -0.517113 4.790210
-4.651396 -0.517078 4.787003
-4.650141 -0.526345 4.784996
-4.641891 -0.530022 4.783475
-4.637288 -0.512488 4.786190
-4.804225 1.361300 4.802341
-4.795999 1.366204 4.801031
-4.770886 1.373251 4.804522
-4.784692 1.374378 4.799641
-4.779091 1.389154 4.798317
-4.763990 1.385599 4.804351
-4.750767 1.401936 4.805659
-4.775990 1.413922 4.793044
-4.782810 1.440115 4.783747
-4.745052 1.425102 4.800388
-4.746245 1.421243 4.801273
-4.740803 1.407230 4.808887
-4.734864 1.458662 4.789754
-4.732889 1.436678 4.800659
-4.711562 1.458544 4.795232
-4.699283 1.432703 4.808340
-4.692780 1.451939 4.801013
-4.686041 1.442519 4.804512
-4.623248 1.406845 4.808740
-4.618198 1.427433 4.805210
-4.631865 1.455216 4.803849
-4.630658 1.433415 4.803561
-4.622732 1.437119 4.803586
-4.938293 1.487127 4.804936
-4.932387 1.514113 4.805512
-4.931146 1.518994 4.805949
-4.897578 1.468779 4.785594
-4.895805 1.484233 4.785637
-4.886611 1.478740 4.783200
-4.918094 1.509820 4.797654
-4.896496 1.491045 4.786169
-4.918266 1.528780 4.801794
-4.895395 1.525629 4.790494
-4.914968 1.552279 4.807495
-4.886766 1.554292 4.796222
-4.889793 1.544796 4.793600
-4.864820 1.564889 4.792842
-4.842764 1.560106 4.784812
-4.832093 1.568201 4.786360
-4.859514 1.592772 4.804118
-4.816088 1.591098 4.793214
-4.843382 1.616437 4.809289
-4.825555 1.599043 4.798055
-4.823287 1.618117 4.805139
-4.756965 1.461984 4.782854
-4.722764 1.484970 4.784585
-4.717875 1.469315 4.790117
-4.811392 -0.597350 4.811832
-4.808590 -0.566113 4.812925
-4.803257 -0.537631 4.811884
-4.795594 -0.520173 4.811310
-4.958573 1.338049 4.834614
-4.932353 1.337779 4.826701
-4.947476 1.327415 4.837117
-4.901842 1.323479 4.832448
-4.879499 1.319350 4.832779
-4.909411 1.335906 4.824376
-4.895696 1.347793 4.814198
-4.884382 1.350280 4.811976
-4.831181 1.321590 4.824711
-4.836555 1.342232 4.812947
-4.820941 1.331704 4.816719
-4.984413 1.362019 4.833966
-4.998739 1.381527 4.835427
-4.987130 1.399822 4.824268
-4.962943 1.363051 4.822711
-4.950272 1.369014 4.814385
-4.973935 1.394993 4.817276
-4.962667 1.396629 4.811316
-4.998964 1.410177 4.831144
-4.980591 1.416240 4.819556
-4.987352 1.442863 4.826399
-4.972040 1.415430 4.814552
-4.922529 1.355798 4.812839
-4.362662 1.672552 4.829462
-4.580576 1.739249 4.823513
-4.514805 1.739743 4.835588
-4.442404 1.732502 4.827780
-4.382594 1.682000 4.836975
-4.431175 1.726138 4.828819
-4.454361 1.739586 4.827282
-5.594994 -0.280955 4.888862
-5.595362 -0.245019 4.890844
-5.583844 -0.249677 4.884176
-5.557805 -0.289895 4.874398
-5.545426 -0.288985 4.869905
-5.546924 -0.264940 4.866266
-5.580332 -0.262593 4.881352
-5.548912 -0.256598 4.866708
-5.566546 -0.232696 4.876408
-5.556780 -0.208720 4.877146
-5.551942 -0.232711 4.868924
-5.572201 -0.205873 4.885777
-5.569408 -0.193191 4.887718
-5.529508 -0.185357 4.873227
-5.506441 -0.181153 4.867435
-5.539641 -0.172974 4.879915
-5.545612 -0.133293 4.891570
-5.530185 -0.132144 4.886426
-5.518394 -0.154503 4.876709
-5.501955 -0.166105 4.869189
-5.494452 -0.155323 4.869216
-5.516529 -0.126398 4.883500
-5.483242 -0.147430 4.867664
-5.512690 -0.114749 4.885291
-5.516092 -0.104629 4.888940
-5.494542 -0.123661 4.876959
-5.501499 -0.097168 4.885885
-5.493804 -0.082834 4.884231
-5.471328 -0.090677 4.874390
-5.491520 -0.045752 4.884240
-5.505136 -0.034458 4.891322
-5.491426 -0.016881 4.885947
-5.497310 -0.007493 4.890169
-5.489128 0.005029 4.890425
-5.480874 0.010148 4.889946
-5.474782 0.012568 4.889585
-5.467101 -0.509087 4.888306
-5.433441 -0.487436 4.876835
-5.440560 -0.508061 4.882158
-5.467348 -0.455804 4.876176
-5.436097 -0.471640 4.874192
-5.421450 -0.472423 4.872374
-5.407227 -0.502685 4.878884
-5.377646 -0.507614 4.883385
-5.398046 -0.462582 4.870492
-5.467931 -0.436395 4.874629
-5.434529 -0.450414 4.870701
-5.424344 -0.439733 4.868659
-5.456793 -0.413739 4.871016
-5.421522 -0.412805 4.866139
-5.403378 -0.450420 4.868693
-5.373874 -0.452763 4.871366
-5.412561 -0.424446 4.866598
-5.348460 -0.505370 4.888498
-5.350083 -0.492807 4.884639
-5.327424 -0.488104 4.888168
-5.350237 -0.475983 4.880586
-5.322832 -0.457193 4.885931
-5.356619 -0.443181 4.873674
-5.316937 -0.429435 4.887335
-5.324778 -0.439093 4.884342
-5.360929 -0.414915 4.867979
-5.341067 -0.413741 4.873450
-5.318874 -0.416591 4.882436
-4.378579 1.268542 4.880832
-4.386299 1.244793 4.870872
-4.394466 1.280724 4.875208
-4.377682 1.292113 4.888446
-4.387070 1.319199 4.890582
-4.410420 1.341068 4.876414
-4.402580 1.349690 4.883608
-4.400812 1.326106 4.881039
-4.419623 1.371472 4.873864
-4.430818 1.370410 4.865126
-4.400780 1.356485 4.886094
-4.420520 1.381924 4.875111
-4.404715 1.394807 4.887380
-4.397492 1.388806 4.891794
-4.433875 1.407949 4.869341
-4.433668 1.439538 4.869252
-4.422469 1.410833 4.876598
-4.429443 1.431389 4.872133
-4.395170 1.416404 4.891916
-4.426863 1.434410 4.873268
-4.420263 1.460009 4.873385
-4.389429 1.446115 4.889553
-4.372558 1.252266 4.880817
-4.375361 1.242570 4.876980
-5.476427 -0.592965 4.910335
-5.471698 -0.604056 4.910298
-5.485843 -0.568370 4.909014
-5.477805 -0.576172 4.907316
-5.509561 -0.555776 4.917551
-5.505764 -0.535107 4.910976
-5.499691 -0.520850 4.903812
-5.518699 -0.509694 4.911586
-5.494318 -0.529809 4.903641
-5.124998 -1.013178 4.916906
-5.105117 -1.018734 4.911414
-5.092434 -1.011013 4.904057
-5.142379 -0.982546 4.915446
-5.120086 -0.993143 4.910468
-5.097274 -0.998079 4.902989
-5.133706 -0.961108 4.913073
-5.125168 -0.967019 4.910002
-5.113911 -0.968005 4.906550
-5.076871 -0.986181 4.893517
-5.147299 0.388619 4.910528
-5.143033 0.408418 4.912918
-5.128586 0.380636 4.905091
-5.107937 0.385102 4.902583
-5.092108 0.383649 4.900742
-5.140810 0.409654 4.912719
-5.130942 0.410159 4.911066
-5.112198 0.394674 4.905081
-5.077781 0.377168 4.897710
-5.069590 0.384039 4.898278
-5.047788 0.374232 4.893870
-5.083066 0.415980 4.906954
-5.065531 0.404437 4.902261
-5.056080 0.410909 4.902786
-5.134718 0.422891 4.914421
-5.090219 0.434507 4.911108
-5.109130 0.453713 4.916581
-5.093857 0.456107 4.915610
-5.086319 0.430024 4.909955
-5.059014 0.447470 4.910349
-5.052023 0.462438 4.914418
-4.547112 1.046078 4.906030
-4.563772 1.049741 4.912058
-4.557373 1.066963 4.901531
-4.539595 1.040365 4.906229
-4.532874 1.049290 4.897492
-4.574984 1.078099 4.904879
-4.574605 1.096301 4.897307
-4.564079 1.094299 4.893109
-5.674085 -0.279339 4.929209
-5.664994 -0.280436 4.924432
-5.662221 -0.282473 4.922903
-5.656421 -0.282940 4.919709
-5.688370 -0.238510 4.937814
-5.670306 -0.241219 4.929366
-5.680202 -0.234977 4.934378
-5.645746 -0.187292 4.929642
-5.643567 -0.142626 4.943335
-5.624880 -0.163029 4.925554
-5.625715 -0.149166 4.929904
-5.605556 -0.139125 4.920619
-5.613756 -0.116902 4.932796
-5.602025 -0.103363 4.929816
-5.609616 -0.095292 4.937042
-5.584062 -0.084879 4.924701
-5.602993 -0.071380 4.940205
-5.588226 -0.002014 4.939718
-5.592170 0.014640 4.943157
-5.565693 -0.063197 4.919536
-5.562633 -0.019819 4.923749
-5.562033 0.000986 4.923915
-5.565377 0.018585 4.927533
-5.550183 0.036833 4.922668
-5.588014 0.104939 4.945278
-5.583289 0.125791 4.945485
-5.570798 0.064550 4.935220
-5.559923 0.084594 4.933948
-5.551108 0.076831 4.929918
-5.533208 0.079386 4.926653
-5.508662 0.091159 4.927513
-5.018822 0.605962 4.943330
-5.024437 0.609019 4.945395
-5.002631 0.604717 4.938377
-4.986800 0.603390 4.934274
-5.011521 0.613814 4.942523
-4.981907 0.624957 4.937310
-4.967513 0.610328 4.932430
-4.969152 0.593124 4.928623
-4.932530 0.610746 4.927640
-4.932758 0.587220 4.923431
-4.945880 0.620565 4.931211
-4.934763 0.626760 4.930532
-5.009352 0.648888 4.946562
-4.992330 0.669983 4.945994
-4.965500 0.657868 4.939600
-4.956610 0.653368 4.937837
-4.948433 0.662490 4.937465
-4.973767 0.683898 4.944250
-4.951575 0.687676 4.940123
-4.942688 0.678890 4.937348
-4.933665 0.676312 4.935165
-4.916968 0.610366 4.924778
-4.903120 0.645568 4.924966
-4.898786 0.656921 4.924277
-4.888851 0.641555 4.919752
-4.923676 0.677550 4.933033
-4.913975 0.693270 4.931059
-4.889399 0.684457 4.923162
-4.927644 0.704891 4.935931
-4.954463 0.726036 4.945251
-4.943192 0.730523 4.942819
-4.924919 0.735294 4.938583
-4.944866 0.751633 4.945715
-4.898290 0.720597 4.929786
-4.887468 0.712201 4.925500
-4.877734 0.694980 4.920235
-4.922150 0.722450 4.936356
-4.905159 0.743574 4.934591
-4.874720 0.744405 4.926550
-4.864977 0.720137 4.919849
-4.866573 0.722897 4.920823
-4.902133 0.774638 4.938270
-4.903167 0.789939 4.939746
-4.894657 0.784650 4.937577
-4.880509 0.799353 4.935540
-4.849095 0.777946 4.924738
-4.843633 0.790356 4.925242
-4.828286 0.780852 4.920396
-5.304452 -1.032732 4.948073
-5.288792 -1.030104 4.947853
-5.221838 -1.038607 4.957413
-5.219831 -1.026281 4.947197
-5.073013 0.657838 4.969151
-5.060853 0.649457 4.963714
-5.059965 0.649139 4.963330
-5.033722 0.641914 4.952544
-5.066251 0.686347 4.972917
-5.042721 0.686174 4.964945
-5.053515 0.718102 4.974166
-5.036647 0.711911 4.968680
-5.042917 0.734699 4.973827
-5.030531 0.665029 4.955878
-5.011962 0.670630 4.951029
-4.994318 0.692688 4.950587
-5.015003 0.699071 4.958354
-5.004993 0.702715 4.955728
-5.021411 0.730049 4.967153
-4.962017 0.747498 4.950171
-5.779554 -0.727844 4.978868
-5.761407 -0.714517 4.977041
-5.756555 -0.684476 4.979663
-5.741436 -0.687968 4.976721
-5.733021 -0.681553 4.975927
-5.795419 -0.663612 4.989654
-5.773205 -0.661923 4.984264
-5.771697 -0.663154 4.983830
-5.759790 -0.665159 4.981453
-5.763755 -0.629377 4.986490
-5.748423 -0.636989 4.982333
-5.742529 -0.662220 4.978651
-5.699312 -0.634626 4.978615
-5.768058 -0.602609 4.991447
-5.745219 -0.610473 4.986137
-5.799093 -0.583323 5.001436
-5.794068 -0.578439 5.000876
-5.763211 -0.575377 4.993979
-5.762547 -0.585668 4.992594
-5.725711 -0.608330 4.984316
-5.714484 -0.610813 4.983042
-5.716122 -0.576671 4.985875
-5.756532 -0.537130 4.996342
-5.768469 -0.562708 4.996746
-5.770453 -0.532946 5.000350
-5.732806 -0.539038 4.989413
-5.736006 -0.531457 4.989527
-5.714846 -0.511660 4.980175
-5.695914 -0.523633 4.977867
-5.688086 -0.637049 4.977531
-5.669782 -0.626536 4.977711
-5.649018 -0.621406 4.975588
-5.676292 -0.600601 4.981012
-5.662581 -0.612169 4.979040
-5.647407 -0.614568 4.976185
-5.648873 -0.595722 4.977849
-5.667958 -0.589138 4.980931
-5.652605 -0.566234 4.977103
-5.643434 -0.576952 4.976404
-5.684223 -0.553500 4.980335
-5.656645 -0.544609 4.974776
-5.689432 0.033789 5.008115
-5.760284 0.162206 5.026935
-5.763986 0.184151 5.025334
-5.768109 0.193118 5.026456
-5.752168 0.201444 5.014039
-5.739042 0.149930 5.015308
-5.734436 0.172927 5.007984
-5.775391 0.228080 5.022569
-5.755101 0.212104 5.013306
-5.789423 0.237020 5.028739
-5.781198 0.254208 5.019992
-5.751328 0.241095 5.006122
-5.747717 0.253905 5.002022
-5.734016 0.202839 5.002273
-5.803932 0.306307 5.023850
-5.807539 0.315752 5.024428
-5.809889 0.322886 5.024357
-5.825733 0.350202 5.028566
-5.806282 0.348629 5.015721
-5.775212 0.278221 5.012313
-5.764289 0.262596 5.009235
-5.765321 0.279436 5.007034
-5.793675 0.303194 5.018260
-5.772048 0.306400 5.006122
-5.768129 0.292919 5.006376
-5.761285 0.300662 5.002063
-5.784851 0.324378 5.009480
-5.794333 0.352824 5.007403
-5.449944 0.607392 5.020299
-5.454374 0.594672 5.017004
-5.431344 0.607394 5.021587
-5.422549 0.603687 5.021285
-5.461262 0.617113 5.022019
-5.433966 0.630148 5.027217
-5.417816 0.621961 5.026370
-5.413077 0.607949 5.022771
-5.395066 0.599279 5.020567
-5.366955 0.612015 5.022526
-5.336343 0.601530 5.016013
-5.311723 0.595262 5.012209
-5.350454 0.618470 5.022593
-5.342977 0.632868 5.025673
-5.332233 0.624785 5.022096
-5.294101 0.603592 5.012547
-5.294119 0.596823 5.010785
-5.272127 0.594635 5.006721
-5.254668 0.611987 5.006867
-5.277817 0.625747 5.016005
-5.254045 0.632382 5.012259
-5.307793 0.653285 5.027133
-5.257061 0.651681 5.017655
-5.259182 0.677660 5.024107
-5.254508 0.764738 5.028660
-5.247473 0.616803 5.006077
-5.244607 0.654871 5.014779
-5.208061 0.661004 5.002490
-5.235976 0.689193 5.018267
-5.209791 0.687606 5.006553
-5.230054 0.700012 5.017330
-5.213027 0.710846 5.010034
-5.206858 0.716027 5.007349
-5.242945 0.743406 5.024092
-5.226294 0.727171 5.016890
-5.198785 0.733764 5.003685
-5.239855 0.771661 5.021036
-5.229019 0.762771 5.016430
-5.220266 0.772019 5.011713
-5.232087 0.797594 5.015380
-5.922643 -0.890220 5.076407
-5.940172 -0.854123 5.077448
-5.948033 -0.817908 5.072433
-5.934459 -0.823161 5.064795
-5.960042 -0.795762 5.076203
-5.937684 -0.791548 5.061148
-5.974395 -0.761155 5.076578
-5.954887 -0.778620 5.069938
-5.963059 -0.735752 5.064278
-5.973135 -0.700419 5.065734
-5.966770 -0.693377 5.063000
-5.961135 -0.703046 5.059834
-5.971799 -0.671890 5.067093
-5.968771 -0.661784 5.066490
-5.981893 -0.625642 5.073665
-5.962777 -0.657480 5.064591
-5.952731 -0.672622 5.058097
-5.943098 -0.622895 5.058131
-5.981944 -0.602824 5.076131
-5.980969 -0.579018 5.080024
-5.960071 -0.594765 5.070111
-5.937210 -0.591511 5.060506
-5.940033 -0.579910 5.064632
-5.934222 -0.584712 5.060733
-5.949412 -0.546207 5.077582
-5.924483 -0.549422 5.065210
-5.945109 -0.510986 5.083230
-5.933628 -0.529026 5.074514
-5.915809 -0.519606 5.066953
-5.901902 -0.941044 5.074510
-5.902948 -0.921257 5.068764
-5.905668 -0.896537 5.064617
-5.908286 -0.879089 5.062395
-5.950516 -0.888506 5.099211
-5.970117 -0.547254 5.084849
-5.977290 -0.514251 5.093499
-5.951447 -0.513936 5.085279
-5.463945 1.244076 5.152482
-5.463260 1.289700 5.145728
-5.459598 1.604748 5.141456
-5.464903 1.640724 5.154555
-5.455677 1.636102 5.147433
-5.443394 1.644111 5.140497
-5.470403 1.663687 5.160059
-5.443172 1.656620 5.141200
-5.463310 1.681847 5.154009
-5.446875 1.697858 5.139218
-5.463098 1.706744 5.151522
-5.452492 1.731694 5.139293
-4.371688 -0.011006 4.746799
-4.373134 0.009135 4.752880
-4.363844 0.020908 4.751167
-4.669815 -0.404115 4.781153
-4.632315 -0.449761 4.781866
-4.614317 -0.442214 4.774638
-4.608365 -0.441829 4.772395
-4.637846 -0.406218 4.770309
-4.630739 -0.412289 4.769809
-4.607023 -0.409049 4.760743
-4.705158 -0.314789 4.775217
-4.719312 -0.301780 4.779113
-4.654759 -0.377162 4.767698
-4.691195 -0.365976 4.778730
-4.701978 -0.360639 4.781164
-4.655937 -0.369184 4.765768
-4.626680 -0.392068 4.761202
-4.648051 -0.346090 4.756407
-4.678939 -0.340378 4.768630
-4.670397 -0.329414 4.763451
-4.658357 -0.337675 4.759378
-4.700398 -0.294528 4.771821
-4.685451 -0.313726 4.767591
-4.731716 -0.266537 4.781547
-4.710820 -0.287988 4.775016
-4.700547 -0.279560 4.771425
-4.681428 -0.268838 4.763739
-4.664629 -0.283882 4.757555
-4.679208 -0.241475 4.765691
-4.664497 -0.247074 4.758908
-4.623011 -0.062220 4.804985
-4.621633 -0.067987 4.802660
-4.602007 -0.044311 4.806944
-4.513563 -0.076231 4.788517
-4.489901 -0.072199 4.784437
-4.589635 -0.046829 4.803951
-4.569228 -0.068416 4.793401
-4.574309 -0.039338 4.803568
-4.518885 -0.045586 4.795800
-4.527678 -0.070948 4.790953
-4.509236 -0.047243 4.793982
-4.531935 -0.017186 4.801363
-4.588566 -0.009867 4.809521
-4.577057 0.033977 4.809102
-4.553608 0.031610 4.806740
-4.552146 0.014425 4.806314
-4.507821 -0.002003 4.798786
-4.490575 -0.005579 4.794702
-4.522276 0.036399 4.802630
-4.521134 0.017754 4.802412
-4.474190 -0.045596 4.785096
-4.485976 -0.017292 4.792765
-4.468650 -0.022070 4.786760
-4.957713 -0.823253 4.837232
-4.948067 -0.821474 4.831458
-4.934767 -0.815174 4.825851
-4.929477 -0.790526 4.830520
-4.932697 -0.776715 4.836372
-4.917165 -0.825382 4.812925
-4.910015 -0.800671 4.817322
-4.910888 -0.775695 4.825457
-4.877641 -0.758538 4.814588
-4.910591 -0.734271 4.836542
-4.879023 -0.737685 4.821176
-4.858547 -0.735022 4.811925
-4.899247 -0.715710 4.835685
-4.893378 -0.718276 4.832668
-4.885732 -0.700359 4.832696
-4.889957 -0.685911 4.835716
-4.867629 -0.697811 4.825451
-4.880690 -0.662371 4.834136
-4.880057 -0.637331 4.834473
-4.860867 -0.660795 4.826538
-4.863501 -0.631046 4.827934
-4.842387 -0.622617 4.820152
-4.839265 -0.621126 4.819030
-4.820906 -0.641276 4.811947
-4.896125 -0.567694 4.836685
-4.830449 -0.617627 4.816137
-4.834640 -0.594754 4.818011
-4.847099 -0.584158 4.821386
-4.841451 -0.565164 4.820367
-4.896077 -0.560121 4.836519
-4.892262 -0.540490 4.835142
-4.882705 -0.534610 4.832175
-4.885219 -0.524554 4.834188
-4.882652 -0.513959 4.834641
-4.857777 -0.543511 4.824353
-4.832164 -0.539342 4.818439
-4.823613 -0.546229 4.816516
-4.856716 -0.536238 4.824319
-4.820385 -0.512890 4.817424
-4.833972 -0.530487 4.819249
-4.352466 0.424149 4.836937
-4.353233 0.433363 4.836902
-4.339947 0.443108 4.832451
-4.323133 0.464499 4.823978
-4.349540 0.483085 4.830986
-4.347558 0.485225 4.829964
-4.376668 0.509658 4.836569
-4.326499 0.528419 4.828613
-4.354841 0.544388 4.836467
-4.909388 -0.008006 4.838934
-4.870901 0.009893 4.843009
-4.896754 0.017042 4.846733
-4.895639 0.018989 4.847178
-4.883297 0.023370 4.847252
-4.853375 0.004843 4.838906
-4.858469 0.025516 4.845162
-4.846908 0.020046 4.842122
-4.832444 0.032146 4.842561
-5.025402 0.054027 4.861234
-4.988651 0.040652 4.855639
-4.991794 0.059279 4.861866
-5.005529 0.067372 4.864671
-4.957526 0.064050 4.861908
-4.932828 0.056389 4.858077
-4.957963 0.076115 4.864442
-4.918306 0.064744 4.859192
-4.901021 0.044534 4.853691
-4.881385 0.040288 4.851375
-4.922794 0.077885 4.861867
-4.886830 0.072640 4.857602
-4.881859 0.080241 4.858478
-4.861131 0.040112 4.849188
-4.852482 0.057837 4.851556
-4.836150 0.051914 4.848026
-4.816823 0.062904 4.847517
-4.868186 0.088500 4.859076
-4.837167 0.075984 4.853783
-4.817698 0.073019 4.850178
-4.919880 0.094464 4.864449
-4.884941 0.107740 4.864475
-4.823670 0.118235 4.863008
-4.808841 0.063566 4.846180
-4.807398 0.080078 4.850218
-4.766362 0.070403 4.840606
-4.761721 0.081402 4.842801
-4.748507 0.088056 4.842836
-4.809696 0.095607 4.854792
-4.793187 0.112050 4.856983
-4.786258 0.096563 4.850935
-4.779728 0.117151 4.856787
-4.769705 0.131709 4.861021
-4.744736 0.108906 4.850173
-4.714723 0.093739 4.840209
-4.707224 0.100646 4.841849
-4.746746 0.144328 4.863792
-4.719185 0.134070 4.857036
-4.705270 0.134866 4.855593
-4.691606 0.110329 4.842804
-4.682141 0.113902 4.841896
-4.671751 0.109590 4.837902
-4.689961 0.142949 4.855357
-4.675083 0.142324 4.851749
-4.638960 0.146291 4.844322
-4.445600 1.013717 4.854635
-4.422005 0.980647 4.858570
-4.427480 0.985561 4.856984
-4.397268 0.984326 4.845646
-4.380013 0.977192 4.846396
-4.413406 1.009645 4.838901
-4.583156 1.244415 4.853402
-4.567279 1.250374 4.848523
-4.547654 1.266512 4.842440
-4.577077 1.275310 4.849214
-4.580140 1.286932 4.849710
-4.561396 1.278624 4.845657
-4.560506 1.295346 4.845507
-4.534623 1.255273 4.839958
-4.590192 1.301632 4.850960
-4.555433 1.320802 4.843997
-4.575670 1.330367 4.844368
-4.591664 1.350473 4.839392
-4.489817 1.311216 4.837961
-4.538160 1.344488 4.841185
-4.521368 1.341702 4.839585
-4.479416 1.243700 4.838038
-4.435026 1.242926 4.847357
-4.464582 1.281089 4.842369
-4.458191 1.294907 4.844789
-4.439528 1.272189 4.850500
-4.426664 1.249022 4.851680
-4.408317 1.243064 4.858452
-4.417270 1.275305 4.860772
-4.469861 1.301258 4.841895
-4.436296 1.313883 4.856386
-4.482871 1.331692 4.839980
-4.437359 1.347756 4.858035
-4.434399 1.346284 4.859478
-4.426006 1.307547 4.861004
-4.575926 1.357784 4.837934
-4.567026 1.351667 4.840346
-4.543629 1.381422 4.837422
-4.513434 1.361076 4.839663
-4.518198 1.400183 4.839204
-4.501872 1.392273 4.842198
-4.490213 1.400863 4.844509
-4.517896 1.409881 4.839193
-4.517746 1.455431 4.840706
-4.512522 1.440054 4.841031
-4.467095 1.351904 4.844925
-4.441460 1.370708 4.859067
-4.435524 1.357249 4.860193
-4.485899 1.382571 4.842224
-4.468724 1.380301 4.847443
-4.485388 1.417171 4.846684
-4.477960 1.431833 4.850617
-4.459125 1.445494 4.857591
-4.458160 1.458715 4.857898
-4.471232 0.694982 4.890429
-4.372306 0.620923 4.871166
-4.328120 0.613468 4.872777
-4.327387 0.633303 4.879060
-4.318055 0.618802 4.875760
-4.297558 0.636744 4.884498
-4.371300 0.641274 4.878928
-4.323698 0.647998 4.883151
-4.321770 0.658819 4.885666
-4.308233 0.665443 4.888542
-4.294122 0.642246 4.886266
-4.287429 0.640242 4.887083
-4.319071 0.677156 4.890065
-4.297082 0.794835 4.891782
-4.286685 0.791017 4.891659
-5.444854 -0.922476 4.933246
-5.423395 -0.938163 4.930205
-5.468088 -0.916235 4.936075
-5.428935 -0.904445 4.934556
-5.396632 -0.945094 4.928621
-5.389909 -0.939049 4.929262
-5.385623 -0.942871 4.928759
-5.364552 -0.927058 4.930875
-5.409936 -0.907565 4.933527
-5.367558 -0.907322 4.934068
-5.451872 -0.869979 4.938403
-5.434516 -0.868327 4.937705
-5.393653 -0.891828 4.935620
-5.376192 -0.869679 4.938762
-5.380537 -0.885626 4.936820
-5.323407 -0.943288 4.931798
-5.328712 -0.921825 4.933872
-5.325199 -0.911345 4.935978
-5.321628 -0.901837 4.937887
-5.306637 -0.938385 4.934556
-5.292679 -0.925138 4.938051
-5.278491 -0.923958 4.939782
-5.266521 -0.922751 4.940130
-5.296595 -0.907665 4.939438
-5.281108 -0.906312 4.940877
-5.279068 -0.918101 4.940211
-5.267336 -0.892468 4.942080
-5.337789 -0.882889 4.939088
-5.326526 -0.872412 4.940926
-5.359412 -0.843615 4.939843
-5.302205 -0.865770 4.942171
-5.278434 -0.872651 4.942934
-5.257353 -0.872325 4.943420
-5.265316 -0.846231 4.943402
-5.257153 -0.851838 4.943902
-5.453590 -0.815180 4.934258
-5.452461 -0.824660 4.935608
-5.416597 -0.827413 4.935678
-5.470294 -0.785401 4.929511
-5.429225 -0.799254 4.932088
-5.402666 -0.818637 4.935476
-5.365980 -0.829791 4.938861
-5.404057 -0.803685 4.933932
-5.366349 -0.784037 4.936329
-5.365278 -0.809456 4.937781
-5.461702 -0.764222 4.925757
-5.431901 -0.769971 4.927173
-5.457063 -0.742463 4.921213
-5.443758 -0.750983 4.922884
-5.430030 -0.752102 4.923928
-5.416165 -0.766814 4.927551
-5.404472 -0.776669 4.930355
-5.378520 -0.764610 4.931736
-5.403230 -0.728899 4.921725
-5.390892 -0.736243 4.924861
-5.329378 -0.830560 4.940623
-5.342254 -0.799882 4.940674
-5.327506 -0.785760 4.943361
-5.309649 -0.791340 4.944808
-5.270567 -0.799175 4.945220
-5.252372 -0.787197 4.946204
-4.593997 1.042103 4.927469
-4.574210 1.025414 4.926348
-5.800131 -0.289889 4.986948
-5.830712 -0.253181 4.999844
-5.833708 -0.246282 5.001506
-5.821726 -0.221000 4.998543
-5.817238 -0.181233 5.001282
-5.785933 -0.278332 4.981364
-5.794990 -0.257344 4.986002
-5.772276 -0.254376 4.977070
-5.770190 -0.262544 4.975200
-5.777157 -0.203781 4.985753
-5.780206 -0.188846 4.989781
-5.812031 -0.173151 5.001396
-5.784657 -0.156181 4.998217
-5.774719 -0.169894 4.992744
-5.764029 -0.169212 4.989204
-5.741857 -0.179172 4.978194
-5.736919 -0.145583 4.986462
-5.725544 -0.142934 4.982445
-5.710802 -0.138800 4.977809
-5.751617 -0.121346 4.998381
-5.728279 -0.107905 4.994517
-5.713832 -0.109262 4.988461
-5.718553 -0.083916 4.995793
-5.715479 -0.074173 4.996076
-5.701052 -0.085485 4.987925
-5.687911 -0.099998 4.979535
-5.674059 -0.089270 4.976394
-5.086455 0.681352 4.976017
-5.178785 0.717188 4.994232
-5.164125 0.699233 4.986646
-5.171820 0.729520 4.991881
-5.193413 0.727161 5.001230
-5.189040 0.763200 4.999019
-5.177034 0.758413 4.994797
-5.182765 0.799441 4.995111
-5.164585 0.786151 4.990393
-5.153742 0.793163 4.987426
-5.138001 0.705928 4.980606
-5.096108 0.716764 4.977364
-5.138397 0.735522 4.981631
-5.126753 0.729797 4.979339
-5.106446 0.737520 4.976875
-5.084302 0.740062 4.975652
-5.064826 0.735516 4.975409
-5.051965 0.736645 4.974906
-5.112269 0.758210 4.977046
-5.089045 0.769846 4.975449
-5.142381 0.800057 4.985558
-5.139875 0.803081 4.985281
-5.089888 0.785471 4.975891
-5.072045 0.759504 4.974941
-5.077265 0.788141 4.975183
-5.828371 0.227933 5.055447
-5.821556 0.210478 5.055128
-5.823227 0.217436 5.054593
-5.825047 0.231069 5.052464
-5.811647 0.238407 5.042083
-5.796832 0.174107 5.049577
-5.797336 0.185921 5.046950
-5.779233 0.204894 5.030965
-5.842378 0.294243 5.049735
-5.814520 0.285353 5.033842
-5.859521 0.319337 5.054204
-5.859428 0.356878 5.046507
-5.863311 0.357817 5.048073
-5.875337 0.362590 5.052501
-5.845808 0.320035 5.046884
-5.828974 0.330385 5.035341
-5.774437 0.545842 5.044170
-5.745369 0.533893 5.033301
-5.776018 0.559578 5.047982
-5.769872 0.571209 5.048959
-5.750113 0.568771 5.045554
-5.726697 0.544572 5.032853
-5.738572 0.556248 5.040484
-5.733055 0.573157 5.043767
-5.724687 0.580995 5.045165
-5.691751 0.558329 5.031900
-5.699211 0.567677 5.036393
-5.686927 0.556261 5.029917
-5.687263 0.563121 5.032642
-5.670262 0.576224 5.033689
-5.657334 0.584478 5.033947
-5.785520 0.585202 5.055177
-5.761430 0.588450 5.051606
-5.750249 0.613511 5.054764
-5.733664 0.599705 5.049829
-5.720113 0.602637 5.048687
-5.690317 0.632564 5.054588
-5.689092 0.595982 5.043413
-5.674564 0.598520 5.041035
-5.686287 0.634318 5.054964
-5.662808 0.635814 5.053725
-5.660963 0.621266 5.047410
-5.647276 0.630387 5.049663
-5.628011 0.589264 5.029777
-5.606298 0.607471 5.033929
-5.627776 0.617352 5.041473
-5.614243 0.633799 5.048185
-5.600098 0.615494 5.036783
-5.599794 0.638279 5.048767
-5.611111 0.645896 5.054125
-5.585976 0.649456 5.052757
-5.565557 0.623264 5.035134
-5.556679 0.617318 5.030327
-5.545170 0.623037 5.030765
-5.389287 1.259487 5.105144
-5.366790 1.245721 5.091388
-5.378403 1.269852 5.091319
-5.423754 1.318082 5.109987
-5.417703 1.330656 5.100232
-5.425282 1.332109 5.105226
-5.394188 1.303727 5.091296
-5.404963 1.313256 5.096740
-5.393007 1.317382 5.085091
-5.399846 1.327637 5.086759
-5.361195 1.250131 5.084322
-5.442788 1.377154 5.101942
-5.451694 1.390983 5.104996
-5.433566 1.389115 5.093251
-5.442981 1.409801 5.097349
-5.447139 1.434929 5.100846
-5.438257 1.438777 5.097081
-5.426167 1.446442 5.092870
-5.420648 1.493304 5.101176
-5.416145 1.476708 5.095631
-5.407544 1.476520 5.091462
-5.394862 1.511520 5.092725
-5.386718 1.498861 5.086402
-5.431295 1.528499 5.110452
-5.420751 1.559752 5.109111
-5.408939 1.528130 5.100668
-5.403050 1.537718 5.099387
-5.378044 1.553041 5.092881
-5.406198 1.576936 5.106462
-5.368406 1.596693 5.096062
-5.364505 1.574512 5.092395
-5.396740 1.602456 5.107089
-5.397307 1.619561 5.109381
-5.952804 -0.140343 5.127811
-5.947389 -0.150437 5.113574
-5.937409 -0.096405 5.134809
-5.922200 -0.080344 5.126139
-5.912245 -0.057080 5.133828
-5.924577 0.170678 5.136038
-5.961959 0.217499 5.134731
-5.950490 0.220633 5.129784
-5.926772 0.215292 5.121255
-5.909278 0.206016 5.114712
-5.913984 0.227671 5.112094
-5.959277 0.250850 5.127042
-5.926902 0.232510 5.117004
-5.469733 0.879014 5.121764
-5.450662 0.880690 5.120318
-5.421997 0.870837 5.111421
-5.455269 0.912650 5.134094
-5.417430 0.905755 5.124506
-5.395934 0.892170 5.112376
-5.420159 0.934987 5.133535
-5.405298 0.931985 5.124798
-5.406341 0.954275 5.128571
-5.396306 0.947825 5.122029
-5.419569 1.001227 5.137454
-5.403844 0.982657 5.128731
-5.398481 0.988739 5.126350
-5.376809 0.986516 5.113763
-5.378948 0.977188 5.114041
-5.425600 1.052042 5.136172
-5.428229 1.072042 5.136811
-5.407667 1.040815 5.130033
-5.384837 1.038944 5.120305
-5.368793 1.039233 5.112530
-5.390301 1.073476 5.119671
-5.384593 1.062171 5.118423
-5.379337 1.075349 5.114012
-5.901841 1.232812 5.391666
-5.904061 1.218908 5.384565
-5.826364 1.241048 5.392434
-5.798004 1.223789 5.387396
-5.782830 1.221889 5.387744
-5.764093 1.232443 5.393229
-5.742397 1.231077 5.389476
-5.890334 1.264120 5.403841
-5.879449 1.245917 5.395990
-5.891982 1.275075 5.408054
-5.866305 1.278452 5.405794
-5.833404 1.264898 5.399105
-5.831991 1.249295 5.394756
-5.842652 1.287205 5.405221
-5.819622 1.281061 5.403263
-5.860111 1.299198 5.410913
-5.828287 1.312362 5.410003
-5.808966 1.303915 5.407036
-5.772929 1.257328 5.402743
-5.750669 1.268209 5.401101
-5.744890 1.245050 5.396288
-5.788317 1.279791 5.404684
-5.793063 1.293826 5.404956
-5.763762 1.287366 5.402743
-5.744697 1.291214 5.398103
-5.739517 1.249501 5.393956
-5.722517 1.258268 5.385686
-5.738593 1.281060 5.395400
-5.729604 1.295948 5.388855
-5.772064 1.312448 5.402533
-5.790482 1.339350 5.404544
-5.755053 1.349589 5.392029
-5.746729 1.336547 5.391244
-5.734450 1.315127 5.388738
-5.803105 1.357894 5.410574
-5.791625 1.363961 5.405787
-5.745882 1.366447 5.385180
-5.772718 1.381485 5.397851
-5.754932 1.388354 5.388031
-5.774876 1.408760 5.402117
-5.767200 1.417029 5.396722
-5.760161 1.417911 5.390325
-5.773698 1.452515 5.409063
-5.770491 1.439449 5.404599
-5.759899 1.441876 5.394148
-5.759020 1.463940 5.394598
-5.749183 1.468498 5.385134
-5.791912 1.513647 5.408414
-5.762831 1.490188 5.395112
-5.778104 1.521230 5.399527
-5.790303 1.533953 5.405466
-5.762900 1.519307 5.389714
-5.764719 1.532408 5.389535
-5.777784 1.554707 5.397557
-5.766291 1.559769 5.391280
-4.560230 -0.905378 4.640489
-4.524184 -0.937472 4.628811
-4.526488 -0.924895 4.628595
-4.513123 -0.939173 4.624063
-4.571680 -0.851250 4.644650
-4.568202 -0.857332 4.642536
-4.551572 -0.858313 4.637195
-4.515672 -0.891039 4.620181
-4.517282 -0.830280 4.628663
-4.508775 -0.828180 4.624862
-4.493852 -0.816370 4.619689
-4.517542 -0.802578 4.636749
-4.507711 -0.792840 4.634791
-4.498104 -0.774334 4.635971
-4.487846 -0.740602 4.643689
-4.474807 -0.730884 4.642692
-4.456979 -0.745016 4.629382
-4.450331 -0.741396 4.628596
-4.462152 -0.723548 4.641651
-4.446864 -0.722944 4.635963
-4.437254 -0.702785 4.642577
-4.586164 -0.209328 4.732183
-4.573021 -0.184170 4.741576
-4.580548 -0.193752 4.739197
-4.555935 -0.190752 4.732013
-4.525113 -0.184143 4.730226
-4.507471 -0.184565 4.728028
-4.586827 -0.176152 4.749955
-4.568956 -0.160817 4.753445
-4.564873 -0.173040 4.745381
-4.512789 -0.172783 4.735137
-4.502013 -0.174280 4.732353
-4.513451 -0.142390 4.752312
-4.504598 -0.135600 4.753926
-4.487262 -0.125402 4.754895
-4.481482 -0.167229 4.731970
-4.467909 -0.144421 4.737401
-4.437263 -0.129122 4.730374
-4.439099 -0.127197 4.732180
-4.459826 -0.106699 4.754449
-4.445435 -0.110485 4.744638
-4.434949 -0.106410 4.741412
-4.423417 -0.102376 4.737298
-4.407799 -0.072427 4.742951
-4.415496 -0.095606 4.736298
-4.811685 -0.808683 4.765087
-4.797644 -0.797626 4.763723
-4.812084 -0.775414 4.776227
-4.802983 -0.780931 4.770991
-4.774602 -0.763746 4.766372
-4.768919 -0.770882 4.761790
-4.759881 -0.758652 4.762250
-4.787755 -0.749866 4.776278
-4.779274 -0.735288 4.776803
-4.742713 -0.730404 4.760756
-4.767078 -0.706482 4.779413
-4.740027 -0.708195 4.765938
-4.729790 -0.719469 4.757534
-4.709453 -0.693028 4.757033
-4.721454 -0.677881 4.767229
-4.709343 -0.623764 4.774719
-4.702242 -0.686137 4.756064
-4.698657 -0.660231 4.761894
-4.681114 -0.647278 4.758488
-4.696424 -0.629213 4.768552
-4.685502 -0.626930 4.765644
-4.658974 -0.624578 4.757974
-4.653896 -0.621709 4.757367
-5.342514 -0.069689 4.861287
-5.349930 -0.062848 4.864016
-5.329333 -0.063983 4.862660
-5.300509 -0.065165 4.858178
-5.292144 -0.059504 4.859598
-5.274735 -0.056973 4.857673
-5.261771 -0.067692 4.847267
-5.246804 -0.045511 4.855810
-5.241793 -0.069589 4.840968
-5.202267 -0.045215 4.840362
-5.247183 -0.034627 4.863101
-5.224082 -0.032716 4.855120
-5.220476 -0.021830 4.861123
-5.197957 -0.039436 4.842240
-5.183996 -0.041319 4.838155
-5.168360 -0.029228 4.840462
-5.160198 -0.018339 4.843762
-5.171511 -0.005545 4.855368
-5.166560 0.007630 4.862810
-5.166324 -0.013673 4.848207
-5.124800 0.002075 4.847320
-5.120026 -0.004755 4.841364
-5.103357 0.007783 4.846205
-5.139354 0.015527 4.859670
-5.119795 0.027000 4.862761
-5.112803 0.015241 4.853176
-5.112823 0.013663 4.852108
-5.034215 0.007809 4.839853
-5.083986 0.016547 4.848429
-5.070176 0.018958 4.848148
-5.051178 0.017632 4.845009
-4.715287 0.412820 4.861754
-4.730679 0.413632 4.864210
-4.739752 0.443070 4.862727
-4.729473 0.433769 4.861084
-4.715277 0.472176 4.852220
-4.728812 0.450233 4.858766
-4.687485 0.385650 4.864407
-4.672480 0.390663 4.860854
-4.697488 0.411236 4.859024
-4.683104 0.393700 4.861435
-4.676830 0.410488 4.855840
-4.659648 0.418100 4.851522
-4.623016 0.376735 4.858059
-4.600005 0.391938 4.851411
-4.631382 0.418631 4.848646
-4.618435 0.401857 4.850856
-4.608881 0.420199 4.846768
-4.693052 0.435439 4.852768
-4.686862 0.425827 4.853687
-4.673730 0.439777 4.848301
-4.659748 0.421125 4.850816
-4.683380 0.455125 4.847085
-4.644990 0.423949 4.848598
-4.636817 0.445886 4.843756
-4.600622 0.421934 4.845962
-4.646292 0.454129 4.842811
-4.637665 0.460146 4.842135
-4.615823 0.473072 4.841221
-4.750363 0.502054 4.862084
-4.728653 0.480316 4.855475
-4.723950 0.477883 4.854277
-4.752686 0.543129 4.864468
-4.712242 0.536810 4.848324
-4.716141 0.542207 4.850245
-4.717292 0.562302 4.853171
-4.719414 0.573163 4.855512
-4.702363 0.488057 4.846808
-4.683848 0.489491 4.843144
-4.665952 0.489909 4.840927
-4.681111 0.508161 4.841987
-4.661729 0.506625 4.840680
-4.636889 0.491351 4.840253
-4.630354 0.485312 4.840316
-4.604218 0.489481 4.841989
-4.629371 0.524880 4.842235
-4.636437 0.505484 4.840496
-4.618092 0.507901 4.841413
-4.604691 0.516934 4.843410
-4.702360 0.551559 4.847376
-4.672999 0.550316 4.843961
-4.701595 0.582425 4.853467
-4.668691 0.575168 4.848917
-4.655129 0.567085 4.847215
-4.641556 0.546660 4.844370
-4.634612 0.539704 4.843812
-4.614450 0.537316 4.844973
-4.601702 0.582544 4.854494
-5.316811 -0.561086 4.908729
-5.342403 -0.529835 4.896451
-5.320644 -0.514244 4.896034
-5.305491 -0.548400 4.907193
-5.291373 -0.547989 4.909734
-5.277134 -0.537077 4.909364
-5.305603 -0.518121 4.899508
-5.291299 -0.530045 4.905180
-5.258211 -0.511973 4.907854
-5.258637 -0.524765 4.910435
-5.066616 -0.712466 4.913056
-5.075428 -0.712148 4.915933
-5.050944 -0.723399 4.906495
-5.058406 -0.701119 4.910055
-5.066348 -0.700399 4.912953
-5.053442 -0.687508 4.906713
-5.034247 -0.680759 4.898409
-5.090725 -0.660594 4.917197
-5.102623 -0.623640 4.915316
-5.082607 -0.671889 4.916051
-5.041181 -0.669274 4.900593
-5.049622 -0.656466 4.902684
-5.086668 -0.645154 4.914304
-5.055842 -0.638506 4.903249
-5.039757 -0.623775 4.895445
-5.145805 -0.566963 4.919127
-5.237586 -0.538999 4.916730
-5.215651 -0.537583 4.918347
-5.238880 -0.523202 4.913167
-5.228948 -0.513785 4.912516
-5.151290 -0.552047 4.916636
-5.169122 -0.549110 4.919139
-5.164633 -0.518168 4.911081
-5.115565 -0.594247 4.915455
-5.095255 -0.591964 4.909214
-5.094196 -0.602875 4.910270
-5.121586 -0.580357 4.914990
-5.131683 -0.580862 4.917917
-5.140649 -0.570288 4.918605
-5.078678 -0.606574 4.906382
-5.062761 -0.598081 4.900152
-5.057068 -0.614920 4.900877
-5.083588 -0.575900 4.902614
-5.068325 -0.572738 4.897516
-5.142513 -0.547436 4.913774
-5.095915 -0.554415 4.901669
-5.126443 -0.514120 4.901434
-5.116109 -0.530731 4.902316
-5.108519 -0.524101 4.898255
-5.087304 -0.537877 4.894507
-5.075350 -0.553889 4.895314
-4.909734 1.144408 4.910163
-4.873168 1.140554 4.916784
-4.881258 1.154018 4.910789
-4.895629 1.148888 4.910125
-4.921196 1.159821 4.904312
-4.906624 1.173416 4.902310
-4.873163 1.163633 4.908739
-4.854715 1.152198 4.914793
-4.867184 1.169047 4.906996
-4.846665 1.172510 4.907508
-4.834218 1.176408 4.906760
-4.824648 1.177153 4.906715
-4.911552 1.196911 4.895054
-4.881042 1.193137 4.896007
-4.853457 1.191923 4.898519
-4.600854 1.073883 4.918706
-4.658315 1.114420 4.919440
-4.600291 1.098435 4.908123
-4.616470 1.097637 4.915212
-4.631589 1.115998 4.912579
-4.596711 1.109044 4.902214
-4.798097 1.175717 4.906842
-4.765684 1.161789 4.912106
-4.762205 1.184090 4.900153
-4.750738 1.158220 4.911952
-4.707276 1.135445 4.915920
-4.726477 1.148828 4.912615
-4.755247 1.183096 4.899779
-4.715943 1.171315 4.900120
-4.707012 1.180825 4.894062
-4.811255 1.195879 4.896988
-4.792638 1.186826 4.901233
-4.698598 1.134299 4.915340
-4.671433 1.139769 4.909370
-4.654172 1.150874 4.901555
-4.649124 1.142964 4.904491
-4.636710 1.147102 4.899314
-4.619039 1.153963 4.892643
-5.039714 1.245327 4.912649
-5.077984 1.290442 4.912965
-5.048759 1.269768 4.906924
-5.038473 1.281515 4.897879
-5.090077 1.313477 4.911922
-5.096872 1.301180 4.918417
-5.102133 1.330063 4.913549
-5.096197 1.348602 4.907097
-5.062161 1.307026 4.900223
-5.058035 1.301812 4.899944
-5.083936 1.335651 4.903368
-5.070241 1.340932 4.894783
-5.889767 -0.124187 5.056201
-5.874283 -0.107525 5.051148
-5.860650 -0.105913 5.041216
-5.857696 -0.094711 5.044127
-5.836483 -0.076306 5.038271
-5.806971 -0.038060 5.039785
-5.818270 -0.019355 5.055587
-5.814958 -0.015723 5.055688
-5.782134 -0.029054 5.033461
-5.778899 -0.024067 5.034485
-5.783205 -0.013243 5.041420
-5.770425 -0.013420 5.035741
-5.766586 0.009740 5.045225
-5.784499 0.011544 5.054956
-5.752295 0.033732 5.043912
-5.756418 0.019007 5.042166
-5.727743 0.032675 5.029335
-5.766085 0.062900 5.054918
-5.754070 0.066078 5.046084
-5.761711 0.085569 5.047950
-5.739207 0.056709 5.036412
-5.736942 0.058567 5.034841
-5.741297 0.081812 5.033590
-5.753433 0.105692 5.036220
-5.745182 0.103617 5.030758
-5.789914 0.145162 5.052033
-5.753196 0.120968 5.031456
-5.264465 1.028992 5.053621
-5.265089 1.035861 5.056244
-5.280886 1.132053 5.047263
-5.263686 1.111317 5.050605
-5.264747 1.121470 5.045836
-5.300178 1.133097 5.055998
-5.281911 1.150346 5.038431
-5.275900 1.151549 5.034602
-5.263259 1.149621 5.030194
-5.269837 1.133309 5.041873
-5.297169 1.185025 5.032553
-5.301321 1.168986 5.041419
-5.312824 1.192102 5.043694
-5.314361 1.203569 5.042209
-5.322460 1.223429 5.046554
-5.331170 1.240633 5.052196
-5.238720 1.045395 5.045989
-5.239035 1.027756 5.040156
-5.220515 1.036111 5.033498
-5.244228 1.061856 5.052603
-5.215071 1.061870 5.036495
-5.247575 1.085182 5.054084
-5.216398 1.093758 5.035763
-5.247715 1.121248 5.039252
-5.246007 1.113696 5.042576
-5.247224 1.137355 5.030326
-5.368168 1.335522 5.056120
-5.364645 1.342313 5.051501
-5.310797 1.241927 5.032474
-5.321088 1.262259 5.038512
-5.338974 1.274498 5.051834
-5.335418 1.288911 5.045179
-5.325893 1.285695 5.037656
-5.337671 1.320240 5.038563
-5.324700 1.317501 5.030427
-5.345160 1.350068 5.037716
-5.326970 1.325706 5.030472
-5.960221 -0.201447 5.098281
-5.956299 -0.208135 5.089112
-5.939007 -0.148295 5.102603
-5.931023 -0.142276 5.094860
-5.917487 -0.112943 5.094527
-5.909182 -0.104748 5.088197
-5.903276 -0.087565 5.093118
-5.899309 -0.091578 5.084183
-5.920573 0.255171 5.109015
-6.010031 0.380273 5.095326
-5.996461 0.390285 5.084944
-5.979496 0.376376 5.084214
-5.998665 0.537456 5.084206
-6.000190 0.546774 5.094431
-5.974018 0.555194 5.095655
-5.974139 0.570142 5.106770
-5.945426 0.562900 5.092344
-5.910611 0.575963 5.088511
-5.934321 0.588893 5.106504
-5.912652 0.600118 5.106868
-4.431946 -0.588360 4.669626
-4.418566 -0.602202 4.659954
-4.419180 -0.615959 4.657648
-4.428653 -0.549311 4.672822
-4.410209 -0.535699 4.663469
-4.711664 -0.829487 4.711033
-4.701494 -0.815599 4.710409
-4.688622 -0.799471 4.708375
-4.681841 -0.767801 4.715924
-4.693954 -0.763206 4.724479
-4.673511 -0.772184 4.709696
-4.654942 -0.764256 4.704881
-4.679750 -0.751899 4.721266
-4.661572 -0.728795 4.724756
-4.637469 -0.757392 4.701731
-4.647330 -0.742306 4.712932
-4.629446 -0.743923 4.705630
-4.612836 -0.739577 4.701480
-4.628586 -0.722988 4.715373
-4.623490 -0.703761 4.720916
-4.603279 -0.675537 4.721621
-4.600304 -0.665069 4.723927
-4.598589 -0.305618 4.727775
-4.597085 -0.257281 4.725243
-4.542183 -0.482700 4.750384
-4.551425 -0.476176 4.753840
-4.536909 -0.484091 4.747336
-4.509019 -0.487388 4.730604
-4.531911 -0.458455 4.739579
-4.583405 -0.411191 4.752333
-4.567087 -0.425350 4.749603
-4.555156 -0.410152 4.739310
-4.519196 -0.450298 4.732401
-4.532807 -0.409855 4.729818
-4.587038 -0.383183 4.743024
-4.572789 -0.380575 4.737055
-4.593079 -0.371476 4.740914
-4.566734 -0.367433 4.730436
-4.423758 0.059734 4.777326
-4.388792 0.059505 4.767239
-4.411462 0.075007 4.775247
-4.395335 0.089782 4.773649
-4.423601 0.102348 4.782041
-4.401441 0.111165 4.779002
-4.377182 0.137134 4.780755
-4.374871 0.031924 4.758551
-4.369258 0.063309 4.762002
-4.363369 0.066517 4.760500
-4.373566 0.105137 4.772391
-4.359905 0.118272 4.772421
-4.361516 0.142896 4.779734
-5.260316 -0.291032 4.832783
-5.236485 -0.297494 4.836651
-5.193700 -0.295851 4.836394
-5.167923 -0.293786 4.834408
-5.066532 -0.303507 4.835217
-5.366170 -0.195272 4.837292
-5.312956 -0.268669 4.833345
-5.312086 -0.262536 4.832046
-5.318201 -0.243990 4.830925
-5.285627 -0.282330 4.830921
-5.255605 -0.286866 4.831079
-5.300327 -0.251158 4.827482
-5.258263 -0.236172 4.814452
-5.336630 -0.210534 4.832060
-5.310032 -0.209254 4.826053
-5.323458 -0.233687 4.830870
-5.357326 -0.183463 4.836679
-5.314375 -0.185173 4.827235
-5.316920 -0.204961 4.827599
-5.281189 -0.208507 4.817863
-5.288246 -0.223267 4.821066
-5.276968 -0.216085 4.817338
-5.266862 -0.234720 4.816381
-5.304510 -0.182674 4.824744
-5.347834 -0.173294 4.836370
-5.316461 -0.159693 4.830803
-5.311360 -0.169580 4.828107
-5.320457 -0.132357 4.837320
-4.806861 1.308077 4.831739
-4.760846 1.313135 4.828036
-4.778644 1.307249 4.830946
-4.753624 1.312028 4.829232
-4.758612 1.326769 4.820968
-4.729170 1.348351 4.824837
-4.719667 1.334716 4.830623
-4.694221 1.336162 4.836394
-4.755639 1.370165 4.810916
-4.744864 1.364397 4.816284
-4.717469 1.360896 4.826554
-4.709832 1.371428 4.826172
-4.732110 1.388308 4.817477
-4.706534 1.415647 4.814873
-4.700813 1.365551 4.829060
-4.689383 1.373288 4.827898
-4.665863 1.372826 4.827542
-4.654263 1.364029 4.830916
-4.687945 1.396623 4.819979
-4.664926 1.393552 4.818947
-4.651784 1.397539 4.815806
-4.628070 1.357772 4.834285
-4.630331 1.376473 4.823933
-4.613086 1.365444 4.830328
-4.644296 1.393979 4.816132
-4.622293 1.390918 4.816224
-4.682198 1.417375 4.812878
-4.648666 1.409520 4.810132
-4.985953 1.470545 4.831599
-4.981531 1.476380 4.829928
-4.972417 1.469868 4.822353
-4.955941 1.517627 4.820600
-4.948040 1.524580 4.817246
-4.939526 1.522356 4.811461
-4.954428 1.553074 4.831127
-4.947856 1.551757 4.826277
-4.926191 1.554196 4.814097
-4.939857 1.578576 4.834709
-4.913095 1.588951 4.825543
-4.905325 1.575916 4.813712
-4.874935 1.595130 4.811038
-4.901802 1.606397 4.829837
-4.878798 1.597461 4.814068
-4.864914 1.609709 4.814219
-4.882350 1.637640 4.835031
-4.855669 1.643104 4.824315
-4.842779 1.625876 4.813130
-4.838974 1.646775 4.819095
-4.864462 1.655906 4.832500
-4.854862 1.659511 4.829484
-4.820046 1.672639 4.818984
-5.068704 0.040704 4.861878
-5.058835 0.040219 4.859882
-5.034099 0.055547 4.863082
-5.020801 0.005857 4.840594
-5.000748 -0.005612 4.838897
-4.990265 -0.006489 4.839242
-5.028553 0.023861 4.848170
-5.024123 0.034911 4.853551
-5.004056 0.034893 4.853093
-4.971568 -0.009665 4.838804
-4.953133 -0.010059 4.838253
-4.931357 -0.008877 4.838494
-4.963360 0.028853 4.851308
-4.941184 0.032097 4.852074
-4.933870 0.016377 4.846791
-4.903073 1.696136 4.862589
