1.044470 -1.153180 0.833661
0.991562 -1.153693 0.826239
1.091754 -1.152823 0.834853
1.063111 -1.153077 0.843804
1.139207 -1.152282 0.835362
1.133493 -1.152350 0.838821
1.230847 -1.151641 0.868080
1.176092 -1.151871 0.829356
1.287426 -1.151069 0.823806
1.253278 -1.151442 0.835465
1.354174 -1.150197 0.815272
1.302886 -1.150900 0.859873
1.391037 -1.150330 0.850558
1.441781 -1.149749 0.815984
1.437471 -1.150301 0.868007
1.517537 -1.149355 0.858842
1.588064 -1.148283 0.829821
1.546511 -1.148812 0.849154
1.647610 -1.146971 0.829925
1.610581 -1.147848 0.824221
1.723770 -1.144458 0.834870
1.691479 -1.145885 0.822307
1.731707 -1.143099 0.867810
1.738324 -1.144677 0.820518
-1.123043 -1.171170 1.430713
-1.101277 -1.171059 1.434121
-0.993307 -1.171111 1.478439
-1.020314 -1.171181 1.456474
-0.939782 -1.170471 1.460737
-0.943778 -1.170491 1.438326
-0.883514 -1.169781 1.458184
-0.915421 -1.170154 1.462247
-0.826455 -1.169295 1.480960
-0.813068 -1.168999 1.441185
-0.744978 -1.167563 1.436373
-0.749355 -1.168002 1.480255
-0.694595 -1.167084 1.459633
-0.732930 -1.167714 1.487564
-0.631387 -1.166587 1.483095
-0.665352 -1.166854 1.454974
-0.598151 -1.166446 1.440151
-0.604069 -1.166352 1.466932
-0.504471 -1.165743 1.457641
-0.526453 -1.165642 1.461096
-0.466437 -1.165598 1.436012
-0.439682 -1.165716 1.481263
-0.371980 -1.164771 1.456544
-0.403231 -1.165245 1.461551
-0.309695 -1.164261 1.453542
-0.347303 -1.164509 1.428167
-0.267965 -1.163976 1.454559
-0.274297 -1.164043 1.487041
-0.195417 -1.163294 1.482271
-0.229307 -1.163459 1.430479
-0.133501 -1.162740 1.462500
-0.169495 -1.163052 1.462810
-0.062415 -1.161878 1.453677
-0.025520 -1.161788 1.449576
-0.024147 -1.161926 1.482581
0.042982 -1.161483 1.484582
0.118905 -1.160690 1.463901
0.075377 -1.161142 1.475034
0.180756 -1.160550 1.461932
0.150050 -1.160616 1.458151
0.236777 -1.160163 1.461049
0.217822 -1.160360 1.461902
0.304027 -1.159041 1.453975
0.259861 -1.160039 1.487311
0.358632 -1.157795 1.439612
0.310071 -1.158808 1.438535
0.404851 -1.157175 1.478960
0.383879 -1.157370 1.464417
0.480349 -1.156795 1.467236
0.436058 -1.157046 1.475224
0.549449 -1.156109 1.451999
0.496742 -1.156718 1.462803
0.583650 -1.155989 1.454085
0.557460 -1.155899 1.481456
0.639612 -1.155749 1.440921
0.657638 -1.155825 1.468117
-2.953561 -1.140971 1.718957
-2.995958 -1.138014 1.680765
-2.975612 -1.145957 1.684698
-2.922399 -1.146679 1.731164
-2.926907 -1.157737 1.690607
-2.864385 -1.162805 1.732594
-2.883057 -1.167299 1.689470
-2.790874 -1.175440 1.677060
-2.710878 -1.177527 1.688166
-2.745925 -1.175443 1.708586
-2.677281 -1.176824 1.717734
-2.680778 -1.178331 1.679455
-2.617454 -1.177466 1.732508
-2.640460 -1.177332 1.721078
-2.547562 -1.179006 1.725476
-2.551993 -1.179175 1.701470
-2.479438 -1.180029 1.702401
-2.494387 -1.179926 1.699929
-2.414550 -1.180355 1.716131
-2.423610 -1.180300 1.682669
-2.361582 -1.180344 1.706166
-2.362805 -1.180364 1.710135
-2.297594 -1.180107 1.695951
-2.326006 -1.180258 1.712234
-2.218763 -1.179907 1.702549
-2.262279 -1.179911 1.680193
-2.161014 -1.179714 1.708574
-2.202396 -1.179973 1.723036
-3.024487 -1.079490 1.700902
-3.027689 -1.061334 1.706364
-3.028880 -1.026477 1.697371
-3.026768 -1.020953 1.702624
-2.984973 -1.124197 1.715093
-3.016803 -0.953459 1.692634
-3.022664 -0.953725 1.677687
-3.013817 -0.929232 1.678896
-2.986221 -0.905288 1.719301
-2.984754 -0.894159 1.711642
-3.002342 -0.911940 1.688456
-2.962902 -0.865985 1.729903
-2.954588 -0.828791 1.697095
-0.634584 -1.169238 2.320040
-0.599306 -1.168805 2.300176
-0.591547 -1.168682 2.345485
-0.533027 -1.168009 2.340018
-0.550524 -1.168060 2.289757
-0.460953 -1.167072 2.336102
-0.460542 -1.167161 2.300129
-0.395713 -1.166279 2.334805
-0.389960 -1.166492 2.292412
-0.332578 -1.165119 2.345861
-0.346794 -1.165761 2.307934
-0.280228 -1.164567 2.306218
-0.183044 -1.163362 2.337019
-0.233552 -1.163626 2.330757
-0.490888 -1.167493 2.670839
-0.518476 -1.167709 2.706148
-0.452673 -1.167005 2.705687
-0.471893 -1.167304 2.659702
-0.373095 -1.166131 2.703647
-0.389082 -1.166509 2.660887
-0.318405 -1.165436 2.701176
-0.366163 -1.166018 2.708734
-0.248173 -1.164114 2.701283
-0.297245 -1.165025 2.680778
-0.196583 -1.163435 2.702857
-0.213954 -1.163571 2.666097
0.062593 -1.140068 -2.590849
0.027476 -1.137269 -2.576117
0.113377 -1.142396 -2.608620
0.136471 -1.143227 -2.624871
0.144905 -1.145094 -2.583658
0.241204 -1.147456 -2.595035
0.237451 -1.147539 -2.581169
0.306899 -1.148779 -2.616768
0.271019 -1.148160 -2.587481
0.337737 -1.149222 -2.618416
0.356407 -1.149536 -2.579287
0.385046 -1.149788 -2.574225
0.404184 -1.149831 -2.622245
0.453934 -1.149893 -2.625631
0.440672 -1.149979 -2.576869
0.512421 -1.149802 -2.620598
0.504037 -1.149821 -2.625010
0.598022 -1.149350 -2.614864
0.608879 -1.149503 -2.576563
0.648313 -1.148930 -2.608214
0.618303 -1.149118 -2.620572
0.739733 -1.147405 -2.617800
0.719080 -1.148217 -2.586723
0.763584 -1.146510 -2.627274
0.790318 -1.146716 -2.577739
-0.140451 -1.096323 -2.574554
-0.158463 -1.083747 -2.598674
-0.060974 -1.112648 -2.609610
-0.086143 -1.107926 -2.595027
-0.031324 -1.125066 -2.589528
-0.045265 -1.121391 -2.589527
0.855878 -1.144307 -2.589427
0.814421 -1.145838 -2.584093
0.873868 -1.142472 -2.615305
0.962054 -1.134974 -2.622369
0.948503 -1.139450 -2.580959
1.034604 -1.129309 -2.589342
0.730165 -1.148800 -2.503680
0.684709 -1.149435 -2.477114
0.792914 -1.147974 -2.463289
0.776406 -1.148221 -2.471723
-0.139987 -1.113859 -2.494836
-0.159966 -1.117618 -2.451928
-0.111221 -1.126254 -2.473772
0.862579 -1.146331 -2.484566
0.849432 -1.146997 -2.460180
0.868118 -1.145727 -2.511786
0.873082 -1.145874 -2.497104
0.967508 -1.142492 -2.484499
0.929311 -1.144874 -2.460500
1.032721 -1.139798 -2.459987
1.075013 -1.136693 -2.455925
1.075036 -1.134337 -2.477958
1.140119 -1.123745 -2.502866
1.204095 -1.110928 -2.494161
1.178721 -1.118813 -2.489140
1.271777 -1.081550 -2.510540
1.244233 -1.102396 -2.479247
1.308903 -1.082729 -2.467614
1.409863 -1.036651 -2.491644
1.389436 -1.057353 -2.457558
1.461829 -1.024291 -2.486677
1.431949 -1.047021 -2.453002
1.503668 -1.021428 -2.460691
1.516369 -1.012292 -2.465969
1.490899 -0.988786 -2.510851
1.532960 -0.973508 -2.485236
1.563257 -0.950301 -2.464669
1.545171 -0.914102 -2.498781
1.550143 -0.941416 -2.485198
1.550435 -0.863864 -2.503870
1.576228 -0.864494 -2.471534
1.567491 -0.819539 -2.489392
-0.125995 -1.140596 -2.299724
-0.146850 -1.139255 -2.277191
-0.078401 -1.143037 -2.325603
-0.108181 -1.141474 -2.310739
-0.009589 -1.147180 -2.282647
-0.030353 -1.146688 -2.273721
0.062559 -1.148876 -2.298368
0.078724 -1.148966 -2.324469
0.084802 -1.149483 -2.288871
0.143811 -1.150599 -2.311761
0.138307 -1.150572 -2.302639
0.224492 -1.151582 -2.289761
0.304026 -1.151205 -2.305878
0.295954 -1.151225 -2.316376
0.339318 -1.150938 -2.270626
0.337409 -1.150847 -2.307168
0.417686 -1.150138 -2.276647
0.385836 -1.150385 -2.314609
0.473702 -1.149939 -2.293107
0.451252 -1.150065 -2.308067
0.508931 -1.149673 -2.276128
0.500569 -1.149997 -2.325054
0.606426 -1.149078 -2.305594
0.563371 -1.149394 -2.299174
0.676435 -1.148429 -2.307898
0.643552 -1.148491 -2.276469
0.713641 -1.147821 -2.268533
0.679957 -1.148352 -2.301533
0.775989 -1.147287 -2.266301
0.743310 -1.147868 -2.312278
-0.170297 -1.154141 -1.579076
-0.178490 -1.154371 -1.559139
-0.067921 -1.154247 -1.559265
-0.120234 -1.154302 -1.574093
-0.011089 -1.153816 -1.537007
-0.054355 -1.154179 -1.551432
0.047591 -1.153434 -1.568316
0.015962 -1.153663 -1.537930
0.115900 -1.153576 -1.538869
0.070332 -1.153599 -1.536715
0.166495 -1.153291 -1.551371
0.137545 -1.153462 -1.541302
0.241905 -1.153789 -1.540739
0.192285 -1.153309 -1.560733
0.284071 -1.153904 -1.558485
0.248119 -1.153975 -1.578669
0.344895 -1.153492 -1.535267
0.363862 -1.153606 -1.586143
0.412556 -1.153357 -1.571889
0.386695 -1.153310 -1.533939
0.474321 -1.152942 -1.564947
0.472275 -1.153057 -1.536290
0.544699 -1.151918 -1.560786
0.498722 -1.152617 -1.578974
0.609072 -1.150521 -1.584767
0.563088 -1.151763 -1.544688
0.638487 -1.150652 -1.569479
0.621218 -1.151066 -1.532533
0.720587 -1.150997 -1.563163
0.707955 -1.151007 -1.563644
0.785637 -1.150899 -1.531024
0.759146 -1.150913 -1.557450
-1.554832 -1.133175 -1.421679
-1.502375 -1.128372 -1.453875
-1.452668 -1.131425 -1.457360
-1.354184 -1.140311 -1.458133
-1.392147 -1.146576 -1.404900
-1.310789 -1.142658 -1.458259
-1.338879 -1.142089 -1.448875
-1.243429 -1.148487 -1.427683
-1.264055 -1.148913 -1.415795
-1.188246 -1.149685 -1.441785
-1.227760 -1.150324 -1.413923
-2.042891 -1.076994 -1.414843
-2.076196 -1.071861 -1.412588
-2.125880 -1.020653 -1.426065
-2.077262 -1.060081 -1.422318
-2.045017 -1.027511 -1.448929
-1.993404 -1.070985 -1.433867
-1.906454 -1.092644 -1.426428
-1.910081 -1.099811 -1.407930
-1.952111 -1.067516 -1.453455
-2.018096 -1.022103 -1.461655
-2.125458 -0.967833 -1.439635
-2.116829 -0.993454 -1.438851
-2.088848 -0.951020 -1.456418
-2.148600 -0.918480 -1.435017
-2.096320 -0.939041 -1.455060
-1.874952 -1.087987 -1.459183
-1.866230 -1.104529 -1.411909
-1.834538 -1.110237 -1.410811
-1.727467 -1.114748 -1.433335
-1.758211 -1.112998 -1.429569
-1.669691 -1.116520 -1.445012
-1.711519 -1.119341 -1.419988
-2.147515 -0.851064 -1.438856
-2.100412 -0.820761 -1.459470
-2.130477 -0.815325 -1.447395
-1.647958 -1.124230 -1.423349
-1.573912 -1.121101 -1.457046
-1.568933 -1.127096 -1.439183
-2.100479 -1.156404 -1.107010
-2.151484 -1.151698 -1.135911
-2.041861 -1.154790 -1.149101
-2.084585 -1.154762 -1.133926
-2.000070 -1.156307 -1.139814
-2.023133 -1.156852 -1.126018
-1.923585 -1.158484 -1.123201
-1.940839 -1.158432 -1.120297
-1.864383 -1.158439 -1.131213
-1.851380 -1.159974 -1.100104
-1.816599 -1.158483 -1.131767
-1.806109 -1.159634 -1.104461
-1.726295 -1.159346 -1.115518
-1.746306 -1.159706 -1.102879
-1.677885 -1.159080 -1.138603
-1.700925 -1.159498 -1.116254
-1.615238 -1.159493 -1.145728
-1.642162 -1.159896 -1.120104
-1.553728 -1.160425 -1.101468
-1.572573 -1.159848 -1.135852
-1.497618 -1.160062 -1.105677
-1.521834 -1.159814 -1.128699
-1.418725 -1.158987 -1.148656
-1.461807 -1.159550 -1.129140
-1.408155 -1.158888 -1.148603
-1.311314 -1.158472 -1.128040
-1.336228 -1.158604 -1.116049
-1.283384 -1.158329 -1.151581
-1.266539 -1.158967 -1.102400
-1.173388 -1.158711 -1.156325
-1.107036 -1.158517 -1.115281
-1.132988 -1.158691 -1.139379
-1.072236 -1.158357 -1.123278
-1.090690 -1.158373 -1.137185
-0.996880 -1.158054 -1.130450
-1.038876 -1.158242 -1.122164
-0.947086 -1.157665 -1.119361
-0.975444 -1.158053 -1.107050
-0.880138 -1.156778 -1.101369
-0.902722 -1.157134 -1.157527
-0.822302 -1.156460 -1.125559
-0.768870 -1.156203 -1.112608
-0.768285 -1.156119 -1.127824
-0.703367 -1.155984 -1.152262
-0.718763 -1.156057 -1.115967
-0.620306 -1.156072 -1.131126
-0.658590 -1.156093 -1.134513
-0.562634 -1.155832 -1.138306
-0.490989 -1.155772 -1.115914
-0.513037 -1.155676 -1.153505
-0.463731 -1.155602 -1.115841
-0.461471 -1.155534 -1.139558
-0.395984 -1.155256 -1.138948
-0.419467 -1.155361 -1.106965
-0.325480 -1.155281 -1.118800
-0.354346 -1.155203 -1.132790
-0.244880 -1.155923 -1.111727
-0.295643 -1.155398 -1.120145
-0.233130 -1.155783 -1.154065
-0.224102 -1.155994 -1.104512
1.896938 -1.128019 -0.884606
1.956701 -1.116777 -0.892584
1.915338 -1.126635 -0.863095
2.007708 -1.103788 -0.880069
1.991151 -1.112783 -0.850585
2.043758 -1.095085 -0.852519
2.088345 -1.069663 -0.881615
2.053358 -1.082384 -0.895618
2.075198 -1.070334 -0.905753
2.216440 -1.033827 -0.862435
2.189662 -1.041616 -0.859810
2.256319 -1.016165 -0.855259
2.271966 -0.978500 -0.892151
2.283613 -0.980912 -0.871352
2.304486 -0.897716 -0.891711
2.309240 -0.930007 -0.869207
2.328433 -0.821102 -0.875476
2.333894 -0.841246 -0.858960
2.299009 -0.877222 -0.911039
2.328023 -0.811214 -0.879003
-2.115453 -1.165163 -0.739324
-2.139373 -1.165115 -0.774614
-2.068319 -1.164686 -0.784502
-2.074270 -1.164805 -0.764974
-1.971761 -1.164197 -0.771093
-2.028995 -1.164469 -0.780055
-1.924645 -1.163980 -0.782588
-1.960803 -1.164258 -0.746231
-1.885534 -1.164164 -0.744308
-1.903377 -1.164066 -0.755125
-1.787206 -1.163970 -0.753826
-1.741151 -1.164336 -0.727586
-1.684674 -1.164065 -0.761019
-1.671414 -1.164339 -0.738094
-1.619295 -1.163726 -0.727795
-1.636396 -1.163766 -0.765227
-1.576604 -1.162699 -0.785757
-1.565874 -1.162866 -0.754946
0.485968 -1.155183 -0.677390
0.436643 -1.155700 -0.683961
0.535960 -1.154846 -0.708534
0.500211 -1.155113 -0.692925
0.576425 -1.154635 -0.708151
0.563236 -1.154643 -0.683838
0.619060 -1.154682 -0.714520
0.728788 -1.153632 -0.680893
0.684607 -1.154178 -0.686741
0.789828 -1.152845 -0.686686
0.775751 -1.153101 -0.702330
0.857132 -1.152277 -0.685766
0.814414 -1.152680 -0.715751
0.922666 -1.151971 -0.707942
0.872542 -1.152261 -0.699977
0.965921 -1.151421 -0.697301
0.960085 -1.151582 -0.678916
1.029313 -1.150851 -0.671805
1.012264 -1.150851 -0.695482
1.109421 -1.149496 -0.707352
1.083307 -1.149997 -0.706899
1.111305 -1.149415 -0.686569
1.207366 -1.147370 -0.692469
1.211010 -1.147304 -0.677294
1.270354 -1.146592 -0.683923
1.236302 -1.146864 -0.670039
1.345074 -1.145476 -0.669222
1.300614 -1.146239 -0.681663
1.389023 -1.145460 -0.717539
1.400898 -1.144890 -0.669345
1.472871 -1.144557 -0.712000
1.424254 -1.144872 -0.690727
1.517464 -1.143902 -0.700844
1.524732 -1.143690 -0.678916
1.599115 -1.142658 -0.679484
1.621367 -1.142331 -0.668520
1.687299 -1.141230 -0.688375
1.664354 -1.141576 -0.714870
1.750321 -1.139876 -0.723280
1.733773 -1.140367 -0.676731
1.816758 -1.138101 -0.702753
1.804817 -1.138636 -0.670700
1.859221 -1.135933 -0.726511
1.881895 -1.135681 -0.676846
1.950270 -1.131459 -0.681561
1.915794 -1.133832 -0.676021
0.597946 -1.155016 -0.567858
0.594899 -1.154900 -0.595247
0.675062 -1.154256 -0.563666
0.627864 -1.154789 -0.595067
0.700424 -1.154099 -0.563232
0.685884 -1.154172 -0.565741
0.797412 -1.152761 -0.594801
0.768453 -1.153281 -0.567188
0.824399 -1.152712 -0.584480
0.804398 -1.152639 -0.575089
0.887001 -1.152769 -0.544606
0.895490 -1.152331 -0.596865
0.969226 -1.151810 -0.574758
0.942482 -1.152229 -0.575729
1.030874 -1.150781 -0.559036
1.044214 -1.150583 -0.600902
1.108474 -1.149643 -0.558560
1.060627 -1.150323 -0.561387
1.126138 -1.149241 -0.596477
1.124048 -1.149360 -0.568920
1.195280 -1.148371 -0.582422
1.185852 -1.148428 -0.586529
1.246468 -1.147618 -0.596752
1.280914 -1.147601 -0.550007
1.354163 -1.145231 -0.599889
1.323014 -1.146235 -0.582473
1.379568 -1.145229 -0.566071
1.367654 -1.145385 -0.565663
1.442151 -1.144635 -0.560827
1.425289 -1.144564 -0.575218
1.528600 -1.144178 -0.566792
1.503714 -1.144420 -0.548641
1.554310 -1.143688 -0.598651
1.652177 -1.142439 -0.568391
1.623217 -1.142700 -0.599916
1.715106 -1.141319 -0.572831
1.682269 -1.141992 -0.554241
1.761393 -1.140509 -0.570870
1.815854 -1.139676 -0.545540
1.902889 -1.136873 -0.592033
1.858611 -1.138457 -0.573996
1.957487 -1.135260 -0.567020
1.937073 -1.136411 -0.554592
2.029059 -1.131692 -0.555849
1.984599 -1.134391 -0.550142
2.049182 -1.129767 -0.562418
0.584983 -1.155697 0.151109
0.570687 -1.155883 0.157674
0.678617 -1.154924 0.151000
0.738268 -1.154698 0.177467
0.745384 -1.154760 0.194267
0.857834 -1.152700 0.143802
0.824088 -1.153232 0.158036
0.895638 -1.152181 0.165196
0.871486 -1.152463 0.164436
0.932367 -1.151841 0.136970
0.935420 -1.151352 0.185423
1.013519 -1.151351 0.179985
1.039645 -1.151372 0.137210
1.094346 -1.151315 0.178869
1.060562 -1.151456 0.170138
1.162083 -1.150402 0.170038
1.124557 -1.151052 0.189318
1.206895 -1.149884 0.194443
1.285066 -1.148541 0.142796
1.233378 -1.149468 0.192458
1.348352 -1.147882 0.185854
1.307708 -1.148350 0.150894
1.410336 -1.147238 0.140466
1.374215 -1.147635 0.181802
1.450636 -1.147048 0.169119
1.423326 -1.147332 0.177159
1.532676 -1.146486 0.186667
1.498399 -1.146670 0.166874
1.577543 -1.146174 0.158095
1.587254 -1.146266 0.195253
1.662995 -1.145463 0.178252
1.603350 -1.145840 0.136597
1.719802 -1.145012 0.157086
1.707357 -1.145001 0.134387
1.778607 -1.144569 0.192425
1.739918 -1.144878 0.151914
1.823632 -1.144412 0.138996
1.803909 -1.144490 0.166712
1.870056 -1.144102 0.193905
1.872480 -1.144060 0.155192
1.963793 -1.142894 0.166171
1.923414 -1.143530 0.185573
1.995023 -1.142549 0.177983
1.993061 -1.142385 0.141710
2.075688 -1.141578 0.170334
2.050841 -1.141714 0.134573
2.145469 -1.140585 0.167042
2.110037 -1.141135 0.170032
2.184311 -1.140051 0.176091
2.184621 -1.140018 0.167132
2.269782 -1.138958 0.165373
2.257683 -1.138999 0.135581
2.316423 -1.138838 0.171130
2.283429 -1.138901 0.183236
2.370540 -1.138243 0.156008
2.342651 -1.138462 0.147250
2.423192 -1.137282 0.153773
2.492445 -1.135574 0.153059
2.498040 -1.136219 0.179597
1.843040 -1.145785 0.666300
1.798306 -1.146428 0.640606
1.874638 -1.145321 0.682682
1.893845 -1.145571 0.630321
1.961384 -1.143932 0.674326
1.932264 -1.144756 0.656660
2.025755 -1.142918 0.653174
2.004517 -1.143572 0.651605
2.092975 -1.136852 0.678396
2.063960 -1.141643 0.654243
2.153690 -1.133742 0.649906
2.099569 -1.141128 0.627171
2.105795 -1.136353 0.661292
2.164605 -1.135731 0.632237
2.205712 -1.122274 0.650646
2.195049 -1.118257 0.667225
2.184032 -1.127466 0.657365
2.234300 -1.082738 0.684931
2.258547 -1.093124 0.657638
2.223516 -1.113091 0.653857
2.260847 -1.035902 0.677173
2.223082 -0.963764 0.686960
2.271678 -0.967032 0.660340
2.184951 -0.906564 0.686599
2.266088 -0.910595 0.644091
2.249682 -0.942484 0.665407
2.141473 -0.834435 0.676041
2.168916 -0.867242 0.677662
2.203877 -0.856912 0.652231
2.190246 -0.878674 0.671721
2.229393 -0.838350 0.628661
2.300569 -1.093592 0.628162
2.332213 -1.052205 0.633593
2.331473 -1.013252 0.637398
2.281725 -0.965425 0.654429
2.315906 -0.982998 0.642971
2.290748 -0.930035 0.639728
-1.106609 -1.169011 0.729259
-1.129351 -1.168970 0.737015
-1.046582 -1.169408 0.720197
-1.057893 -1.169455 0.749577
-0.994889 -1.169059 0.728141
-1.018644 -1.169304 0.737246
-0.955325 -1.168700 0.736565
-0.979436 -1.168995 0.741492
-0.881989 -1.167886 0.712268
-0.900758 -1.168115 0.735468
-0.799600 -1.167536 0.690352
-0.854408 -1.167646 0.708212
-0.747237 -1.166598 0.717286
-0.780730 -1.167183 0.727271
-0.690290 -1.166081 0.729390
-0.700921 -1.166169 0.725476
-0.645094 -1.165799 0.710122
-0.664242 -1.165901 0.726864
-0.563899 -1.164873 0.719784
-0.610087 -1.165477 0.693236
-0.520018 -1.164425 0.743403
-0.538168 -1.164652 0.734693
-0.468289 -1.163912 0.728053
-0.465781 -1.163839 0.707256
-0.391291 -1.163686 0.720550
-0.393041 -1.163711 0.744089
-0.336324 -1.163279 0.743944
-0.341477 -1.163459 0.721694
-0.247159 -1.162544 0.728290
-0.292650 -1.162902 0.730857
-0.185308 -1.162016 0.715062
-0.211808 -1.162215 0.731863
-0.133926 -1.161680 0.699358
-0.135942 -1.161626 0.737789
-0.091521 -1.161433 0.725948
-0.089088 -1.161483 0.694454
-0.035833 -1.160922 0.705725
-0.034697 -1.160872 0.714597
0.005433 -1.160111 0.724970
0.074972 -1.158962 0.692529
0.098935 -1.158923 0.743540
0.162030 -1.158247 0.698027
0.230077 -1.158512 0.697208
0.306190 -1.157739 0.701125
0.260997 -1.158498 0.722205
0.322558 -1.157553 0.744449
0.343480 -1.157282 0.697673
0.389072 -1.156474 0.738125
0.396350 -1.156656 0.711717
0.476347 -1.156375 0.688739
0.449630 -1.156329 0.710970
0.511565 -1.156041 0.749051
0.508179 -1.156211 0.708348
0.578099 -1.156391 0.697178
0.606942 -1.156165 0.745223
0.664186 -1.155732 0.710136
0.665815 -1.155712 0.692259
0.716516 -1.155391 0.689359
0.713421 -1.155525 0.734209
0.787606 -1.155155 0.716253
0.749841 -1.155282 0.701534
1.794226 -1.096566 0.980256
1.829522 -1.019128 0.973549
1.816060 -1.052781 0.984678
1.861165 -1.040105 0.935392
1.836847 -0.975698 0.959575
1.824061 -0.976807 0.978135
1.848514 -0.982980 0.944722
1.803417 -0.901632 0.984352
1.824458 -0.912463 0.957862
1.807530 -0.856626 0.960280
1.793181 -0.808218 0.958483
0.850596 -1.154362 1.087986
0.829502 -1.154381 1.088694
0.893853 -1.153818 1.113649
0.881078 -1.154073 1.100032
0.983966 -1.153220 1.103213
0.961259 -1.153738 1.068345
1.013635 -1.153243 1.073041
0.993893 -1.153474 1.074842
1.098994 -1.152123 1.089966
1.070281 -1.152378 1.093421
1.160225 -1.151754 1.099269
1.121036 -1.151982 1.089794
1.193784 -1.151574 1.111955
1.191878 -1.151621 1.093587
1.263801 -1.151235 1.090139
1.243392 -1.151428 1.080203
1.330381 -1.150460 1.099604
1.341355 -1.150682 1.059084
1.415207 -1.150032 1.085853
1.369479 -1.150228 1.092978
1.463978 -1.149805 1.059403
1.432874 -1.149974 1.094906
1.538772 -1.148967 1.075992
1.481010 -1.149727 1.072073
1.584929 -1.147482 1.106686
1.549626 -1.148685 1.096256
1.644579 -1.143819 1.091356
1.628275 -1.145585 1.061019
1.713875 -1.128737 1.100787
1.721860 -1.129052 1.070904
1.768280 -1.079223 1.081067
1.731056 -1.118866 1.089171
1.783932 -1.009275 1.095393
1.785425 -1.033424 1.077310
1.774351 -0.890030 1.061907
1.782179 -0.942554 1.085153
1.751335 -0.835660 1.110188
1.766607 -0.863025 1.066153
1.741723 -0.806165 1.106444
0.827729 -1.154145 1.135181
0.807558 -1.154156 1.139836
0.876998 -1.154017 1.132488
0.889594 -1.153912 1.153823
0.986499 -1.153111 1.155203
0.975545 -1.153109 1.125927
1.009744 -1.152881 1.158353
1.001640 -1.152909 1.138276
1.080497 -1.152151 1.149933
1.078597 -1.152183 1.156979
1.165449 -1.152038 1.172270
1.120743 -1.151867 1.130427
1.229343 -1.151696 1.165012
1.209750 -1.151548 1.126241
1.260920 -1.151111 1.123780
1.260806 -1.151411 1.173028
1.344997 -1.150246 1.144734
1.336287 -1.150316 1.136467
1.407425 -1.150097 1.156901
1.376002 -1.150108 1.146067
1.451666 -1.149935 1.163253
1.446245 -1.149993 1.145888
1.507598 -1.149254 1.164519
1.593057 -1.146961 1.141280
1.568938 -1.147792 1.144204
1.654253 -1.139952 1.168936
1.604305 -1.146184 1.177150
1.679076 -1.136228 1.124367
1.717401 -1.114871 1.166722
1.755021 -1.074973 1.144032
1.733966 -1.099277 1.151963
1.760327 -1.039104 1.159011
1.764560 -1.053721 1.140925
1.760924 -0.945327 1.172165
1.763673 -1.000692 1.164904
1.764020 -0.894370 1.128098
1.761206 -0.939609 1.169321
1.742560 -0.825517 1.149865
1.754091 -0.875230 1.161392
1.737325 -0.812291 1.153435
-3.017240 -1.151028 1.255494
-3.036635 -1.139309 1.265665
-2.957698 -1.169141 1.286527
-3.011601 -1.152278 1.245405
-2.901313 -1.173626 1.248406
-2.905231 -1.173787 1.294839
-2.829485 -1.176814 1.271210
-2.849484 -1.176190 1.287605
-2.793741 -1.177696 1.270823
-2.804104 -1.177406 1.266340
-2.718633 -1.179277 1.278950
-2.745574 -1.178884 1.279302
-2.687258 -1.179693 1.297463
-2.596790 -1.179740 1.260096
-2.631065 -1.179749 1.259075
-2.552083 -1.179603 1.243587
-2.554569 -1.179822 1.297518
-2.469807 -1.179527 1.250133
-2.433514 -1.179451 1.263831
-2.442212 -1.179632 1.298664
-2.338116 -1.178865 1.267234
-2.377676 -1.179199 1.266379
-2.287798 -1.178641 1.267068
-2.330682 -1.178865 1.248726
-2.251855 -1.178494 1.293622
-2.249678 -1.178536 1.267576
-2.209956 -1.178378 1.268819
-3.079397 -1.089505 1.298331
-3.058468 -1.104287 1.245510
-3.073041 -1.085920 1.261408
-3.086775 -1.060497 1.295081
-3.087628 -1.045352 1.291644
-3.089544 -1.001355 1.285786
-3.082600 -0.986808 1.243153
-3.066939 -0.894421 1.255031
-3.062210 -0.879734 1.253161
-3.043263 -0.821319 1.272103
-3.043458 -0.818566 1.247664
-1.122336 -0.856720 2.948575
-1.137709 -0.853362 2.942464
-1.104982 -0.867882 2.956937
0.221697 -1.101346 3.402190
0.199690 -1.101785 3.437600
0.275658 -1.081485 3.408488
0.256119 -1.087847 3.407583
0.351346 -1.053706 3.419184
0.338203 -1.058825 3.420759
0.407590 -1.014203 3.409784
0.374302 -1.040621 3.407136
0.420223 -0.953490 3.444660
0.424193 -0.979369 3.422439
0.429297 -0.901063 3.446971
0.435854 -0.975320 3.406780
0.456896 -0.888930 3.415035
0.440754 -0.932731 3.424041
0.470700 -0.822090 3.406705
0.438102 -0.858457 3.442850
-0.321246 -1.132185 -2.109327
-0.250964 -1.138148 -2.093502
-0.273327 -1.134609 -2.108956
-0.203592 -1.138553 -2.117777
-0.201178 -1.141427 -2.089224
-0.686382 -1.035074 -2.115009
-0.696396 -1.015698 -2.131597
-0.811418 -0.917938 -2.081761
-0.741318 -0.989211 -2.116498
-0.788534 -0.964623 -2.091928
-0.733018 -0.990776 -2.121670
-0.785305 -0.915530 -2.103038
-0.734472 -0.931746 -2.142118
-0.816591 -0.832396 -2.082973
-0.779893 -0.877962 -2.111447
-0.752625 -0.856042 -2.135525
-0.642381 -1.070292 -2.085763
-0.583205 -1.078028 -2.110861
-0.592732 -1.079676 -2.098640
-0.660171 -1.042038 -2.119441
-0.664543 -1.064717 -2.082925
-0.495105 -1.111240 -2.096658
-0.543238 -1.097866 -2.093315
-0.444340 -1.123593 -2.092343
-0.446933 -1.112881 -2.130846
-0.417772 -1.117787 -2.132905
-0.371757 -1.125469 -2.127660
-0.133991 -1.153387 -1.684076
-0.165109 -1.153359 -1.688281
-0.109187 -1.153206 -1.701688
-0.106917 -1.153690 -1.654294
-0.034007 -1.153211 -1.703405
-0.021781 -1.153428 -1.652803
0.056395 -1.152849 -1.679902
0.013347 -1.153100 -1.668492
0.095775 -1.152725 -1.657401
0.151816 -1.152179 -1.703525
0.153168 -1.152366 -1.664122
0.242712 -1.152616 -1.703268
0.220318 -1.152509 -1.690845
0.292115 -1.153264 -1.666537
0.253314 -1.152752 -1.698482
0.370001 -1.152540 -1.673878
0.313520 -1.153230 -1.669679
0.431782 -1.151235 -1.689284
0.409142 -1.152395 -1.652810
0.447479 -1.151744 -1.658786
0.447011 -1.150941 -1.694865
0.554726 -1.150132 -1.672246
0.506855 -1.150762 -1.671976
0.613283 -1.150042 -1.695713
0.589588 -1.150086 -1.671718
0.676581 -1.149929 -1.692991
0.649765 -1.150171 -1.675544
0.694008 -1.149943 -1.688766
0.792558 -1.150029 -1.663162
0.748494 -1.149860 -1.708244
0.863402 -1.149644 -1.686311
0.834546 -1.149862 -1.660165
0.917766 -1.148946 -1.690944
0.890447 -1.149370 -1.675984
0.935646 -1.148602 -1.704532
0.948315 -1.148538 -1.678142
0.995292 -1.147652 -1.705363
1.108244 -1.146866 -1.675627
1.067507 -1.147197 -1.686392
1.164127 -1.146332 -1.680013
1.148240 -1.146472 -1.700389
1.227555 -1.145971 -1.659646
1.179100 -1.146231 -1.676860
1.265557 -1.145599 -1.696460
1.237969 -1.145907 -1.669114
1.355052 -1.143641 -1.695008
1.307980 -1.144948 -1.684328
1.416141 -1.142023 -1.688529
1.369371 -1.143397 -1.683981
1.470021 -1.140439 -1.680016
1.422747 -1.142117 -1.668369
1.528715 -1.137877 -1.681857
1.490420 -1.139492 -1.691057
1.601551 -1.133274 -1.657634
1.569487 -1.135780 -1.656080
1.614733 -1.131171 -1.667104
-0.133165 -1.155516 -1.237105
-0.150562 -1.155477 -1.237312
-0.082448 -1.155635 -1.252762
-0.095953 -1.155594 -1.239779
-0.005382 -1.155406 -1.250107
-0.047317 -1.155545 -1.233250
0.049083 -1.154962 -1.220149
0.093631 -1.153932 -1.263124
0.110946 -1.154321 -1.224936
0.169260 -1.153397 -1.234769
0.126115 -1.153186 -1.274090
0.233240 -1.153223 -1.254673
0.221382 -1.153101 -1.236401
0.303269 -1.154094 -1.275903
0.360608 -1.153986 -1.265867
0.323665 -1.154014 -1.256148
0.408916 -1.153710 -1.261101
0.402909 -1.153766 -1.249350
0.444926 -1.153428 -1.277282
0.482820 -1.153353 -1.223950
0.550991 -1.152782 -1.278932
0.505207 -1.153232 -1.233458
0.602311 -1.152772 -1.244842
0.655211 -1.152240 -1.240003
0.649313 -1.152141 -1.271030
0.721197 -1.150983 -1.228130
0.785627 -1.150262 -1.259441
0.755188 -1.150549 -1.232466
0.836843 -1.149652 -1.254855
0.807160 -1.150109 -1.227637
0.882149 -1.149362 -1.227783
0.901329 -1.148766 -1.269173
0.934285 -1.148376 -1.280345
1.029385 -1.148171 -1.248593
0.991652 -1.148192 -1.271131
1.075384 -1.147780 -1.226329
1.070575 -1.147673 -1.260471
1.164412 -1.146243 -1.223620
1.130536 -1.146823 -1.263995
1.227850 -1.145980 -1.278022
1.179645 -1.146215 -1.259520
1.267684 -1.145629 -1.279761
1.253196 -1.145588 -1.219798
1.334591 -1.144798 -1.280926
1.314673 -1.145093 -1.245016
1.410501 -1.143754 -1.279501
1.386867 -1.144281 -1.229745
1.453141 -1.143461 -1.244592
1.420263 -1.143710 -1.265785
1.528560 -1.142347 -1.261238
1.503033 -1.142702 -1.267515
1.599932 -1.140587 -1.254992
1.550506 -1.141935 -1.251376
1.653446 -1.138425 -1.230762
1.610144 -1.140129 -1.266371
1.717105 -1.133226 -1.261366
1.700137 -1.135391 -1.224007
1.752418 -1.129874 -1.238058
1.740160 -1.130706 -1.254888
-1.602890 -1.161620 -0.995138
-1.650515 -1.161492 -1.019918
-1.558679 -1.161292 -1.033415
-1.592385 -1.161554 -0.999926
-1.483036 -1.160717 -0.985817
-1.507814 -1.160999 -0.983776
-1.447739 -1.160300 -1.008200
-1.354162 -1.159824 -1.026151
-1.371310 -1.159956 -1.020862
-1.295367 -1.159708 -0.988195
-1.324511 -1.159733 -0.998642
-1.231521 -1.159809 -1.031693
-1.287710 -1.159689 -0.981023
-1.208524 -1.160057 -0.995011
-1.121164 -1.159571 -1.000936
-1.136924 -1.159763 -0.989217
-1.065582 -1.158858 -1.013067
-1.083234 -1.158943 -1.029014
-1.012841 -1.158216 -0.997318
-0.992874 -1.157791 -1.026757
-0.925150 -1.157019 -1.022302
-0.962802 -1.157557 -0.977884
-0.913575 -1.157334 -0.974537
-0.798247 -1.157339 -1.016882
-0.844427 -1.157206 -1.030384
-0.763118 -1.157352 -1.012055
-0.752463 -1.157515 -0.987762
-0.693829 -1.157732 -0.983066
-0.713224 -1.157200 -1.009035
-0.626789 -1.157495 -1.000728
-0.631547 -1.157834 -0.985962
-0.571859 -1.157197 -0.988976
-0.611444 -1.156664 -1.034511
-0.501996 -1.155987 -1.030915
-0.546741 -1.156796 -0.989769
-0.437518 -1.156409 -0.989716
-0.443075 -1.156610 -0.974145
-0.381525 -1.156375 -0.978381
-0.393471 -1.155943 -1.018785
-0.358066 -1.156292 -0.976722
-0.251564 -1.155849 -1.000401
-0.296233 -1.155826 -0.997186
-0.189031 -1.156265 -1.004629
-0.195496 -1.156134 -1.023616
-0.168099 -1.156485 -0.979369
-0.176920 -1.156274 -1.022517
-0.065963 -1.156073 -1.017734
-0.097667 -1.156435 -1.002218
-0.038320 -1.155836 -0.982486
-0.009685 -1.155758 -1.027396
0.014402 -1.155661 -0.984883
0.012445 -1.155740 -1.029975
0.108115 -1.156341 -0.990469
0.097795 -1.156107 -1.034321
0.179240 -1.156214 -0.985086
0.172492 -1.156299 -0.983334
0.245582 -1.154608 -1.003506
0.200728 -1.155511 -1.007632
0.262668 -1.154702 -0.981313
0.280031 -1.154357 -1.007295
-3.159330 -0.953814 -0.732874
-3.166492 -0.890066 -0.733442
-3.160565 -0.848916 -0.742357
-3.138383 -0.848118 -0.765448
-3.153152 -0.811185 -0.751702
-3.168911 -0.806097 -0.735440
-2.919067 -1.131193 -0.730811
-2.866478 -1.129634 -0.781641
-2.782763 -1.151317 -0.750592
-2.814657 -1.147122 -0.752236
-2.709018 -1.160124 -0.730889
-2.720788 -1.158823 -0.735210
-2.649025 -1.160183 -0.771565
-2.692971 -1.158854 -0.756032
-2.595192 -1.161775 -0.777569
-2.626561 -1.161078 -0.766459
-2.525051 -1.163270 -0.786131
-2.576654 -1.162387 -0.775164
-2.487444 -1.164169 -0.765975
-2.516452 -1.163733 -0.771619
-2.417946 -1.164945 -0.749685
-2.443760 -1.164933 -0.745908
-2.383981 -1.164847 -0.776659
-2.363918 -1.165277 -0.732656
-2.288152 -1.164934 -0.787773
-2.294251 -1.165334 -0.727473
-2.223705 -1.165128 -0.779798
-2.261575 -1.165338 -0.729713
-2.210243 -1.165414 -0.736452
-3.018074 -1.075778 -0.784021
-3.067373 -1.069104 -0.750863
-3.081331 -1.061332 -0.749228
-3.120631 -1.044841 -0.731171
-3.128690 -1.008204 -0.749359
-3.124856 -1.007312 -0.753433
-3.049325 -1.064989 -0.773917
-2.990729 -1.088161 -0.780127
-2.992392 -1.093103 -0.765333
-2.933666 -1.121418 -0.745894
-2.949162 -1.105650 -0.774921
-3.113736 -0.978047 -0.771722
-3.098558 -0.980699 -0.785662
-3.126938 -0.938121 -0.769074
-3.120545 -0.871282 -0.781764
-1.510040 -1.163096 -0.685866
-1.520202 -1.162832 -0.710908
-1.420550 -1.161794 -0.700733
-1.438400 -1.161862 -0.717555
-1.389109 -1.161749 -0.683506
-1.392917 -1.161451 -0.718036
-1.310656 -1.161415 -0.681985
-1.349490 -1.161384 -0.701534
-1.262766 -1.161042 -0.709598
-1.270822 -1.161205 -0.688840
-1.187720 -1.160550 -0.721638
-1.111940 -1.161192 -0.693020
-1.145040 -1.161081 -0.691935
-1.051177 -1.160785 -0.669426
-1.091060 -1.160999 -0.703948
-0.989523 -1.159900 -0.711285
-1.013201 -1.160446 -0.665989
-0.933365 -1.159563 -0.706322
-0.952498 -1.159848 -0.691102
-0.883940 -1.160099 -0.668774
-0.913787 -1.159733 -0.686736
-0.823398 -1.159944 -0.710970
-0.852792 -1.159757 -0.714249
-0.738755 -1.160238 -0.685604
-0.778789 -1.160178 -0.700632
-0.684244 -1.160481 -0.689575
-0.688450 -1.160162 -0.724854
-0.616511 -1.160633 -0.714248
-0.648572 -1.160553 -0.703196
-0.597178 -1.160992 -0.681685
-0.563357 -1.160674 -0.716906
-0.522644 -1.160604 -0.698467
-0.531964 -1.160613 -0.700813
-0.442836 -1.159959 -0.672717
-0.432118 -1.159955 -0.726949
-0.387380 -1.159223 -0.690625
-0.380570 -1.159103 -0.675513
-0.322765 -1.158793 -0.702397
-0.335067 -1.158955 -0.690175
-0.259771 -1.158287 -0.716917
-0.279521 -1.158882 -0.691181
-0.223029 -1.158932 -0.673583
-0.201464 -1.158039 -0.715153
-0.167013 -1.157857 -0.720166
-0.150331 -1.158160 -0.685800
-0.097160 -1.158096 -0.678623
-0.116073 -1.158249 -0.689401
-0.041145 -1.157637 -0.714060
-0.006896 -1.157280 -0.672636
0.036074 -1.156901 -0.714680
0.015177 -1.157096 -0.679579
0.112595 -1.157158 -0.710071
0.105129 -1.157155 -0.673118
0.168047 -1.157525 -0.687059
0.125691 -1.157289 -0.698440
0.226863 -1.156984 -0.676881
0.205086 -1.157057 -0.717303
0.295556 -1.155622 -0.700076
0.290499 -1.155678 -0.718114
0.360667 -1.155368 -0.688358
0.319078 -1.155241 -0.677515
0.414741 -1.155660 -0.699983
0.371293 -1.155384 -0.670152
0.482361 -1.155224 -0.166607
0.465537 -1.155380 -0.134375
0.549942 -1.154670 -0.122807
0.517946 -1.154886 -0.127134
0.609088 -1.154614 -0.144389
0.569267 -1.154641 -0.131207
0.675392 -1.154137 -0.152929
0.617574 -1.154643 -0.159394
0.735335 -1.153659 -0.142441
0.787012 -1.153368 -0.172211
0.759452 -1.153416 -0.119642
0.802394 -1.153226 -0.141111
0.875707 -1.152492 -0.165278
0.878586 -1.152409 -0.120194
0.967853 -1.151824 -0.130657
0.932648 -1.152070 -0.159391
1.046890 -1.150793 -0.140143
1.001434 -1.151495 -0.127555
1.103944 -1.150060 -0.160185
1.099881 -1.150084 -0.165349
1.143373 -1.150007 -0.144887
1.124218 -1.150035 -0.138620
1.217108 -1.149630 -0.149875
1.186715 -1.150035 -0.151521
1.276165 -1.148441 -0.164792
1.264259 -1.148626 -0.112708
1.334639 -1.147325 -0.164703
1.302359 -1.147938 -0.122786
1.408116 -1.146551 -0.125216
1.388759 -1.146561 -0.161161
1.471118 -1.146373 -0.134981
1.436276 -1.146372 -0.128557
1.522264 -1.146132 -0.127731
1.488959 -1.146391 -0.172874
1.560181 -1.145800 -0.167204
1.569768 -1.145531 -0.124183
1.630925 -1.144596 -0.156590
1.623312 -1.144708 -0.135340
1.722509 -1.143707 -0.115687
1.683927 -1.143903 -0.129797
1.780081 -1.143200 -0.147349
1.751771 -1.143428 -0.139427
1.846156 -1.142167 -0.158961
1.808401 -1.142856 -0.134342
1.908873 -1.141683 -0.119553
1.855396 -1.142085 -0.153864
1.947037 -1.141248 -0.143707
1.924583 -1.141363 -0.148211
2.024261 -1.140318 -0.144338
2.002691 -1.140760 -0.129721
2.079733 -1.139315 -0.140943
2.053241 -1.139860 -0.138340
2.136539 -1.138075 -0.151397
2.128914 -1.138491 -0.130065
2.195580 -1.136746 -0.141659
2.163039 -1.137804 -0.126472
2.257861 -1.133418 -0.170712
2.218652 -1.136282 -0.127819
2.322497 -1.131214 -0.130558
2.286947 -1.133128 -0.129748
-1.610371 -1.167218 -0.026811
-1.652740 -1.167735 -0.022592
-1.544013 -1.166808 -0.017869
-1.497180 -1.166414 -0.003561
-1.533856 -1.166539 -0.045172
-1.422170 -1.165599 0.010275
-1.470830 -1.166053 -0.023843
-1.357690 -1.165397 -0.028606
-1.388887 -1.165452 0.008743
-1.327392 -1.165393 -0.011094
-1.345462 -1.165383 -0.030154
-1.245825 -1.165077 -0.005763
-1.268589 -1.165242 -0.018942
-1.197382 -1.164894 -0.029961
-1.225023 -1.164933 0.009677
-1.130548 -1.164823 -0.016351
-1.154815 -1.164726 -0.017486
-1.096261 -1.164757 -0.049003
-1.068960 -1.165482 -0.000416
-1.014294 -1.165180 -0.005326
-1.027595 -1.165316 -0.013651
-0.928988 -1.164174 -0.004979
-0.943979 -1.164332 -0.003796
-0.875230 -1.163267 -0.011510
-0.904259 -1.163508 -0.046138
-0.800663 -1.162341 0.001750
-0.855635 -1.162916 -0.019123
-0.756262 -1.162305 -0.017365
-0.793641 -1.162317 0.000168
-0.679714 -1.162182 -0.018452
-0.717900 -1.161903 -0.045876
-0.616503 -1.161658 -0.024199
-0.663003 -1.162068 -0.023557
-0.597356 -1.161840 0.004298
-0.546989 -1.161559 -0.027817
-0.450787 -1.161204 -0.024324
-0.374141 -1.160356 -0.035639
-0.425420 -1.160638 -0.034761
-0.314222 -1.160484 -0.026996
-0.345958 -1.160531 -0.008417
-0.262133 -1.160480 -0.025781
-0.305258 -1.160402 -0.045075
-0.199232 -1.160033 -0.006523
-0.210819 -1.160303 -0.026400
-0.139302 -1.159470 -0.046713
-0.173091 -1.160204 -0.039422
-0.078094 -1.159083 -0.022279
-0.086814 -1.159076 0.002193
-0.038372 -1.159173 0.009161
-0.034607 -1.159237 -0.049964
0.053119 -1.159083 -0.047107
0.021950 -1.159402 -0.016934
0.086549 -1.158923 -0.048937
0.132959 -1.159200 0.004554
0.135011 -1.158840 -0.029338
0.240322 -1.157997 -0.011285
0.229381 -1.158128 -0.032043
0.274663 -1.157932 -0.034276
0.252727 -1.157974 -0.036452
0.603778 -1.155086 0.091747
0.568586 -1.154985 0.074051
0.676098 -1.154658 0.119539
0.632399 -1.154868 0.099292
0.695863 -1.154532 0.124078
0.788191 -1.152912 0.081263
0.855256 -1.152678 0.128012
0.826474 -1.152692 0.087336
0.878953 -1.152469 0.124245
0.881096 -1.152416 0.098885
0.973882 -1.151410 0.130748
1.029044 -1.151104 0.093852
1.006523 -1.151296 0.125595
1.075363 -1.150864 0.095755
1.063526 -1.150859 0.090568
1.163036 -1.149754 0.102544
1.131517 -1.150198 0.089075
1.225327 -1.149110 0.127862
1.179476 -1.149397 0.088350
1.282332 -1.148691 0.102106
1.251958 -1.148914 0.101764
1.305367 -1.148363 0.120464
1.367243 -1.147698 0.116177
1.435497 -1.147047 0.130086
1.419178 -1.147300 0.115680
1.493854 -1.147049 0.080242
1.488069 -1.147065 0.086548
1.589938 -1.145984 0.120533
1.544300 -1.146380 0.107163
1.663402 -1.145296 0.093173
1.603458 -1.145985 0.089649
1.721223 -1.144730 0.090111
1.685140 -1.145130 0.121900
1.735024 -1.144572 0.080112
1.736289 -1.144646 0.094439
1.836371 -1.144195 0.115624
1.846691 -1.144291 0.133460
1.894779 -1.143301 0.085502
1.862588 -1.143784 0.098822
1.959121 -1.142368 0.094184
1.952470 -1.142384 0.084888
2.013505 -1.141889 0.098431
2.013373 -1.141678 0.076309
2.077171 -1.141348 0.106176
2.067042 -1.141420 0.098129
2.137331 -1.140470 0.095813
2.133641 -1.140497 0.086014
2.213633 -1.139162 0.089286
2.159332 -1.140214 0.127737
2.231669 -1.138998 0.097067
2.329710 -1.137939 0.095736
2.305198 -1.138494 0.123841
2.354460 -1.137878 0.115012
2.443654 -1.134725 0.082972
2.455001 -1.136010 0.132184
2.508288 -1.132447 0.094556
2.481534 -1.133630 0.091404
-2.126175 -1.171725 0.169911
-2.127363 -1.171543 0.142160
-2.080799 -1.171535 0.190476
-2.060210 -1.171374 0.158779
-2.002751 -1.170825 0.143854
-1.978825 -1.170581 0.194675
-1.915737 -1.170015 0.144439
-1.939447 -1.170395 0.189506
-1.845925 -1.170015 0.172459
-1.899347 -1.169858 0.135385
-1.802451 -1.169909 0.171596
-1.844170 -1.170113 0.188521
-1.763444 -1.169796 0.192162
-1.771203 -1.169498 0.138808
-1.694025 -1.169083 0.141158
-1.719016 -1.169220 0.158681
-1.620730 -1.168920 0.166880
-1.644738 -1.168978 0.160828
-1.537960 -1.168093 0.140286
-1.591811 -1.168460 0.135209
-1.484464 -1.167788 0.179515
-1.529249 -1.168092 0.155317
-1.434979 -1.167018 0.145828
-1.473021 -1.167475 0.160114
0.318547 -1.157529 0.265131
0.314968 -1.157460 0.278803
0.404586 -1.157020 0.276278
0.397850 -1.157469 0.310362
0.493688 -1.156814 0.318464
0.436673 -1.156520 0.257765
0.512002 -1.156639 0.313474
0.504810 -1.156416 0.260489
0.583226 -1.156062 0.275308
0.653840 -1.155679 0.311295
0.625341 -1.155851 0.263054
0.733831 -1.155030 0.271381
0.705948 -1.155391 0.276963
0.797560 -1.153834 0.281443
0.758041 -1.154654 0.280172
0.847324 -1.153364 0.280030
0.809191 -1.153772 0.299412
0.913330 -1.152513 0.292039
0.906885 -1.152911 0.315142
0.972469 -1.152157 0.272623
0.955283 -1.152048 0.265902
1.032679 -1.152149 0.300794
0.994072 -1.152191 0.318739
1.070871 -1.151886 0.262429
1.060448 -1.152037 0.311909
1.161767 -1.150248 0.304422
1.136824 -1.150795 0.312063
1.228660 -1.149690 0.288617
1.183753 -1.149959 0.267088
1.285374 -1.149670 0.289905
1.237789 -1.149635 0.303365
1.329922 -1.149352 0.273849
1.372422 -1.149432 0.308342
1.361836 -1.149423 0.304058
1.466771 -1.148051 0.282903
1.443797 -1.148176 0.261282
1.509169 -1.147182 0.270852
1.492830 -1.147869 0.314650
1.575553 -1.146608 0.288515
1.546110 -1.146687 0.280431
1.663159 -1.146164 0.305151
1.603229 -1.146309 0.277211
1.722650 -1.145385 0.280169
1.734516 -1.145207 0.264976
1.744743 -1.145353 0.292216
1.844218 -1.144939 0.313130
1.813290 -1.144413 0.258208
1.907965 -1.144265 0.310229
1.859602 -1.144673 0.301736
1.968319 -1.143494 0.291131
1.933962 -1.143869 0.292240
2.004492 -1.143052 0.279391
2.005705 -1.143196 0.298964
2.071342 -1.142424 0.280961
2.052274 -1.142705 0.293866
2.142431 -1.141501 0.271003
2.114135 -1.142194 0.314231
2.184414 -1.140851 0.270722
2.186213 -1.141237 0.317680
2.268007 -1.139674 0.292015
2.225935 -1.140346 0.290831
-1.115757 -1.168064 0.642130
-1.144834 -1.168142 0.684398
-1.054522 -1.169133 0.676281
-1.075127 -1.168757 0.664836
-0.989460 -1.168627 0.685462
-1.038702 -1.169005 0.632470
-0.929520 -1.168185 0.627374
-0.870749 -1.167648 0.658054
-0.916985 -1.168101 0.677977
-0.833757 -1.167456 0.639677
-0.827418 -1.167534 0.680739
-0.759380 -1.166929 0.673209
-0.792522 -1.167243 0.646326
-0.690283 -1.166190 0.630570
-0.720641 -1.166418 0.680425
-0.619418 -1.165562 0.682604
-0.665044 -1.165956 0.661369
-0.572709 -1.164801 0.678245
-0.608063 -1.165442 0.642489
-0.534808 -1.164237 0.685412
-0.437779 -1.163139 0.634075
-0.459196 -1.163664 0.666993
-0.400888 -1.163104 0.651223
-0.410163 -1.163484 0.677095
-0.332676 -1.162960 0.660004
-0.363229 -1.162883 0.656532
-0.267052 -1.162645 0.637271
-0.294806 -1.162703 0.645222
-0.206476 -1.162519 0.679386
-0.217176 -1.162378 0.637394
-0.160680 -1.161941 0.680042
-0.167021 -1.161875 0.647198
-0.060843 -1.160751 0.635569
-0.120742 -1.161549 0.680215
-0.022356 -1.160705 0.651511
0.056375 -1.159200 0.664304
0.048393 -1.159384 0.682087
0.113906 -1.158215 0.661213
0.095199 -1.158604 0.685213
0.161354 -1.158034 0.656549
0.136138 -1.158064 0.671882
0.239072 -1.158602 0.652805
0.234787 -1.158591 0.636170
0.271515 -1.158320 0.676406
0.249802 -1.158614 0.684007
0.359749 -1.157326 0.663547
0.318815 -1.157896 0.629553
0.419103 -1.156878 0.669589
0.392508 -1.156888 0.682507
0.464179 -1.156871 0.637654
0.456870 -1.156555 0.681043
0.555194 -1.156653 0.636587
0.515881 -1.156561 0.644967
0.600534 -1.156176 0.627989
0.595009 -1.156240 0.685253
0.646126 -1.155760 0.636057
0.630085 -1.155944 0.676890
0.729675 -1.155300 0.676534
0.688931 -1.155448 0.642401
0.777797 -1.154892 0.661836
0.761778 -1.155030 0.649823
-1.117504 -1.169989 0.923435
-1.130429 -1.170169 0.882905
-1.064507 -1.169471 0.883866
-1.097161 -1.169896 0.903138
-0.928641 -1.168290 0.902669
-0.969189 -1.168755 0.917154
-0.860134 -1.167665 0.902140
-0.894290 -1.168086 0.906146
-0.804846 -1.167313 0.908511
-0.849880 -1.167575 0.890649
-0.752454 -1.167002 0.895569
-0.788361 -1.167214 0.907203
-0.675513 -1.166665 0.896228
-0.627223 -1.166000 0.884181
-0.674862 -1.166669 0.904506
-0.587527 -1.165770 0.893821
-0.594929 -1.166016 0.926825
-0.530234 -1.165762 0.929549
-0.534337 -1.165600 0.901376
-0.443563 -1.165081 0.921867
-0.482149 -1.165248 0.893081
-0.376429 -1.164349 0.911444
-0.386042 -1.164588 0.933737
-0.355501 -1.163716 0.873383
-0.345145 -1.164004 0.918850
-0.265709 -1.163078 0.895705
-0.284378 -1.163560 0.933770
-0.196881 -1.162892 0.896063
-0.225680 -1.162970 0.898472
-0.155138 -1.162566 0.921933
-0.148278 -1.162415 0.875129
-0.096234 -1.161905 0.877299
-0.098273 -1.161889 0.909625
-0.006577 -1.161111 0.883881
-0.031687 -1.161336 0.927109
0.047362 -1.160524 0.877931
0.028148 -1.160976 0.908617
0.105307 -1.160414 0.903784
0.070291 -1.160578 0.906469
0.180442 -1.159678 0.885375
0.141565 -1.159932 0.873953
0.234869 -1.158814 0.890693
0.237750 -1.159117 0.934359
0.295003 -1.157835 0.913690
0.274349 -1.157959 0.882293
0.370043 -1.156868 0.917878
0.319999 -1.157235 0.889314
0.399113 -1.156644 0.891638
0.401314 -1.156887 0.930499
0.473099 -1.156261 0.904930
0.467609 -1.156071 0.886122
0.535214 -1.156111 0.894217
0.506290 -1.155966 0.887994
0.594584 -1.155572 0.920050
0.558521 -1.155915 0.906239
0.659857 -1.155030 0.934347
0.734966 -1.155615 0.875582
0.719295 -1.155108 0.929476
0.801911 -1.155945 0.897717
0.752334 -1.155420 0.913696
-2.119532 -1.176514 1.036368
-2.134175 -1.176654 1.038545
-2.082486 -1.176023 1.001583
-2.081064 -1.176276 1.043275
-1.996781 -1.175959 1.010382
-1.937998 -1.175893 1.015934
-1.959612 -1.175967 1.023925
-1.845901 -1.174741 1.011315
-1.893625 -1.175664 1.036594
-1.787868 -1.174261 1.031282
-1.840322 -1.174637 1.005954
-1.744800 -1.174093 1.023033
-1.755186 -1.174313 1.050310
-1.673244 -1.173746 1.057282
-1.699312 -1.173546 1.002360
-1.618062 -1.173205 1.030018
-1.607018 -1.173395 1.055627
-1.538755 -1.172307 1.020480
-1.566387 -1.172398 1.004157
-1.515343 -1.171987 1.007441
-1.493873 -1.172451 1.052028
-1.471744 -1.172095 1.037746
-1.356216 -1.171366 1.011439
-1.358352 -1.171248 0.998239
-1.293630 -1.171612 1.046269
-1.350280 -1.171583 1.037644
-1.232052 -1.171285 1.015429
-1.185687 -1.170909 1.011466
-1.223174 -1.171062 1.050582
-2.123719 -1.176971 1.114214
-2.138748 -1.176821 1.058297
-2.034238 -1.176306 1.107867
-2.082803 -1.176416 1.076178
-1.987571 -1.176135 1.068197
-1.943985 -1.175998 1.099371
-1.946760 -1.176020 1.085137
-1.865605 -1.175327 1.066543
-1.879303 -1.175489 1.088630
-1.810987 -1.174712 1.065197
-1.840749 -1.175011 1.065167
-1.755999 -1.174491 1.080024
-1.695599 -1.174073 1.061162
-1.710759 -1.174521 1.106135
-1.633408 -1.174115 1.112525
-1.615197 -1.173604 1.071218
-1.558423 -1.173330 1.115040
-1.575311 -1.173404 1.086961
-1.487700 -1.172605 1.100694
-1.533608 -1.172869 1.092682
-1.414236 -1.172115 1.057847
-1.440022 -1.172470 1.096095
-1.406247 -1.172256 1.087842
-1.335122 -1.171903 1.115462
-1.342905 -1.171872 1.086790
-1.236270 -1.171257 1.109575
-1.281444 -1.171540 1.107318
-1.186803 -1.170929 1.081900
-1.203755 -1.170999 1.074381
-1.371163 -1.172881 1.241134
-1.392581 -1.173079 1.218308
-1.314837 -1.171523 1.189330
-1.240777 -1.171151 1.196622
-1.243423 -1.171136 1.192247
-1.167860 -1.170291 1.190290
-1.222746 -1.171124 1.198422
-1.113180 -1.170169 1.225129
-1.152714 -1.170467 1.236601
-1.067818 -1.169669 1.210497
-1.066427 -1.169490 1.186558
-0.993685 -1.169343 1.226905
-1.011505 -1.169190 1.188664
-0.940235 -1.168915 1.199718
-0.982119 -1.169108 1.193638
-0.875766 -1.168161 1.201084
-0.915821 -1.168462 1.214678
-0.844161 -1.167844 1.185997
-0.853923 -1.167603 1.225295
-0.787470 -1.166935 1.196512
-0.716945 -1.166397 1.193010
-0.734929 -1.166668 1.232367
-0.616123 -1.166867 1.191893
-0.673687 -1.166701 1.198404
-0.590717 -1.166747 1.235603
-0.517490 -1.165913 1.186561
-0.551307 -1.166472 1.190565
-0.450048 -1.165074 1.209504
-0.485667 -1.165274 1.234100
-0.369474 -1.164913 1.223036
-0.424028 -1.164943 1.203442
-0.314772 -1.163852 1.200008
-0.355381 -1.164659 1.210309
-0.258614 -1.162865 1.215389
-0.277051 -1.163163 1.223065
-0.203120 -1.162430 1.220441
-0.225412 -1.162537 1.232321
-0.156417 -1.162007 1.235681
-0.151335 -1.161680 1.184137
-0.063475 -1.160889 1.228085
-0.091113 -1.161143 1.199761
-0.039198 -1.160890 1.227730
-0.048351 -1.160800 1.196863
0.042946 -1.161430 1.238634
0.012192 -1.160972 1.197849
0.110652 -1.160607 1.196191
0.080545 -1.161143 1.205472
0.142078 -1.160543 1.228140
0.159505 -1.159845 1.195268
0.238182 -1.159088 1.191542
0.193849 -1.159409 1.204172
0.304007 -1.158244 1.194088
0.252693 -1.158867 1.192395
0.333674 -1.157525 1.239417
0.408466 -1.157373 1.205240
0.388867 -1.157279 1.219090
0.486812 -1.156754 1.208760
0.475301 -1.156775 1.228884
0.551846 -1.156194 1.202782
0.498118 -1.156649 1.209374
0.682127 -1.155839 1.487950
0.713969 -1.155432 1.429339
0.789512 -1.154908 1.444205
0.741575 -1.155397 1.460315
0.853142 -1.153901 1.475528
0.837965 -1.154094 1.478048
0.906114 -1.153177 1.476838
0.867901 -1.153804 1.453884
0.967023 -1.152952 1.440597
0.957322 -1.152810 1.460866
1.028713 -1.152557 1.476510
1.024866 -1.152692 1.440209
1.051177 -1.152709 1.464167
1.167813 -1.152275 1.434263
1.142193 -1.152499 1.476734
1.217638 -1.151778 1.482291
1.193091 -1.152105 1.426889
1.282128 -1.151206 1.463140
1.241820 -1.151556 1.473000
1.353374 -1.150684 1.438461
1.309408 -1.150810 1.480820
1.417166 -1.149799 1.453091
1.385496 -1.150336 1.434475
1.462374 -1.149086 1.433478
1.502150 -1.147847 1.449966
1.492542 -1.148067 1.456859
1.571758 -1.145176 1.428185
1.563008 -1.145483 1.452863
1.651199 -1.130677 1.475195
1.609761 -1.141469 1.468171
1.625860 -1.137780 1.429727
1.696924 -1.085229 1.463043
1.695649 -1.088520 1.454660
1.667538 -1.121264 1.485183
1.714442 -1.020814 1.463663
