-3.132733 -1.052573 1.352980
-3.107895 -1.052904 1.354448
-3.431576 -1.004570 1.348771
-3.448868 -0.993182 1.345433
-3.441301 -0.991669 1.373708
-3.401298 -1.016307 1.370105
-3.421815 -1.009285 1.359064
-3.461951 -0.968269 1.372866
-3.464929 -0.972107 1.353377
-3.475558 -0.945174 1.369979
-3.367136 -1.027477 1.366102
-3.331137 -1.035028 1.361039
-3.333651 -1.035178 1.349707
-3.318955 -1.036281 1.370025
-3.326519 -1.036475 1.348146
-3.288236 -1.041011 1.346856
-3.485524 -0.900477 1.372934
-3.492642 -0.917207 1.346885
-3.488667 -0.882317 1.370917
-3.235522 -1.044691 1.364055
-3.250281 -1.043706 1.357841
-3.217465 -1.046330 1.358146
-3.231690 -1.044887 1.368241
-3.196486 -1.047720 1.371368
-3.024899 -1.041773 1.372532
-3.042491 -1.047080 1.357652
-3.406307 -0.969464 1.461880
-3.414400 -0.976852 1.443647
-3.420480 -0.962919 1.448174
-3.437158 -0.929518 1.442645
-3.416475 -0.946950 1.462907
-3.336290 -1.022403 1.463038
-3.345062 -1.019318 1.462783
-3.387427 -1.003592 1.443194
-3.371426 -1.005456 1.464667
-3.356666 -1.016944 1.453520
-3.301383 -1.033422 1.444373
-3.313788 -1.031137 1.444521
-3.278519 -1.035095 1.455251
-3.288043 -1.034981 1.447128
-3.423954 -0.912454 1.463202
-3.434211 -0.919131 1.449517
-3.441515 -0.870422 1.447872
-3.439118 -0.890682 1.448611
-3.422301 -0.881891 1.469203
-3.424485 -0.844200 1.470131
-3.438595 -0.838712 1.453911
-3.437850 -0.829414 1.455377
-3.235118 -1.040353 1.451248
-3.248978 -1.039446 1.445164
-3.205263 -1.041656 1.470750
-3.173820 -1.044948 1.458041
-3.192638 -1.043409 1.460965
-3.155658 -1.046935 1.443246
-3.157880 -1.045285 1.461715
-3.123264 -1.046254 1.459350
-3.132795 -1.046739 1.452818
-3.092267 -1.045628 1.459775
-3.087957 -1.046650 1.447384
-3.067475 -1.045188 1.446298
-3.023952 -1.036356 1.459847
-3.036844 -1.040237 1.451325
-3.394017 -0.965371 1.484530
-3.408081 -0.931765 1.480109
-3.413052 -0.937465 1.471264
-3.375973 -0.998140 1.472255
-3.345999 -1.012547 1.482118
-3.355474 -1.009286 1.479811
-3.301479 -1.028192 1.479241
-3.267277 -1.032193 1.491166
-3.281161 -1.030748 1.484194
-3.385112 -0.981344 1.484748
-3.397661 -0.903214 1.494404
-3.402776 -0.912220 1.489333
-3.396821 -0.873998 1.495358
-3.398701 -0.891905 1.493081
-3.395861 -0.846310 1.497233
-3.421523 -0.833477 1.473971
-3.419332 -0.822345 1.477007
-3.390123 -0.891175 1.501838
-3.239729 -1.036526 1.483976
-3.245110 -1.036208 1.480452
-3.215419 -1.038811 1.487885
-3.231849 -1.036559 1.492581
-3.176801 -1.041648 1.490644
-3.202874 -1.040630 1.484055
-3.145838 -1.043328 1.485622
-3.138135 -1.044119 1.480391
-3.084107 -1.041049 1.486384
-3.092034 -1.043972 1.473876
-3.055776 -1.035140 1.494500
-3.022127 -1.030723 1.484750
-3.033809 -1.033021 1.486250
-3.343537 -1.005441 1.504130
-3.300069 -1.019607 1.515263
-3.269503 -1.023882 1.525200
-3.276010 -1.023639 1.519353
-3.290027 -1.024412 1.508085
-3.300369 -1.013117 1.528964
-3.322769 -1.001916 1.527719
-3.327837 -1.013809 1.504569
-3.293357 -1.018118 1.524605
-3.381521 -0.960534 1.506383
-3.359693 -0.983222 1.517793
-3.363464 -0.939285 1.530033
-3.371453 -0.932578 1.521542
-3.375744 -0.923569 1.517858
-3.367695 -0.918990 1.525707
-3.384874 -0.902549 1.507561
-3.361554 -0.916620 1.531883
-3.357172 -0.893832 1.532068
-3.360822 -0.864062 1.527015
-3.388792 -0.864960 1.502845
-3.379111 -0.842568 1.512182
-3.235671 -1.032618 1.515015
-3.254920 -1.027133 1.522625
-3.223351 -1.032239 1.525625
-3.221783 -1.034682 1.513261
-3.173658 -1.036492 1.522247
-3.191211 -1.036172 1.519410
-3.150742 -1.034065 1.531845
-3.162448 -1.041078 1.502229
-3.127505 -1.032194 1.532575
-3.102502 -1.029618 1.530726
-3.093576 -1.033371 1.517837
-3.052529 -1.032143 1.502902
-3.038772 -1.027833 1.505497
-3.023523 -1.010971 1.526505
-3.043590 -1.015762 1.529153
-3.313342 -0.990560 1.546766
-3.324841 -0.992200 1.538619
-3.280113 -0.995308 1.559808
-3.285274 -0.993473 1.558377
-3.352939 -0.961411 1.535869
-3.356850 -0.955122 1.535746
-3.351025 -0.930361 1.540899
-3.312872 -0.985189 1.551450
-3.314210 -0.981058 1.552567
-3.319292 -0.924381 1.563169
-3.342892 -0.909774 1.545639
-3.329677 -0.914897 1.556183
-3.349037 -0.923192 1.542413
-3.355629 -0.912343 1.536151
-3.345788 -0.891812 1.540924
-3.351192 -0.883382 1.535968
-3.314786 -0.891105 1.563514
-3.342736 -0.840995 1.540386
-3.334587 -0.827088 1.546287
-3.316396 -0.851161 1.559312
-3.327060 -0.840496 1.551912
-3.243272 -1.019246 1.551860
-3.211205 -1.026875 1.545574
-3.236146 -1.016893 1.559375
-3.173526 -1.030551 1.540864
-3.182345 -1.021912 1.557716
-3.143967 -1.023024 1.551850
-3.165856 -1.029006 1.543265
-3.109704 -1.012243 1.559196
-3.085082 -1.009894 1.551787
-3.063285 -0.993087 1.558577
-3.053744 -1.004641 1.543945
-3.066081 -0.989190 1.563554
-3.018452 -0.990295 1.546406
-3.040515 -0.993687 1.550101
-3.025811 -0.981782 1.555219
-3.036815 -0.973583 1.564066
-3.298609 -0.968287 1.566784
-3.269135 -0.972297 1.576087
-3.280460 -0.977609 1.570000
-3.301659 -0.936719 1.571218
-3.268900 -0.949783 1.582082
-3.289838 -0.952298 1.574477
-3.271744 -0.897000 1.584526
-3.290462 -0.908496 1.576959
-3.300979 -0.869036 1.570180
-3.275197 -0.869509 1.581871
-3.295510 -0.867707 1.572993
-3.279333 -0.852169 1.578938
-3.290797 -0.838764 1.572972
-3.247557 -0.992494 1.575156
-3.206220 -0.989293 1.585073
-3.228198 -1.001330 1.574161
-3.180131 -1.007575 1.572446
-3.168051 -0.992619 1.581753
-3.243211 -0.960223 1.586391
-3.204902 -0.958285 1.592047
-3.233530 -0.981803 1.584199
-3.234714 -0.939087 1.591376
-3.217761 -0.949241 1.591784
-3.231039 -0.945734 1.590991
-3.186009 -0.984502 1.586905
-3.199807 -0.980235 1.588199
-3.143789 -0.974762 1.586617
-3.168918 -0.966169 1.590200
-3.188364 -0.929037 1.594412
-3.149119 -0.933447 1.594406
-3.169369 -0.940406 1.593609
-3.119478 -0.988038 1.579231
-3.122321 -1.005792 1.567622
-3.095099 -0.989539 1.572745
-3.125889 -0.957408 1.589981
-3.084411 -0.985722 1.572022
-3.108339 -0.983299 1.579514
-3.135056 -0.945125 1.592799
-3.097417 -0.954955 1.587677
-3.107408 -0.936285 1.593263
-3.051927 -0.969125 1.570509
-3.069548 -0.983018 1.568522
-3.065820 -0.952738 1.582970
-3.073690 -0.926086 1.594287
-3.026398 -0.937016 1.582456
-3.041664 -0.948887 1.579479
-3.245638 -0.909763 1.590880
-3.257233 -0.910965 1.588477
-3.205514 -0.894568 1.595586
-3.237880 -0.864584 1.592490
-3.244630 -0.883336 1.591055
-3.210935 -0.878389 1.595927
-3.145984 -0.919244 1.595575
-3.246548 -0.859445 1.590164
-3.256752 -0.825677 1.585247
-3.230812 -0.827565 1.592803
-3.138026 -0.921319 1.595651
-3.147635 -0.907468 1.597047
-3.169128 -0.903710 1.596384
-3.187803 -0.873718 1.598715
-3.176685 -0.863416 1.600745
-3.140814 -0.890594 1.600345
-3.169083 -0.889526 1.597953
-3.206395 -0.849703 1.597518
-3.184039 -0.833940 1.602387
-3.201826 -0.846320 1.598541
-3.142622 -0.837908 1.610008
-3.159107 -0.829542 1.607840
-3.127246 -0.903122 1.598936
-3.128933 -0.917139 1.596502
-3.096044 -0.900058 1.602466
-3.093343 -0.909770 1.599444
-3.086938 -0.868829 1.613164
-3.093400 -0.885311 1.607468
-3.049124 -0.915635 1.596477
-3.076539 -0.905806 1.601976
-3.026976 -0.897974 1.600868
-3.048223 -0.889387 1.607130
-3.070708 -0.869624 1.614004
-3.026855 -0.874634 1.610073
-3.031559 -0.870865 1.611877
-3.125521 -0.842446 1.612771
-3.098182 -0.836114 1.619405
-3.095555 -0.861115 1.614522
-3.126061 -0.829100 1.615143
-3.073800 -0.832043 1.623860
-3.053967 -0.857630 1.617488
-3.030183 -0.860550 1.615207
-3.038349 -0.833246 1.623852
-3.042079 -0.827271 1.625592
-3.785026 -0.913417 0.637733
-3.801246 -0.882844 0.642855
-3.805679 -0.887250 0.625798
-3.811352 -0.851199 0.643512
-3.680789 -0.988354 0.652181
-3.681087 -0.987597 0.643770
-3.667495 -0.992584 0.627559
-3.672216 -0.990917 0.630224
-3.707427 -0.975088 0.651285
-3.726929 -0.961672 0.627093
-3.750835 -0.946389 0.632224
-3.765304 -0.934913 0.645905
-3.699679 -0.977815 0.633320
-3.638105 -1.004943 0.644943
-3.594397 -1.016980 0.643972
-3.605128 -1.014021 0.636929
-3.562621 -1.023224 0.628822
-3.569854 -1.022236 0.642933
-3.520561 -1.030405 0.636151
-3.543121 -1.027168 0.643709
-3.499795 -1.031380 0.788092
-3.482266 -1.033038 0.809976
-3.430553 -1.038381 0.808385
-3.434959 -1.038548 0.787966
-3.399849 -1.040952 0.796612
-3.414845 -1.040033 0.790939
-3.384552 -1.041997 0.801848
-3.338751 -1.045385 0.783391
-3.337583 -1.045369 0.804484
-3.310942 -1.046923 0.804246
-3.319170 -1.046514 0.784845
-3.270140 -1.048851 0.803246
-3.294196 -1.047850 0.788045
-3.240894 -1.048677 0.792139
-3.245757 -1.048790 0.806343
-3.210282 -1.047188 0.790434
-3.186797 -1.044247 0.789836
-3.146786 -1.032638 0.791262
-3.155370 -1.036005 0.799063
-3.123132 -1.019612 0.793359
-3.127273 -1.021934 0.784173
-3.118852 -1.016046 0.782799
-3.118031 -1.015867 0.796507
-3.094770 -0.993467 0.803529
-3.099586 -0.997889 0.783864
-3.079644 -0.971698 0.783442
-3.076263 -0.967807 0.799132
-3.055946 -0.929173 0.788897
-3.064984 -0.948295 0.799060
-3.025519 -0.869231 0.799851
-3.034105 -0.891633 0.808329
-3.019716 -0.850130 0.782941
-3.024064 -0.861118 0.787970
-3.006432 -0.831967 0.802515
-3.011727 -0.835591 0.785314
-3.493106 -1.022174 1.021285
-3.458993 -1.028808 1.028377
-3.475402 -1.026208 1.014968
-3.427454 -1.032809 1.026294
-3.444841 -1.030964 1.020660
-3.410710 -1.034417 1.028093
-3.422195 -1.033614 1.016984
-3.370233 -1.038560 1.013934
-3.347819 -1.040999 1.001933
-3.355460 -1.040175 1.004691
-3.315508 -1.043741 1.021777
-3.308760 -1.044847 1.001380
-3.288577 -1.046572 1.000278
-3.293744 -1.046102 1.010611
-3.252941 -1.047881 1.026169
-3.228745 -1.048219 1.030703
-3.196976 -1.048991 1.009043
-3.156102 -1.046015 1.023222
-3.171664 -1.048435 1.026651
-3.125871 -1.038575 1.014222
-3.119783 -1.036401 1.025192
-3.097819 -1.025390 1.019679
-3.106427 -1.030894 1.024216
-3.064884 -0.993695 1.022922
-3.072659 -1.003966 1.020805
-3.059669 -0.986335 1.022335
-3.049678 -0.959327 1.004154
-3.038584 -0.938899 1.019270
-3.040947 -0.940081 1.005577
-3.016398 -0.901847 1.021849
-2.994487 -0.868587 1.027478
-3.010841 -0.889522 1.012115
-3.007567 -0.878834 1.001680
-2.985184 -0.838386 1.009566
-2.997004 -0.861319 1.004732
-2.979736 -0.837836 1.026639
-2.980098 -0.828277 1.010802
-3.240679 -1.046754 1.223802
-3.251496 -1.045652 1.237198
-3.219010 -1.048156 1.235246
-3.202680 -1.049636 1.224597
-3.056970 -1.047881 1.247511
-3.071350 -1.046996 1.221336
-3.023991 -1.035034 1.231566
-3.036033 -1.042064 1.240152
-3.012313 -1.034524 1.250027
-2.987905 -1.003024 1.239858
-2.990993 -0.996557 1.223508
-2.987940 -1.010761 1.250526
-2.982333 -0.996371 1.244251
-2.967869 -0.958738 1.242115
-2.979313 -0.986966 1.240072
-2.968502 -0.943220 1.226462
-2.970949 -0.953804 1.228361
-2.945023 -0.868560 1.237669
-2.951438 -0.892111 1.239045
-2.935467 -0.841868 1.231127
-2.934325 -0.842953 1.239518
-2.930310 -0.829217 1.226149
-3.053692 -0.873143 -0.104318
-3.059290 -0.872352 -0.114791
-3.049691 -0.858349 -0.120585
-3.019627 -0.823506 -0.122967
-3.158494 -1.033536 -0.014926
-3.155994 -1.030289 -0.023621
-3.124926 -0.996394 -0.014276
-3.128882 -0.993335 -0.033087
-3.111641 -0.971534 -0.031137
-3.090487 -0.958316 -0.011971
-3.096223 -0.962591 -0.015208
-3.090307 -0.950853 -0.027213
-3.058497 -0.924583 -0.020584
-3.053668 -0.915354 -0.030981
-3.041354 -0.905979 -0.029463
-3.035409 -0.900066 -0.031585
-2.998671 -0.874649 -0.018693
-3.001290 -0.871174 -0.029861
-2.972171 -0.847635 -0.013753
-2.974955 -0.857546 -0.004463
-2.957804 -0.823529 -0.021359
-2.955931 -0.826988 -0.010739
-3.530818 -0.960419 0.096050
-3.525771 -0.965306 0.108724
-3.547981 -0.957493 0.116180
-3.575531 -0.940904 0.119641
-3.564309 -0.939429 0.102004
-3.573310 -0.928348 0.093253
-3.587584 -0.898071 0.091480
-3.581594 -0.913530 0.091315
-3.592431 -0.902428 0.103942
-3.594754 -0.875150 0.096184
-3.605099 -0.887594 0.119411
-3.595991 -0.849947 0.093759
-3.604653 -0.850420 0.111247
-3.288943 -1.051146 0.098352
-3.243585 -1.054824 0.100886
-3.262362 -1.053791 0.097280
-3.207010 -1.055106 0.114942
-3.221999 -1.055176 0.103066
-3.190676 -1.052258 0.105010
-3.459772 -0.998481 0.106950
-3.520590 -0.992846 0.245156
-3.611657 -0.941766 0.216715
-3.629295 -0.928184 0.224634
-3.605560 -0.945014 0.218860
-3.609847 -0.943740 0.224786
-3.549663 -0.972754 0.228113
-3.561877 -0.966165 0.228394
-3.524556 -0.986067 0.225220
-3.645010 -0.907250 0.222316
-3.664954 -0.880093 0.245368
-3.654237 -0.876238 0.220348
-3.661612 -0.858330 0.229987
-3.664286 -0.831561 0.233154
-3.636603 -0.923499 0.227854
-3.305434 -1.051751 0.245380
-3.267238 -1.055016 0.236840
-3.279963 -1.053935 0.227836
-3.264320 -1.055187 0.235877
-3.227023 -1.056370 0.220685
-3.217406 -1.056240 0.246073
-3.176974 -1.054749 0.223954
-3.202623 -1.056091 0.220560
-3.147955 -1.050805 0.233503
-3.156959 -1.051964 0.218018
-3.485806 -1.016199 0.276357
-3.497724 -1.010512 0.276246
-3.425670 -1.034375 0.250307
-3.438769 -1.031840 0.271664
-3.391643 -1.042616 0.273259
-3.415829 -1.037491 0.266049
-3.369060 -1.045333 0.269195
-3.364397 -1.046145 0.276904
-3.341418 -1.048189 0.250631
-3.359235 -1.046705 0.272555
-3.135789 -1.047521 0.278451
-3.136483 -1.048304 0.254643
-3.087667 -1.023940 0.260518
-3.098448 -1.030443 0.272270
-3.056170 -0.996682 0.250497
-3.061365 -1.000521 0.277889
-3.024581 -0.959473 0.247885
-3.036024 -0.973779 0.264085
-3.013004 -0.942510 0.265827
-2.997902 -0.918552 0.262198
-2.978729 -0.885506 0.266136
-2.967206 -0.872374 0.252462
-2.954494 -0.850956 0.252708
-2.944228 -0.836710 0.248161
-2.943567 -0.823611 0.276445
-3.300521 -1.050249 0.581303
-3.270193 -1.052468 0.581484
-3.248679 -1.053336 0.587764
-3.221408 -1.053235 0.583677
-3.219308 -1.053170 0.576931
-3.494864 -1.032563 0.566089
-3.512921 -1.029697 0.571190
-3.455850 -1.038220 0.563050
-3.454565 -1.038821 0.592183
-3.437040 -1.040526 0.589817
-3.431494 -1.040688 0.563209
-3.396520 -1.043812 0.582844
-3.414648 -1.042268 0.571964
-3.364338 -1.046600 0.562092
-3.383501 -1.044783 0.577729
-3.339836 -1.048185 0.563371
-3.354780 -1.046683 0.589916
-3.311664 -1.049421 0.582698
-3.328244 -1.048382 0.581819
-3.172640 -1.047414 0.575905
-3.142193 -1.034892 0.575871
-3.151673 -1.039006 0.563326
-3.112849 -1.006293 0.565809
-3.102441 -0.990330 0.571671
-3.105631 -0.994762 0.583947
-3.092307 -0.970391 0.576071
-3.099222 -0.983520 0.589347
-3.079156 -0.945307 0.565272
-3.073215 -0.929995 0.582026
-3.058812 -0.895729 0.570613
-3.068643 -0.921249 0.566962
-3.049236 -0.865206 0.574007
-3.056114 -0.884110 0.590088
-3.042816 -0.849429 0.561419
-3.039021 -0.833120 0.590322
-3.266193 -1.050066 0.891929
-3.247229 -1.050565 0.899412
-3.258374 -1.050183 0.877174
-3.206128 -1.050282 0.903497
-3.509376 -1.024506 0.901890
-3.497093 -1.027462 0.884117
-3.461018 -1.033104 0.879920
-3.458264 -1.032820 0.903382
-3.445742 -1.035020 0.878948
-3.441491 -1.034903 0.900463
-3.406633 -1.038484 0.901354
-3.420710 -1.037183 0.902519
-3.379730 -1.041307 0.879728
-3.371817 -1.041550 0.895542
-3.333235 -1.045046 0.887112
-3.302843 -1.047327 0.900464
-3.300959 -1.047896 0.876192
-3.285498 -1.048923 0.883024
-3.293388 -1.048213 0.894857
-3.176229 -1.048104 0.888028
-3.197549 -1.049532 0.887838
-3.200787 -1.049635 0.883926
-3.144159 -1.043161 0.891820
-3.110039 -1.025121 0.878036
-3.130829 -1.037756 0.884625
-3.100692 -1.022834 0.901018
-3.086878 -1.006230 0.893434
-3.083895 -1.001239 0.890668
-3.091499 -1.015430 0.903785
-3.071947 -0.984629 0.892620
-3.051554 -0.939947 0.879016
-3.050595 -0.945069 0.902549
-3.042219 -0.921372 0.876572
-3.038433 -0.914920 0.886007
-3.017929 -0.869994 0.899984
-3.027160 -0.892574 0.893386
-3.017513 -0.867512 0.882910
-3.011915 -0.855625 0.895956
-3.455272 -1.029090 1.039975
-3.476021 -1.024664 1.048416
-3.512135 -1.014753 1.051830
-3.512123 -1.016369 1.033654
-3.446623 -1.029547 1.057650
-3.392966 -1.035915 1.036588
-3.414958 -1.033460 1.054867
-3.360774 -1.039100 1.050555
-3.382269 -1.036779 1.050035
-3.332520 -1.041706 1.048445
-3.297688 -1.045437 1.040870
-3.320339 -1.042826 1.058447
-3.285014 -1.046027 1.053620
-3.295243 -1.045479 1.047833
-3.254171 -1.047653 1.062955
-3.259454 -1.047579 1.045292
-3.217145 -1.048548 1.049718
-3.221987 -1.048363 1.031919
-3.174744 -1.048436 1.051483
-3.203041 -1.048931 1.056147
-3.160231 -1.046701 1.035080
-3.157418 -1.046511 1.059473
-3.115920 -1.035372 1.036858
-3.129565 -1.040654 1.049654
-3.103684 -1.031474 1.062301
-3.108024 -1.032486 1.038274
-3.070585 -1.006391 1.062071
-3.070639 -1.003550 1.044476
-3.054330 -0.980344 1.040547
-3.022821 -0.927868 1.055037
-3.042239 -0.955662 1.041989
-3.024335 -0.919471 1.036465
-3.020669 -0.922951 1.052646
-3.010382 -0.908205 1.052926
-3.014243 -0.915070 1.055589
-2.992362 -0.881065 1.054290
-2.993963 -0.885398 1.056636
-2.989192 -0.865400 1.038004
-2.971992 -0.833578 1.045341
-2.983320 -0.853495 1.037636
-2.968559 -0.837017 1.061009
-3.379380 -1.035703 1.153003
-3.383753 -1.035769 1.127933
-3.356115 -1.038472 1.156985
-3.358164 -1.038575 1.139372
-3.310343 -1.043077 1.128316
-3.241130 -1.047711 1.137279
-3.255530 -1.046651 1.146209
-3.225735 -1.048676 1.153168
-3.211536 -1.049420 1.136806
-3.223128 -1.048805 1.126447
-3.155842 -1.049046 1.134190
-3.154484 -1.049754 1.148629
-3.121412 -1.045806 1.136758
-3.135651 -1.048794 1.152610
-3.089002 -1.036107 1.135631
-3.101868 -1.041185 1.135171
-3.065230 -1.023796 1.138211
-3.041516 -1.011212 1.151274
-3.040992 -0.999809 1.129364
-3.019306 -0.979999 1.137872
-3.009856 -0.970567 1.143660
-3.009228 -0.962459 1.132300
-2.984887 -0.931647 1.154425
-2.993430 -0.931455 1.126846
-2.983576 -0.915180 1.132592
-2.982504 -0.921636 1.146958
-2.963170 -0.871068 1.141862
-2.961794 -0.871082 1.149915
-2.951103 -0.847442 1.153108
-2.991935 -1.022604 1.389910
-3.004593 -1.030491 1.405929
-2.969677 -0.993721 1.399087
-2.982692 -1.014152 1.397342
-2.964586 -0.984084 1.405270
-2.961788 -0.976795 1.385466
-2.938384 -0.912641 1.405028
-2.943272 -0.922527 1.384694
-2.931840 -0.890601 1.384092
-2.923058 -0.866800 1.377760
-2.918429 -0.859576 1.399712
-3.579701 -0.951067 0.157342
-3.594783 -0.942221 0.163934
-3.556500 -0.962135 0.172165
-3.525645 -0.974195 0.163238
-3.537324 -0.968157 0.154573
-3.578797 -0.951622 0.158971
-3.627946 -0.908376 0.180085
-3.629952 -0.888491 0.168609
-3.630063 -0.871467 0.164623
-3.635166 -0.855013 0.173137
-3.302836 -1.051430 0.174438
-3.312835 -1.050000 0.164065
-3.296417 -1.051751 0.153749
-3.296774 -1.051775 0.156457
-3.236466 -1.056334 0.167755
-3.260691 -1.055081 0.170253
-3.207490 -1.056455 0.165822
-3.227886 -1.056458 0.173723
-3.189617 -1.055318 0.164006
-3.486780 -0.994506 0.162096
-3.461491 -1.008135 0.162573
-3.472483 -1.004367 0.173632
-3.179996 -1.054469 0.295123
-3.184325 -1.055191 0.280475
-3.159402 -1.052094 0.287459
-3.159643 -1.051276 0.306761
-3.460829 -1.026063 0.280320
-3.496622 -1.013445 0.292044
-3.498161 -1.011221 0.281886
-3.431615 -1.034583 0.282451
-3.403530 -1.040633 0.286013
-3.412347 -1.039459 0.302248
-3.371287 -1.045433 0.295880
-3.376834 -1.044863 0.302687
-3.341585 -1.048383 0.285108
-3.327080 -1.049698 0.295839
-3.123554 -1.040604 0.305612
-3.130827 -1.044658 0.292158
-3.107397 -1.033419 0.307332
-3.078639 -1.014685 0.303423
-3.081674 -1.017997 0.290998
-3.053155 -0.991906 0.294330
-3.077216 -1.013386 0.305818
-3.024987 -0.957620 0.303637
-3.041549 -0.978700 0.301840
-2.990757 -0.896615 0.292221
-2.994358 -0.897422 0.307619
-2.972578 -0.864540 0.286074
-2.962081 -0.839927 0.296799
-2.966144 -0.840079 0.308242
-2.949217 -0.825640 0.287590
-3.771047 -0.888732 0.467499
-3.790174 -0.873643 0.494517
-3.782970 -0.842353 0.469333
-3.794020 -0.849914 0.492743
-3.797059 -0.826007 0.495311
-3.741062 -0.931449 0.482776
-3.742685 -0.926988 0.470059
-3.727808 -0.934893 0.467467
-3.733115 -0.933324 0.473126
-3.644644 -0.980254 0.494751
-3.668467 -0.964171 0.477782
-3.690471 -0.953034 0.473244
-3.611469 -0.993752 0.481864
-3.599244 -0.997896 0.478182
-3.529151 -1.023048 0.478694
-3.526415 -1.023264 0.469736
-3.537888 -1.021434 0.491426
-3.572187 -1.010880 0.490047
-3.561263 -1.012440 0.469422
-3.642087 -0.978268 0.479606
-3.763507 -0.909139 0.481199
-3.278280 -0.988274 -0.327724
-3.329092 -0.975249 -0.334565
-3.339674 -0.971545 -0.320980
-3.370761 -0.925908 -0.328924
-3.318383 -0.975613 -0.345457
-3.318831 -0.982547 -0.320769
-3.363854 -0.915159 -0.344122
-3.252765 -0.980307 -0.345326
-3.231891 -0.971773 -0.345652
-3.190216 -0.927841 -0.333210
-3.193260 -0.935457 -0.330815
-3.068277 -0.873138 -0.129962
-3.051562 -0.844092 -0.142250
-3.041776 -0.825474 -0.151118
-3.177498 -1.048665 0.017993
-3.148085 -1.029596 0.014944
-3.153664 -1.034276 0.024702
-3.127075 -1.008807 0.013918
-3.081979 -0.961860 0.014371
-3.094473 -0.976225 0.018815
-3.057706 -0.941891 0.020268
-3.071911 -0.945609 -0.002321
-3.023089 -0.910131 0.011795
-3.025456 -0.908921 0.003341
-3.006974 -0.894580 0.005003
-2.989649 -0.877057 0.002177
-2.973981 -0.870001 0.023289
-2.970625 -0.855035 0.001777
-2.953820 -0.831113 0.001384
-2.955680 -0.847187 0.024886
-2.948557 -0.835313 0.022891
-2.947224 -0.829065 0.015784
-3.489919 -1.005529 0.225129
-3.509804 -0.996999 0.237251
-3.469887 -1.018393 0.240941
-3.439207 -1.027840 0.230056
-3.440875 -1.028739 0.241508
-3.401431 -1.037652 0.217629
-3.401423 -1.039676 0.246776
-3.351236 -1.046412 0.224151
-3.343924 -1.047492 0.233457
-3.114255 -1.040255 0.240601
-3.124520 -1.044028 0.243249
-3.088995 -1.025467 0.244632
-3.107524 -1.037441 0.242263
-3.053886 -0.994296 0.234610
-3.061879 -1.001805 0.218947
-3.028286 -0.963908 0.234534
-3.043427 -0.982829 0.222065
-3.016737 -0.948485 0.227819
-3.002819 -0.929832 0.218764
-3.006093 -0.933106 0.238473
-2.986737 -0.906752 0.231236
-2.963986 -0.872011 0.233517
-2.975152 -0.891296 0.223099
-2.948730 -0.851478 0.222989
-3.576419 -0.989137 0.942405
-3.544302 -1.010505 0.939616
-3.582978 -0.978107 0.960901
-3.597372 -0.964405 0.949205
-3.582314 -0.984378 0.940321
-3.617460 -0.933252 0.957967
-3.626765 -0.925346 0.945338
-3.602797 -0.954083 0.960348
-3.647549 -0.850810 0.959403
-3.652707 -0.844933 0.951172
-3.653746 -0.821690 0.962227
-3.628199 -0.914609 0.954703
-3.634087 -0.909011 0.945615
-3.638256 -0.879739 0.963232
-3.637323 -0.877330 0.967279
-3.517867 -0.924829 1.263576
-3.520544 -0.908249 1.270341
-3.520496 -0.901254 1.276722
-3.528381 -0.892635 1.259341
-3.531305 -0.868165 1.264054
-3.536082 -0.852208 1.256794
-3.532252 -0.848360 1.270217
-3.540595 -0.829722 1.252009
-3.531887 -0.823023 1.279545
-3.178593 -1.051026 1.259920
-3.179750 -1.051011 1.276428
-3.149584 -1.051906 1.268665
-3.117924 -1.052523 1.258355
-3.139105 -1.052048 1.262444
-3.090325 -1.051784 1.255480
-3.100479 -1.052953 1.276303
-3.054064 -1.049913 1.274054
-3.072126 -1.050312 1.252538
-3.465515 -0.998572 1.268198
-3.464304 -1.000839 1.261786
-3.395596 -1.027674 1.276583
-3.417514 -1.021737 1.275603
-3.437151 -1.016827 1.255222
-3.449608 -1.008363 1.274887
-3.487793 -0.983037 1.256485
-3.489136 -0.971114 1.281603
-3.483035 -0.984751 1.268534
-3.512483 -0.933843 1.268262
-3.509375 -0.935830 1.275137
-3.380869 -1.031957 1.251743
-3.332074 -1.038595 1.264059
-3.353076 -1.036057 1.257863
-3.325889 -1.039041 1.273819
-2.993204 -1.022787 1.460626
-3.010837 -1.033356 1.443513
-2.960476 -0.992593 1.469825
-2.974421 -1.005096 1.447677
-2.955498 -0.974762 1.445482
-2.948189 -0.964446 1.463958
-2.934479 -0.927615 1.464100
-2.945159 -0.953037 1.456863
-2.925185 -0.902159 1.457923
-2.913238 -0.874584 1.460065
-2.892899 -0.831892 1.463609
-2.910094 -0.860340 1.448995
-2.992047 -1.020406 1.480840
-3.009351 -1.025483 1.489954
-2.986465 -1.016476 1.488177
-2.972226 -1.002083 1.493221
-2.965004 -0.996505 1.477996
-2.946157 -0.960802 1.492909
-2.947333 -0.963265 1.499215
-2.934814 -0.931307 1.482608
-2.939650 -0.944401 1.472253
-2.926867 -0.913435 1.482467
-2.908318 -0.871358 1.481892
-2.914577 -0.885764 1.484735
-2.899253 -0.852812 1.477877
-2.887779 -0.835147 1.488757
-3.040789 -0.920648 1.593180
-3.520686 -0.887554 -0.045593
-3.522153 -0.869062 -0.051675
-3.255291 -1.052471 -0.059562
-3.249143 -1.054206 -0.043717
-3.226903 -1.056450 -0.059841
-3.395766 -1.000966 -0.046012
-3.476118 -0.938666 -0.066326
-3.480094 -0.939889 -0.053179
-3.424833 -0.980628 -0.055984
-3.445083 -0.968084 -0.050944
-3.419685 -0.985832 -0.047598
-3.339070 -1.030161 -0.048081
-3.342769 -1.028691 -0.046479
-3.362268 -1.017775 -0.058561
-3.306502 -1.041502 -0.049227
-3.322803 -1.035436 -0.057214
-3.278715 -1.049257 -0.041554
-3.507104 -0.911736 -0.047076
-3.504341 -0.907396 -0.058359
-3.516480 -0.903822 -0.040028
-3.516311 -0.865752 -0.064833
-3.176055 -1.049650 -0.045872
-3.163439 -1.037888 -0.041783
-3.169065 -1.044219 -0.063919
-3.144425 -1.013165 -0.053823
-3.136382 -0.997346 -0.048595
-3.120664 -0.979186 -0.038898
-3.128233 -0.984556 -0.049665
-3.081917 -0.931750 -0.047227
-3.084950 -0.928077 -0.059523
-3.107481 -0.948293 -0.066326
-3.266752 -1.053536 0.437504
-3.282775 -1.052347 0.456919
-3.252984 -1.053518 0.456079
-3.264660 -1.052922 0.463592
-3.213636 -1.054337 0.438871
-3.192644 -1.053291 0.440457
-3.511050 -1.024972 0.440578
-3.460982 -1.035845 0.459886
-3.430673 -1.039958 0.446358
-3.427676 -1.040622 0.466160
-3.408193 -1.042545 0.441135
-3.406322 -1.043027 0.464475
-3.365670 -1.046564 0.445409
-3.376480 -1.045596 0.436019
-3.350000 -1.047722 0.443166
-3.153513 -1.046586 0.442534
-3.129822 -1.035605 0.459436
-3.132390 -1.038126 0.446857
-3.104036 -1.017316 0.463057
-3.090922 -1.009725 0.435586
-3.066962 -0.969271 0.449737
-3.064072 -0.968416 0.439191
-3.051915 -0.933697 0.452034
-3.060230 -0.954989 0.449636
-3.043768 -0.906263 0.465090
-3.041829 -0.912799 0.445481
-3.029891 -0.882845 0.441601
-3.035599 -0.889954 0.455470
-3.015960 -0.835163 0.446482
-3.773486 -0.926628 0.546647
-3.775506 -0.925157 0.545685
-3.780277 -0.923970 0.560354
-3.790783 -0.915150 0.560591
-3.811481 -0.883183 0.555924
-3.808431 -0.879100 0.540935
-3.819171 -0.850749 0.556714
-3.812826 -0.839816 0.532728
-3.813799 -0.826067 0.533213
-3.654214 -0.988451 0.558110
-3.709565 -0.959495 0.559866
-3.757376 -0.933832 0.537335
-3.766437 -0.929028 0.532721
-3.718847 -0.953478 0.551158
-3.731888 -0.945990 0.538311
-3.674923 -0.974367 0.541029
-3.696107 -0.962832 0.540720
-3.650757 -0.985370 0.533944
-3.617353 -1.001291 0.544947
-3.640966 -0.990285 0.533658
-3.600610 -1.006054 0.537760
-3.609025 -1.004261 0.543323
-3.519869 -1.027466 0.534878
-3.537853 -1.024479 0.556614
-3.557673 -1.018426 0.531526
-3.574165 -1.015386 0.549637
-3.261988 -1.050053 0.935739
-3.207502 -1.050328 0.912803
-3.228717 -1.050776 0.915537
-3.198177 -1.049928 0.924749
-3.486717 -1.028525 0.918777
-3.512808 -1.023643 0.907326
-3.468896 -1.030874 0.924701
-3.430446 -1.035780 0.915408
-3.436276 -1.034762 0.931831
-3.408793 -1.037884 0.914197
-3.387136 -1.039105 0.933487
-3.342264 -1.043102 0.926253
-3.323791 -1.044901 0.920454
-3.281304 -1.048725 0.927880
-3.296910 -1.047454 0.928041
-3.173301 -1.048568 0.909145
-3.149759 -1.045377 0.921857
-3.154044 -1.046161 0.937051
-3.124957 -1.038028 0.920701
-3.106976 -1.029276 0.915319
-3.082412 -1.006253 0.909944
-3.070887 -0.996744 0.936053
-3.060856 -0.971684 0.918354
-3.051867 -0.958143 0.936903
-3.051291 -0.948886 0.909548
-3.048229 -0.949282 0.936214
-3.026685 -0.894475 0.912705
-3.037947 -0.923174 0.925990
-3.015188 -0.868161 0.925590
-3.018903 -0.880373 0.936252
-3.014532 -0.862826 0.910724
-3.003636 -0.838745 0.906643
-3.011521 -0.856561 0.913099
-2.996177 -0.827711 0.930119
-3.463415 -1.026109 1.068596
-3.513012 -1.012658 1.068941
-3.425230 -1.031609 1.082755
-3.444187 -1.029459 1.068390
-3.403566 -1.034014 1.093535
-3.382301 -1.036551 1.087690
-3.381775 -1.036715 1.071057
-3.354490 -1.039666 1.063565
-3.346239 -1.040342 1.081694
-3.314491 -1.043193 1.072770
-3.321224 -1.042494 1.091905
-3.277507 -1.046072 1.088518
-3.287430 -1.045605 1.072215
-3.251979 -1.047477 1.093743
-3.262559 -1.047167 1.080205
-3.215887 -1.048737 1.084932
-3.223082 -1.048493 1.071896
-3.180313 -1.048873 1.082367
-3.191394 -1.049036 1.087225
-3.146020 -1.046150 1.086110
-3.153486 -1.047050 1.090695
-3.132463 -1.042385 1.067969
-3.079408 -1.020213 1.086913
-3.104188 -1.033432 1.078072
-3.100571 -1.029650 1.063024
-3.054365 -0.996111 1.091789
-3.053925 -0.989651 1.072150
-3.048471 -0.981593 1.071583
-3.037801 -0.963565 1.069483
-3.037948 -0.967871 1.074788
-3.017795 -0.939120 1.081643
-3.012387 -0.938832 1.092696
-3.001726 -0.922280 1.094186
-2.999950 -0.910296 1.079889
-2.985756 -0.882912 1.075335
-2.978674 -0.871502 1.078825
-2.982091 -0.880247 1.081711
-2.960496 -0.833814 1.082917
-2.967975 -0.842963 1.071408
-2.993446 -1.022789 1.418534
-2.996116 -1.024434 1.416931
-2.984556 -1.017178 1.425191
-2.968690 -0.994985 1.429025
-2.952498 -0.959392 1.428676
-2.959454 -0.974031 1.418490
-2.946096 -0.940112 1.423012
-2.930758 -0.893605 1.408583
-2.932850 -0.910740 1.435099
-2.928995 -0.888909 1.408426
-2.921855 -0.884086 1.439390
-2.918793 -0.864841 1.414241
-2.905619 -0.842819 1.434070
-2.909477 -0.845842 1.420126
-3.519480 -0.911877 -0.024633
-3.531365 -0.878213 -0.029366
-3.540001 -0.863845 -0.018933
-3.279021 -1.051116 -0.004551
-3.280484 -1.050161 -0.020717
-3.248636 -1.054803 -0.034191
-3.254790 -1.054190 -0.014588
-3.230163 -1.056569 -0.007576
-3.190932 -1.052981 -0.007734
-3.423848 -0.992768 -0.007397
-3.399532 -1.004653 -0.018925
-3.471926 -0.961631 -0.008583
-3.460346 -0.962233 -0.034379
-3.510314 -0.929999 -0.012887
-3.495920 -0.935428 -0.031163
-3.503527 -0.938460 -0.006490
-3.426992 -0.986463 -0.024871
-3.448560 -0.975406 -0.013931
-3.364644 -1.025921 -0.006422
-3.346727 -1.029691 -0.031381
-3.359367 -1.025384 -0.025946
-3.378468 -1.016506 -0.020520
-3.299215 -1.045619 -0.031438
-3.320970 -1.040345 -0.020356
-3.282440 -1.049503 -0.025698
-3.398701 -1.025768 0.098593
-3.411738 -1.020514 0.097846
-3.435077 -1.013160 0.116875
-3.440293 -1.008526 0.107034
-3.423293 -1.017894 0.111262
-3.488222 -0.980401 0.095038
-3.505369 -0.973741 0.102489
-3.362018 -1.038950 0.117181
-3.364775 -1.038341 0.119303
-3.345744 -1.041769 0.107961
-3.315833 -1.047282 0.100451
-3.154243 -1.040742 0.104266
-3.147586 -1.036327 0.091668
-3.116873 -1.020229 0.101631
-3.130759 -1.028205 0.098008
-3.109903 -1.015791 0.103793
-3.092453 -1.003378 0.114318
-3.095113 -1.004337 0.109740
-3.069817 -0.981066 0.109288
-3.053452 -0.958215 0.091910
-3.063910 -0.970234 0.094701
-3.039025 -0.947973 0.108734
-3.037632 -0.949870 0.120796
-3.019764 -0.924286 0.092839
-2.990274 -0.900583 0.110834
-2.985028 -0.895569 0.110384
-3.012637 -0.921151 0.112910
-3.014616 -0.921375 0.103509
-2.952898 -0.862909 0.109386
-2.953201 -0.862813 0.093146
-2.969507 -0.879878 0.105785
-2.971145 -0.881182 0.094365
-2.943892 -0.850914 0.098038
-2.951602 -0.861115 0.095268
-3.683644 -0.927653 0.330824
-3.648657 -0.941058 0.311042
-3.649170 -0.946693 0.335775
-3.553823 -0.995176 0.340766
-3.523774 -1.005705 0.319544
-3.540969 -1.001511 0.340456
-3.623067 -0.956922 0.333883
-3.620759 -0.955910 0.325433
-3.583144 -0.974580 0.321741
-3.606341 -0.962349 0.324536
-3.628987 -0.949612 0.310726
-3.564024 -0.985956 0.324647
-3.713692 -0.863691 0.335474
-3.692370 -0.921843 0.336138
-3.704192 -0.867270 0.318480
-3.698335 -0.879198 0.310696
-3.713874 -0.846334 0.333804
-3.710199 -0.845141 0.326820
-3.316597 -1.050979 0.334047
-3.320086 -1.050619 0.330172
-3.288744 -1.053341 0.315584
-3.257579 -1.055076 0.310588
-3.260045 -1.054917 0.325595
-3.233445 -1.055762 0.319310
-3.319110 -1.050085 0.419725
-3.274562 -1.053257 0.424853
-3.288444 -1.052545 0.414428
-3.238951 -1.054462 0.432511
-3.259452 -1.053972 0.420910
-3.218807 -1.054329 0.419613
-3.223315 -1.054377 0.417774
-3.179241 -1.052123 0.421323
-3.178261 -1.051945 0.406359
-3.491998 -1.027504 0.406376
-3.506303 -1.024305 0.417753
-3.460375 -1.035167 0.427549
-3.470014 -1.033174 0.424067
-3.433663 -1.038889 0.415322
-3.451439 -1.036233 0.411138
-3.407689 -1.042231 0.411140
-3.401464 -1.043180 0.431191
-3.387542 -1.044569 0.417487
-3.340361 -1.048387 0.414900
-3.352613 -1.047445 0.425017
-3.147406 -1.045648 0.419631
-3.163615 -1.049833 0.410500
-3.127747 -1.037440 0.423988
-3.137268 -1.041859 0.431460
-3.107329 -1.026609 0.417479
-3.078449 -0.999843 0.419985
-3.097219 -1.017744 0.430305
-3.056003 -0.968778 0.405152
-3.072092 -0.987112 0.434041
-3.028235 -0.908331 0.404965
-3.037634 -0.908541 0.435329
-3.024850 -0.883410 0.424024
-3.017716 -0.859749 0.427179
-3.001278 -0.830889 0.408378
-3.013250 -0.845287 0.427716
-3.005203 -0.844754 0.405528
-3.006150 -0.823268 0.429601
-3.235753 -1.050278 0.689085
-3.233485 -1.050289 0.689096
-3.499700 -1.033007 0.706714
-3.507113 -1.032218 0.693770
-3.471308 -1.036320 0.687905
-3.466833 -1.036636 0.714986
-3.439958 -1.038952 0.707591
-3.399690 -1.041904 0.689641
-3.414744 -1.040672 0.706870
-3.330794 -1.046358 0.691952
-3.351691 -1.045070 0.695282
-3.298906 -1.047541 0.711441
-3.290940 -1.048028 0.691369
-3.266104 -1.048889 0.717664
-3.212426 -1.049437 0.699818
-3.218548 -1.049823 0.695562
-3.177574 -1.045842 0.708869
-3.187778 -1.047625 0.688505
-3.165270 -1.043878 0.690827
-3.163537 -1.042726 0.708105
-3.132373 -1.030150 0.686481
-3.113687 -1.015282 0.694217
-3.098779 -0.994283 0.688717
-3.077899 -0.958821 0.713324
-3.083108 -0.966880 0.699637
-3.072042 -0.944604 0.709299
-3.068394 -0.931952 0.692364
-3.054940 -0.901986 0.701482
-3.062799 -0.918815 0.693031
-3.047129 -0.880672 0.693332
-3.027134 -0.831816 0.688224
-3.036940 -0.855591 0.692198
-3.488845 -1.031164 0.834020
-3.516660 -1.026986 0.829378
-3.479754 -1.032898 0.821438
-3.423774 -1.038571 0.834053
-3.435353 -1.037683 0.817515
-3.395607 -1.040785 0.833748
-3.408231 -1.039948 0.821290
-3.390155 -1.041114 0.843024
-3.329709 -1.045878 0.834691
-3.351979 -1.044460 0.812232
-3.301337 -1.047690 0.839760
-3.288859 -1.048273 0.835564
-3.269915 -1.048883 0.812710
-3.236288 -1.049024 0.823469
-3.253141 -1.049305 0.827017
-3.206957 -1.047101 0.813473
-3.183028 -1.044455 0.817816
-3.198804 -1.046979 0.826494
-3.146616 -1.036701 0.833402
-3.167588 -1.042947 0.832898
-3.125724 -1.024683 0.829952
-3.132361 -1.027657 0.822569
-3.109742 -1.009781 0.812901
-3.096977 -1.000944 0.840138
-3.069139 -0.958917 0.818193
-3.059950 -0.945246 0.833831
-3.054823 -0.934134 0.820185
-3.032788 -0.897731 0.841406
-3.041276 -0.909413 0.821418
-3.019926 -0.866248 0.828684
-3.029447 -0.888796 0.833304
-3.011431 -0.847756 0.824830
-2.998649 -0.826039 0.832457
-3.649501 -0.948200 0.857523
-3.659268 -0.944129 0.845024
-3.658920 -0.945733 0.843567
-3.591007 -0.998726 0.856733
-3.594594 -1.000026 0.844776
-3.523860 -1.022965 0.862967
-3.524217 -1.024214 0.844075
-3.570664 -1.011070 0.843643
-3.570324 -1.009952 0.854221
-3.628201 -0.972324 0.855285
-3.620567 -0.980985 0.852828
-3.608163 -0.986093 0.865501
-3.679003 -0.895788 0.865001
-3.666180 -0.910068 0.873658
-3.691089 -0.879829 0.854533
-3.700878 -0.863532 0.847980
-3.712219 -0.834952 0.845952
-3.703849 -0.836434 0.858683
-3.703830 -0.821798 0.868096
-3.366746 -1.036881 1.168282
-3.330661 -1.040838 1.164938
-3.342090 -1.039401 1.179699
-3.301315 -1.043377 1.157255
-3.323357 -1.041202 1.177090
-3.284821 -1.044113 1.178006
-3.279987 -1.044875 1.157958
-3.247834 -1.046990 1.182624
-3.218499 -1.049200 1.184213
-3.119562 -1.049191 1.183651
-3.121835 -1.048507 1.171898
-3.091315 -1.044475 1.173727
-3.083466 -1.044413 1.186864
-3.055535 -1.032339 1.176533
-3.076601 -1.038514 1.166901
-3.040509 -1.023148 1.175672
-3.046161 -1.019715 1.158978
-3.039618 -1.013144 1.158220
-3.023504 -1.008424 1.174916
-3.004297 -0.987732 1.179578
-2.995231 -0.970706 1.178456
-3.010218 -0.983864 1.162573
-3.003705 -0.986830 1.179544
-2.982958 -0.936645 1.167935
-2.967343 -0.899508 1.179551
-2.975897 -0.922232 1.174789
-2.954628 -0.867619 1.186994
-2.941772 -0.831831 1.167774
-2.952040 -0.858998 1.181941
-2.986773 -0.874553 1.600565
-3.013098 -0.881323 1.605180
-2.971510 -0.871031 1.597039
-2.994499 -0.859515 1.609316
-2.994576 -0.834062 1.619055
-2.960797 -0.859968 1.598466
-2.973372 -0.840480 1.612525
-3.003304 -0.823666 1.623385
-2.976687 -0.826330 1.618609
-2.950768 -0.845714 1.603148
-2.948078 -0.826950 1.613453
-3.529043 -0.946077 0.052203
-3.558120 -0.917666 0.050955
-3.563999 -0.898771 0.044765
-3.564724 -0.882556 0.036856
-3.572910 -0.869180 0.049241
-3.566538 -0.852782 0.032150
-3.269526 -1.052682 0.043570
-3.283486 -1.050901 0.035526
-3.242729 -1.054595 0.047471
-3.249328 -1.054136 0.046960
-3.213047 -1.054979 0.027697
-3.186880 -1.051045 0.031604
-3.200636 -1.053548 0.052155
-3.398062 -1.019650 0.055071
-3.425335 -1.005594 0.052913
-3.434117 -0.996216 0.034117
-3.403477 -1.016842 0.054411
-3.416754 -1.008430 0.045816
-3.487757 -0.962907 0.029880
-3.500494 -0.960748 0.045804
-3.478499 -0.973399 0.047546
-3.509160 -0.953650 0.038500
-3.363782 -1.031134 0.031912
-3.368447 -1.028778 0.030136
-3.332271 -1.041147 0.033964
-3.339316 -1.039744 0.049620
-3.301271 -1.048283 0.044714
-3.319559 -1.044207 0.037771
-3.174868 -1.047201 0.053478
-3.159283 -1.038442 0.030255
-3.166180 -1.043428 0.037936
-3.773342 -0.929724 0.616175
-3.780590 -0.923717 0.607998
-3.810761 -0.888654 0.600289
-3.815441 -0.876265 0.598712
-3.820298 -0.851095 0.611977
-3.824072 -0.829298 0.610130
-3.644261 -0.999605 0.604592
-3.723363 -0.961721 0.613489
-3.712904 -0.964976 0.595998
-3.749760 -0.944595 0.611538
-3.764854 -0.934470 0.592392
-3.692371 -0.979863 0.617289
-3.704837 -0.971432 0.605413
-3.580581 -1.019028 0.615482
-3.621384 -1.006588 0.598995
-3.618677 -1.009282 0.620810
-3.591929 -1.016643 0.622494
-3.598075 -1.013895 0.605514
-3.559880 -1.022458 0.600605
-3.524908 -1.028579 0.598700
-3.544029 -1.025427 0.598795
-3.494641 -1.023474 0.985139
-3.497531 -1.022887 0.981620
-3.459791 -1.029885 0.992776
-3.483608 -1.026185 0.985943
-3.425968 -1.033676 0.998060
-3.448902 -1.032298 0.972143
-3.405531 -1.035533 0.999396
-3.410906 -1.035740 0.976636
-3.381389 -1.037770 0.999718
-3.378796 -1.038535 0.975963
-3.329460 -1.043006 0.988485
-3.343222 -1.041934 0.970882
-3.306404 -1.045428 0.983451
-3.327245 -1.043086 0.999540
-3.266860 -1.048059 0.998845
-3.253039 -1.048474 0.996414
-3.265764 -1.048381 0.990842
-3.205490 -1.049506 0.989297
-3.220977 -1.049853 0.974224
-3.175400 -1.048853 0.988461
-3.186156 -1.049005 0.995127
-3.157684 -1.046499 0.988046
-3.165902 -1.047778 0.986925
-3.120026 -1.036298 0.994377
-3.123044 -1.037625 0.978001
-3.099874 -1.026661 0.973775
-3.098933 -1.025868 0.992422
-3.087327 -1.018362 0.991616
-3.071783 -1.001595 0.993144
-3.065018 -0.991660 0.973578
-3.057315 -0.976160 0.969738
-3.058128 -0.978293 0.978927
-3.038803 -0.933448 0.991805
-3.041577 -0.938758 0.984905
-3.021134 -0.901267 0.995371
-3.024420 -0.902270 0.972387
-2.999578 -0.861974 0.996421
-2.994371 -0.848392 0.992539
-2.994989 -0.842335 0.978666
-3.361959 -1.038731 1.103402
-3.375195 -1.037128 1.106536
-3.340682 -1.040593 1.110813
-3.347280 -1.040177 1.097193
-3.298140 -1.044136 1.123095
-3.317117 -1.042716 1.105822
-3.274123 -1.046059 1.108731
-3.239318 -1.047966 1.106256
-3.261352 -1.046910 1.106574
-3.233147 -1.048274 1.109124
-3.192734 -1.049616 1.119928
-3.190316 -1.049380 1.109307
-3.164886 -1.048660 1.100674
-3.164005 -1.048773 1.107518
-3.113304 -1.041220 1.111241
-3.116592 -1.043217 1.121511
-3.093222 -1.029766 1.096241
-3.106501 -1.040934 1.124928
-3.073676 -1.023578 1.116503
-3.049354 -0.998747 1.108392
-3.037687 -0.990979 1.118612
-3.025824 -0.962543 1.097405
-3.004576 -0.934156 1.104114
-3.013952 -0.949624 1.103641
-3.002069 -0.943430 1.122589
-2.995122 -0.917024 1.103995
-2.978227 -0.894829 1.118338
-2.971039 -0.875364 1.111354
-2.964518 -0.859572 1.109975
-2.993298 -0.937973 1.570701
-3.004845 -0.905455 1.592458
-2.968691 -0.911873 1.571910
-2.970974 -0.920926 1.568620
-2.978219 -0.877853 1.596303
-2.982081 -0.892455 1.590431
-2.940134 -0.884906 1.570134
-2.951989 -0.863240 1.592767
-2.938622 -0.861052 1.585759
-2.908794 -0.833817 1.593415
-2.911151 -0.854128 1.572096
-2.888434 -0.823371 1.585309
-3.301002 -0.929211 -0.427258
-3.273984 -0.941271 -0.422529
-3.271210 -0.953795 -0.412375
-3.237932 -0.929737 -0.413840
-3.261261 -0.939747 -0.421997
-3.181139 -1.050327 1.325433
-3.140830 -1.053116 1.316412
-3.171472 -1.050827 1.343356
-3.126219 -1.052832 1.339571
-3.114428 -1.052896 1.316621
-3.081030 -1.052343 1.320549
-3.458918 -0.988579 1.332875
-3.432408 -1.007512 1.326994
-3.435245 -1.007310 1.320158
-3.460872 -0.984170 1.338215
-3.479915 -0.959286 1.334446
-3.489243 -0.940932 1.332908
-3.490718 -0.933770 1.337772
-3.364729 -1.030491 1.339787
-3.328600 -1.036694 1.338468
-3.353764 -1.033388 1.324736
-3.312892 -1.038530 1.338346
-3.321919 -1.037532 1.335663
-3.273742 -1.042373 1.343006
-3.497565 -0.919208 1.330923
-3.499671 -0.903746 1.335224
-3.510808 -0.870965 1.321605
-3.505728 -0.864732 1.335716
-3.506568 -0.840353 1.338517
-3.506619 -0.820801 1.340201
-3.005038 -0.999766 1.531950
-2.975916 -0.999395 1.509822
-2.971301 -0.981771 1.523754
-2.951736 -0.956796 1.522164
-2.923349 -0.901224 1.518535
-2.917465 -0.894838 1.504966
-2.906899 -0.875882 1.510359
-2.915231 -0.885592 1.529757
-2.891372 -0.848959 1.514395
-2.894275 -0.854421 1.521007
-2.882149 -0.836849 1.530743
-2.888934 -0.844290 1.511068
-2.874783 -0.824231 1.517642
-3.000155 -0.987982 1.541226
-3.333091 -0.940608 -0.382340
-3.306832 -0.961571 -0.391049
-3.289112 -0.959540 -0.404338
-3.314275 -0.951061 -0.397155
-3.319513 -0.929610 -0.408672
-3.324610 -0.923848 -0.407009
-3.260059 -0.966186 -0.382311
-3.245336 -0.944396 -0.402774
-3.256721 -0.947628 -0.410822
-3.224158 -0.925974 -0.398850
-3.423557 -0.933635 -0.225887
-3.410296 -0.946337 -0.240141
-3.347595 -0.990762 -0.230614
-3.354012 -0.987366 -0.236391
-3.266593 -1.022669 -0.238292
-3.316064 -1.004394 -0.226249
-3.299397 -1.004873 -0.254324
-3.275772 -1.015253 -0.250372
-3.364228 -0.980567 -0.253001
-3.384373 -0.968229 -0.247623
-3.351169 -0.986452 -0.250343
-3.423573 -0.918566 -0.236102
-3.421302 -0.903087 -0.245647
-3.414142 -0.920887 -0.253960
-3.235595 -1.033067 -0.232886
-3.254445 -1.025319 -0.240943
-3.209766 -1.020838 -0.251173
-3.219565 -1.030280 -0.233546
-3.173540 -0.992316 -0.236175
-3.180618 -0.991540 -0.252455
-3.169821 -0.989906 -0.232162
-3.152301 -0.942582 -0.244867
-3.151712 -0.949688 -0.236629
-3.130123 -1.020645 0.053901
-3.123915 -1.010986 0.032588
-3.078799 -0.973260 0.053160
-3.055975 -0.948167 0.046012
-3.026592 -0.924973 0.055240
-2.997506 -0.902480 0.058167
-3.013018 -0.909340 0.033000
-2.986957 -0.890472 0.044376
-2.966193 -0.865964 0.037218
-2.972687 -0.873607 0.039130
-2.953906 -0.852874 0.044123
-2.954542 -0.857767 0.054225
-2.944265 -0.835357 0.037442
-2.934695 -0.820665 0.038613
-3.195380 -1.053873 0.337306
-3.199387 -1.054606 0.327137
-3.169331 -1.052185 0.324041
-3.456288 -1.031039 0.334087
-3.470125 -1.027300 0.335962
-3.498771 -1.016266 0.316686
-3.406950 -1.040655 0.320061
-3.413521 -1.039867 0.332139
-3.383095 -1.044215 0.336753
-3.336987 -1.048947 0.334372
-3.356034 -1.047068 0.337276
-3.121548 -1.039188 0.313392
-3.098156 -1.026610 0.319472
-3.103652 -1.029308 0.331699
-3.070989 -1.006377 0.317315
-3.054719 -0.990834 0.322143
-3.069875 -1.003838 0.334441
-3.047260 -0.980834 0.334451
-3.030576 -0.958715 0.329541
-3.040913 -0.971897 0.333854
-3.016063 -0.929664 0.334919
-3.012679 -0.934340 0.313058
-3.001116 -0.901716 0.324698
-3.006993 -0.906438 0.338436
-2.984473 -0.864632 0.322577
-2.977816 -0.846013 0.329969
-2.969182 -0.843551 0.311464
-2.956700 -0.822806 0.311287
-3.524227 -0.935107 0.020414
-3.520410 -0.928694 0.000544
-3.548254 -0.908208 0.022240
-3.544006 -0.917969 0.025127
-3.540299 -0.904799 0.006892
-3.538601 -0.901167 0.000195
-3.555844 -0.867927 0.013775
-3.268092 -1.052848 0.025951
-3.277449 -1.051699 0.009750
-3.255420 -1.054389 -0.000590
-3.248441 -1.054551 0.018978
-3.210685 -1.055790 0.004010
-3.210692 -1.056031 -0.002793
-3.191499 -1.052155 0.027375
-3.430691 -0.993901 0.015280
-3.394159 -1.014533 0.016983
-3.413718 -1.004331 0.019221
-3.480376 -0.966079 0.025332
-3.465244 -0.968879 0.001209
-3.480212 -0.957450 -0.003696
-3.502851 -0.949216 0.018512
-3.516401 -0.944811 0.026816
-3.453727 -0.978705 0.011284
-3.368987 -1.027315 0.020538
-3.379281 -1.022161 0.015789
-3.341643 -1.035609 0.000195
-3.357337 -1.032695 0.025078
-3.383288 -1.017461 -0.001709
-3.297520 -1.048531 0.020842
-3.327738 -1.041035 0.007236
-3.237764 -1.054819 0.357969
-3.241258 -1.054429 0.371293
-3.217560 -1.054680 0.348467
-3.183346 -1.052629 0.354270
-3.193344 -1.053325 0.357934
-3.162240 -1.050035 0.358154
-3.167878 -1.050943 0.365077
-3.493155 -1.022684 0.354340
-3.454425 -1.033677 0.366964
-3.483518 -1.025032 0.349537
-3.506697 -1.017746 0.349524
-3.440915 -1.035108 0.348430
-3.442877 -1.035219 0.358866
-3.404598 -1.041537 0.356121
-3.421909 -1.039688 0.370217
-3.363047 -1.046374 0.347960
-3.390508 -1.043483 0.348275
-3.331143 -1.049495 0.351120
-3.327444 -1.049786 0.358919
-3.151325 -1.047712 0.355406
-3.127671 -1.039209 0.369970
-3.128532 -1.040327 0.344803
-3.090635 -1.019004 0.366003
-3.093669 -1.020805 0.369176
-3.082920 -1.013794 0.356637
-3.063674 -0.995291 0.351006
-3.071848 -1.002518 0.358318
-3.048408 -0.975167 0.358721
-3.041291 -0.965397 0.354953
-3.029952 -0.953831 0.341463
-3.034391 -0.948729 0.365725
-3.009831 -0.896636 0.360332
-3.014798 -0.907803 0.361603
-3.001335 -0.885493 0.347444
-3.006310 -0.890256 0.357249
-2.989484 -0.838578 0.369329
-2.985251 -0.839326 0.356799
-2.982023 -0.835520 0.352856
-3.780488 -0.924329 0.579645
-3.814167 -0.882454 0.581742
-3.819189 -0.865249 0.571558
-3.821181 -0.847958 0.565611
-3.657271 -0.991252 0.582265
-3.717575 -0.961535 0.592112
-3.715102 -0.958299 0.569673
-3.752716 -0.940050 0.582259
-3.766482 -0.932885 0.574905
-3.728611 -0.950284 0.561357
-3.680425 -0.978673 0.576056
-3.701479 -0.969742 0.587076
-3.659765 -0.987056 0.565205
-3.615427 -1.007265 0.586685
-3.626507 -1.003879 0.588726
-3.587370 -1.012815 0.561043
-3.609136 -1.007468 0.569839
-3.548824 -1.023307 0.573647
-3.558175 -1.021048 0.569570
-3.540156 -1.024375 0.564016
-3.546174 -1.024425 0.585436
-3.518975 -1.021698 0.916486
-3.552614 -1.006819 0.932237
-3.569647 -0.999528 0.909895
-3.528107 -1.017645 0.931285
-3.543236 -1.012488 0.923298
-3.596822 -0.972726 0.925552
-3.612297 -0.952898 0.931535
-3.622855 -0.938081 0.931076
-3.638846 -0.925507 0.913274
-3.644120 -0.905522 0.925463
-3.651717 -0.886608 0.927315
-3.651114 -0.882697 0.931396
-3.674646 -0.841721 0.908373
-3.669699 -0.843202 0.917879
-3.639437 -0.910618 0.930709
-3.556129 -0.995905 1.000339
-3.555455 -0.994498 1.022356
-3.521654 -1.013324 1.021885
-3.524424 -1.013070 1.002660
-3.580524 -0.969168 1.008057
-3.584967 -0.957903 1.025096
-3.593013 -0.949120 1.009511
-3.592856 -0.942809 1.025478
-3.571664 -0.976185 1.027202
-3.614490 -0.898065 1.013362
-3.610036 -0.918564 1.003621
-3.618505 -0.892506 1.007800
-3.613934 -0.879676 1.029399
-3.623087 -0.868074 1.010530
-3.625734 -0.850318 1.013031
-3.631897 -0.831435 1.005165
-3.365826 -1.036355 1.195920
-3.382828 -1.033798 1.198156
-3.352432 -1.037568 1.209650
-3.311040 -1.041612 1.213238
-3.328269 -1.040134 1.215510
-3.269446 -1.044822 1.207784
-3.296848 -1.042828 1.214146
-3.237681 -1.047675 1.194627
-3.264936 -1.045269 1.202750
-3.220921 -1.048699 1.204138
-3.073138 -1.043215 1.192496
-3.068331 -1.046078 1.218433
-3.017821 -1.021548 1.205938
-3.041270 -1.033006 1.200483
-3.038975 -1.027904 1.189279
-3.019998 -1.015369 1.190116
-2.994909 -0.999795 1.218457
-3.008982 -1.012967 1.206044
-2.985803 -0.967812 1.200847
-2.982800 -0.964847 1.205324
-2.972266 -0.924433 1.192530
-2.975138 -0.941090 1.201552
-2.962956 -0.903934 1.207260
-2.968088 -0.916969 1.200943
-2.957143 -0.880067 1.197574
-2.933748 -0.830310 1.210657
-2.950701 -0.860266 1.194088
-2.927944 -0.822075 1.214110
-3.413664 -1.023267 0.122304
-3.416630 -1.022914 0.129032
-3.446150 -1.008925 0.123433
-3.512301 -0.975961 0.132399
-3.365928 -1.038954 0.131053
-3.378795 -1.036552 0.142954
-3.338650 -1.044792 0.135916
-3.341990 -1.044358 0.140713
-3.315424 -1.048205 0.122638
-3.142824 -1.040852 0.129326
-3.163769 -1.049260 0.133405
-3.117978 -1.027333 0.130942
-3.128919 -1.035567 0.138667
-3.084949 -1.000541 0.125673
-3.052429 -0.966795 0.121859
-3.040019 -0.963309 0.150243
