1.576897 -0.894100 1.220930
1.552253 -0.849038 1.224442
1.552847 -0.848000 1.217591
1.519663 -0.790529 1.218759
1.515170 -0.783984 1.224726
1.499690 -0.754631 1.211925
1.495914 -0.748399 1.211902
1.420491 -0.621955 1.204312
1.412962 -0.604655 1.199121
1.407255 -0.597366 1.221340
1.402699 -0.584373 1.209296
1.393339 -0.556093 1.205801
1.388193 -0.544537 1.226773
1.383192 -0.518291 1.205060
1.378592 -0.509432 1.224416
1.374781 -0.484734 1.205764
1.368913 -0.475562 1.225443
1.362332 -0.446519 1.205844
1.476049 -0.716694 1.221648
1.465642 -0.700078 1.214712
1.439149 -0.655549 1.206848
1.453032 -0.677512 1.201877
1.439840 -0.655013 1.197736
1.610354 -1.005944 1.257612
1.561310 -0.883101 1.254590
1.609227 -0.976517 1.232510
1.595320 -0.961792 1.255930
1.586120 -0.927644 1.244407
1.576766 -0.907648 1.244234
1.570519 -0.887007 1.232807
1.545756 -0.848177 1.246161
1.538621 -0.831133 1.239326
1.521808 -0.810041 1.263772
1.523344 -0.802424 1.238628
1.491746 -0.753218 1.256695
1.515208 -0.791903 1.248614
1.506959 -0.772017 1.235541
1.494097 -0.750122 1.237679
1.414318 -0.628986 1.259926
1.408923 -0.609962 1.242606
1.400148 -0.593459 1.247352
1.392922 -0.582742 1.257473
1.391636 -0.568428 1.245590
1.382450 -0.544967 1.252850
1.379672 -0.531215 1.247885
1.373527 -0.508373 1.245286
1.373509 -0.502294 1.239316
1.362148 -0.472676 1.250676
1.359695 -0.463735 1.251100
1.367878 -0.475404 1.232499
1.466177 -0.705487 1.239016
1.442509 -0.675872 1.262488
1.435421 -0.656639 1.239293
1.554245 -0.891317 1.288855
1.548130 -0.872180 1.280497
1.584128 -0.955531 1.280800
1.587020 -0.953941 1.270807
1.576360 -0.925972 1.270523
1.540838 -0.855768 1.280033
1.529915 -0.837037 1.286115
1.513675 -0.797783 1.269661
1.485665 -0.755255 1.282731
1.470722 -0.727080 1.279785
1.504227 -0.788215 1.283627
1.495849 -0.774236 1.285183
1.407983 -0.624114 1.274032
1.391319 -0.598414 1.289985
1.383099 -0.565185 1.273052
1.376011 -0.536677 1.266840
1.353199 -0.456792 1.267538
1.354383 -0.489153 1.291609
1.358555 -0.478253 1.268290
1.449518 -0.694643 1.283189
1.461621 -0.713949 1.281305
1.458602 -0.711587 1.286411
1.445247 -0.688388 1.284262
1.437265 -0.679244 1.294446
1.589238 -1.004650 1.316418
1.560577 -0.934861 1.328769
1.551472 -0.912476 1.327559
1.540380 -0.875126 1.310569
1.532959 -0.868788 1.327911
1.578530 -0.986527 1.332582
1.570217 -0.951655 1.318764
1.563756 -0.924262 1.305133
1.527155 -0.852421 1.322297
1.523285 -0.834865 1.305724
1.529615 -0.852149 1.313117
1.512043 -0.819512 1.316561
1.503293 -0.809212 1.326145
1.496207 -0.801024 1.333192
1.487805 -0.778089 1.316201
1.482628 -0.767002 1.311419
1.458205 -0.734234 1.325171
1.460811 -0.731710 1.315553
1.501021 -0.793682 1.306251
1.417634 -0.664110 1.330053
1.416440 -0.655110 1.317369
1.397631 -0.626946 1.325537
1.380903 -0.590715 1.325251
1.394621 -0.615355 1.311005
1.378460 -0.584981 1.325200
1.367748 -0.556635 1.323063
1.359729 -0.526769 1.313338
1.347253 -0.497836 1.328224
1.340226 -0.476560 1.332022
1.343010 -0.458699 1.304440
1.447209 -0.699636 1.302717
1.434820 -0.695440 1.330417
1.437993 -0.689081 1.311585
1.424803 -0.674439 1.325428
1.548676 -0.939169 1.368545
1.551287 -0.930264 1.350218
1.536926 -0.901954 1.357890
1.525750 -0.867707 1.349847
1.534561 -0.897912 1.360217
1.533433 -0.889462 1.353614
1.575099 -0.981379 1.338391
1.565014 -0.962499 1.349724
1.519232 -0.855244 1.351449
1.511610 -0.846614 1.360624
1.505806 -0.826740 1.347523
1.476014 -0.776574 1.344364
1.470553 -0.781959 1.364594
1.460197 -0.764567 1.361052
1.455156 -0.748652 1.350760
1.453673 -0.737691 1.340072
1.417866 -0.684005 1.356731
1.416487 -0.674560 1.347757
1.382976 -0.621716 1.367253
1.389385 -0.626335 1.354114
1.393489 -0.626925 1.343186
1.379948 -0.615820 1.369138
1.378535 -0.590856 1.337927
1.352732 -0.541740 1.360505
1.368633 -0.569300 1.341829
1.360345 -0.551931 1.346364
1.357000 -0.559897 1.369906
1.356896 -0.543820 1.348281
1.344141 -0.510348 1.351706
1.346476 -0.505576 1.339391
1.335313 -0.472810 1.344079
1.321836 -0.446095 1.362146
1.431406 -0.720389 1.367279
1.428600 -0.708376 1.360255
1.549964 -0.975185 1.403961
1.552261 -0.978277 1.400527
1.549764 -0.949377 1.377176
1.536293 -0.937871 1.403946
1.536667 -0.929005 1.392461
1.533694 -0.923353 1.394835
1.519212 -0.896057 1.404832
1.514407 -0.871354 1.386082
1.478587 -0.803446 1.378575
1.474025 -0.816271 1.405114
1.501657 -0.845487 1.384537
1.450667 -0.779289 1.399594
1.456815 -0.767156 1.371319
1.468871 -0.786337 1.373962
1.437658 -0.744800 1.382251
1.421200 -0.712676 1.380425
1.412565 -0.698506 1.385191
1.398418 -0.659291 1.372590
1.375074 -0.622048 1.391763
1.390272 -0.652344 1.386641
1.358722 -0.593378 1.405743
1.358472 -0.587045 1.398796
1.352872 -0.572135 1.397130
1.340959 -0.528409 1.382876
1.335593 -0.521817 1.393037
1.422936 -0.785028 1.466447
1.420002 -0.767158 1.447694
1.405008 -0.753117 1.472771
1.539951 -0.995194 1.460145
1.516610 -0.949327 1.471033
1.526111 -0.964293 1.460568
1.521462 -0.942502 1.453041
1.530751 -0.957359 1.442783
1.491999 -0.893826 1.469339
1.510103 -0.906389 1.443782
1.508434 -0.931080 1.474122
1.493517 -0.887092 1.458103
1.465536 -0.845989 1.459327
1.434025 -0.794923 1.454753
1.425940 -0.788338 1.463747
1.394608 -0.724398 1.467496
1.384735 -0.682992 1.444869
1.347422 -0.598123 1.448153
1.366174 -0.649483 1.470752
1.359259 -0.622697 1.445936
1.337433 -0.571988 1.446945
1.325660 -0.557723 1.471483
1.327197 -0.544959 1.452475
1.319358 -0.518261 1.462301
1.322920 -0.520505 1.445476
1.420713 -0.796208 1.493422
1.412759 -0.778206 1.489129
1.402679 -0.762566 1.503872
1.400642 -0.746885 1.481775
1.393912 -0.733505 1.490660
1.520998 -0.992597 1.509772
1.508440 -0.949600 1.489474
1.505773 -0.967785 1.509255
1.496495 -0.936926 1.501581
1.480459 -0.912692 1.509510
1.484717 -0.903211 1.493282
1.478676 -0.893422 1.493608
1.476582 -0.878075 1.479172
1.467908 -0.871553 1.488123
1.453969 -0.863304 1.507910
1.457657 -0.856136 1.489413
1.425081 -0.799109 1.483680
1.375128 -0.682853 1.502019
1.365771 -0.656954 1.500647
1.346503 -0.613498 1.493086
1.342441 -0.604393 1.485443
1.365377 -0.654473 1.495261
1.357143 -0.634785 1.489292
1.320173 -0.558838 1.498431
1.315277 -0.536634 1.504101
1.317934 -0.531507 1.481852
1.316851 -0.517467 1.475868
1.422561 -0.825579 1.540685
1.412434 -0.797014 1.533498
1.407669 -0.784523 1.528962
1.398325 -0.764470 1.542202
1.398514 -0.755266 1.511646
1.391617 -0.742561 1.544832
1.483942 -0.953429 1.541837
1.513378 -0.997776 1.531235
1.504366 -0.986457 1.535796
1.498489 -0.980995 1.542063
1.502756 -0.968843 1.516848
1.478929 -0.933329 1.532145
1.471089 -0.915759 1.530815
1.452222 -0.883939 1.536491
1.446330 -0.853535 1.512492
1.427066 -0.823540 1.520871
1.387627 -0.724215 1.522229
1.377089 -0.693426 1.536536
1.369734 -0.673028 1.534509
1.371285 -0.675234 1.513887
1.350526 -0.624413 1.519851
1.345703 -0.614626 1.519427
1.360646 -0.647306 1.522927
1.354886 -0.633941 1.531561
1.320856 -0.564371 1.540818
1.311114 -0.516871 1.532104
1.422835 -0.843921 1.562828
1.414607 -0.828845 1.577248
1.409771 -0.800527 1.553967
1.402734 -0.783509 1.568477
1.396929 -0.762160 1.562743
1.388876 -0.730960 1.556069
1.488123 -0.982966 1.568487
1.485197 -0.967727 1.556558
1.468858 -0.939796 1.562356
1.504864 -0.995770 1.546627
1.457193 -0.904538 1.547991
1.464620 -0.921255 1.550012
1.440892 -0.898123 1.577434
1.433807 -0.872713 1.566431
1.425894 -0.836168 1.545575
1.379272 -0.700762 1.549015
1.385653 -0.716993 1.578858
1.372285 -0.680477 1.548224
1.371126 -0.674016 1.570238
1.337469 -0.590245 1.558674
1.350932 -0.616056 1.567272
1.354638 -0.633081 1.547310
1.355892 -0.627349 1.571356
1.353605 -0.618872 1.573810
1.316769 -0.552545 1.550181
1.322116 -0.561857 1.554991
1.318106 -0.536499 1.577158
1.312869 -0.527132 1.551757
1.410900 -0.830463 1.600649
1.412495 -0.825162 1.583712
1.405050 -0.802156 1.612858
1.399703 -0.772800 1.583305
1.398453 -0.760757 1.612706
1.390404 -0.733081 1.583987
1.480167 -0.977420 1.581644
1.477564 -1.002037 1.613229
1.452183 -0.943677 1.610948
1.461305 -0.941196 1.583673
1.447250 -0.927795 1.602769
1.439541 -0.917723 1.611511
1.429584 -0.885580 1.596889
1.388525 -0.721016 1.599336
1.377757 -0.684534 1.609062
1.372284 -0.669359 1.599318
1.367561 -0.649519 1.605531
1.363132 -0.630451 1.610421
1.357763 -0.616251 1.603508
1.332442 -0.568773 1.583771
1.337508 -0.569829 1.604370
1.324556 -0.530962 1.602172
1.325464 -0.526125 1.608906
1.419651 -0.943257 1.693901
1.412549 -0.924885 1.697079
1.402119 -0.909943 1.719890
1.403504 -0.883464 1.699670
1.399660 -0.884319 1.714606
1.400362 -0.852841 1.701663
1.392455 -0.811119 1.717005
1.399265 -0.815326 1.694327
1.386116 -0.774651 1.718876
1.394181 -0.780449 1.696480
1.392466 -0.761622 1.691204
1.387898 -0.744068 1.693317
1.438432 -0.988656 1.695377
1.435012 -0.994130 1.710613
1.425237 -0.974869 1.715004
1.378628 -0.707158 1.693978
1.374589 -0.709858 1.715015
1.375787 -0.686445 1.686060
1.369013 -0.671565 1.711742
1.368098 -0.652222 1.688503
1.363046 -0.636739 1.708927
1.354703 -0.593436 1.715618
1.356112 -0.602671 1.685416
1.345492 -0.559463 1.693729
1.336883 -0.516797 1.714402
1.335900 -0.505342 1.703602
1.335444 -0.498422 1.691166
1.334066 -0.470729 1.700482
1.334003 -0.453509 1.688695
1.327779 -0.442111 1.745114
1.322981 -0.428357 1.753136
1.311831 -0.387690 1.749030
1.319055 -0.408419 1.747874
1.305761 -0.365635 1.737267
1.297215 -0.350513 1.743601
1.292493 -0.337886 1.739308
1.289311 -0.338559 1.752747
1.262349 -0.278763 1.723702
1.265884 -0.294494 1.744470
1.241114 -0.255653 1.742517
1.235800 -0.239436 1.727890
1.212501 -0.190494 1.741098
1.232015 -0.235170 1.732157
1.219205 -0.209387 1.739969
1.203103 -0.145731 1.723728
1.200563 -0.131928 1.738812
1.200036 -0.128898 1.746263
1.197726 -0.118677 1.749359
1.186977 -0.079780 1.721330
1.186130 -0.072404 1.740306
1.178222 -0.038991 1.739966
1.183778 -0.060987 1.748560
1.179189 -0.046180 1.727590
1.172573 -0.011071 1.735972
1.170113 0.005700 1.722843
1.168882 0.016930 1.741625
1.167915 0.048229 1.739103
1.168532 0.073029 1.728849
1.169877 0.083588 1.737660
1.172997 0.108749 1.741233
1.175419 0.125081 1.738735
1.176012 0.128450 1.728072
1.182645 0.161232 1.752176
1.186194 0.179324 1.728778
1.188231 0.191698 1.729658
1.187673 0.189046 1.721622
1.192683 0.231705 1.727908
1.193422 0.233861 1.754769
1.413086 -0.982139 1.760906
1.409969 -0.980450 1.771387
1.403160 -0.947912 1.761600
1.401879 -0.957146 1.781450
1.397968 -0.933432 1.777534
1.384761 -0.871984 1.785649
1.389364 -0.872009 1.756572
1.379568 -0.844464 1.777513
1.386805 -0.859776 1.758314
1.370517 -0.806557 1.779359
1.374460 -0.806303 1.767837
1.360528 -0.773854 1.788814
1.370452 -0.781077 1.765335
1.364693 -0.742875 1.763389
1.353332 -0.673486 1.782357
1.358556 -0.720822 1.774153
1.364783 -0.719781 1.755264
1.353670 -0.660568 1.778551
1.361030 -0.680821 1.758243
1.352279 -0.653996 1.781656
1.347949 -0.624848 1.789599
1.346440 -0.608344 1.789269
1.346971 -0.593719 1.779299
1.346249 -0.588340 1.778357
1.356725 -0.642579 1.760694
1.354522 -0.617009 1.756189
1.346828 -0.573050 1.755795
1.343117 -0.576706 1.784569
1.339183 -0.540044 1.765875
1.335023 -0.512888 1.759239
1.329440 -0.481438 1.774209
1.324168 -0.464293 1.787370
1.326504 -0.449899 1.760092
1.195519 0.187818 1.878652
1.194908 0.213862 1.891137
1.194581 0.220784 1.879326
1.189866 0.246703 1.884634
1.189458 0.259462 1.865888
1.173345 0.296174 1.877784
1.155753 0.324504 1.884935
1.154547 0.340929 1.864450
1.401981 -1.004880 1.919084
1.400501 -1.002055 1.912894
1.397813 -1.001784 1.894779
1.391767 -0.955285 1.915496
1.389638 -0.943550 1.895305
1.388021 -0.932646 1.906517
1.386357 -0.925584 1.898649
1.375173 -0.882896 1.907264
1.372339 -0.874289 1.910128
1.367408 -0.862092 1.922529
1.359620 -0.836032 1.915305
1.335199 -0.767546 1.927126
1.328146 -0.726949 1.911769
1.312032 -0.658375 1.915029
1.321870 -0.689348 1.899637
1.314314 -0.652563 1.903637
1.308416 -0.630360 1.917581
1.306731 -0.606828 1.917917
1.309185 -0.585853 1.905520
1.168699 0.269806 1.939451
1.173813 0.266295 1.929955
1.161486 0.281710 1.939720
1.400483 -0.990234 1.991906
1.402759 -0.994310 1.971066
1.390573 -0.946985 1.969668
1.389982 -0.947649 1.981691
1.378633 -0.912401 1.976028
1.378997 -0.915233 1.991455
1.373085 -0.895747 1.981250
1.369601 -0.884019 1.976817
1.353249 -0.822814 1.982863
1.344649 -0.796936 1.974697
1.360816 -0.849754 1.964550
1.358046 -0.841287 1.979305
1.332346 -0.766390 1.997989
1.341161 -0.788792 1.966593
1.325678 -0.747774 1.985023
1.319315 -0.731177 1.979740
1.314810 -0.723180 1.991667
1.314483 -0.714735 1.968059
1.298784 -0.678163 1.997698
1.302016 -0.676486 1.975489
1.294888 -0.650974 1.982301
1.289650 -0.617837 1.985125
1.294189 -0.617229 1.966229
1.282564 -0.563800 1.994767
1.282332 -0.516001 1.979637
1.399699 -1.005588 2.024881
1.399514 -1.004257 2.024337
1.393515 -0.977654 2.021029
1.385375 -0.945484 2.018994
1.389816 -0.961354 2.017838
1.380920 -0.927472 2.011905
1.377297 -0.925842 2.034315
1.362428 -0.868962 2.012895
1.353167 -0.830737 2.021240
1.350238 -0.821646 2.026312
1.344973 -0.800278 2.017720
1.341819 -0.789020 2.004085
1.335776 -0.778174 2.025896
1.316568 -0.735173 2.031120
1.320747 -0.742170 2.018807
1.277636 -0.593034 2.032914
1.280499 -0.600488 2.021869
1.299279 -0.692341 2.034183
1.311817 -0.717454 2.000007
1.297644 -0.679097 2.011370
1.296345 -0.680823 2.031811
1.380107 -0.970243 2.064012
1.391054 -0.995085 2.051863
1.382586 -0.949692 2.039146
1.375631 -0.934563 2.047276
1.372524 -0.923806 2.046415
1.362924 -0.904918 2.058365
1.359597 -0.868504 2.035455
1.349106 -0.830669 2.043879
1.347119 -0.820563 2.041543
1.341346 -0.802517 2.046089
1.335371 -0.782969 2.042816
1.329844 -0.772599 2.048398
1.318341 -0.743140 2.044271
1.319013 -0.752630 2.066543
1.282953 -0.629937 2.061861
1.278468 -0.611983 2.068496
1.307563 -0.723544 2.062584
1.301957 -0.708063 2.063872
1.290948 -0.659677 2.035317
1.288369 -0.655967 2.066649
1.181143 -0.074248 2.088421
1.181955 -0.065503 2.080063
1.178774 -0.057187 2.099377
1.183556 -0.029199 2.072029
1.183249 0.001127 2.097092
1.183418 0.008021 2.099742
1.184825 0.010562 2.086375
1.184680 0.019970 2.100297
1.188043 0.046454 2.096374
1.190680 0.059558 2.092834
1.194503 0.090216 2.096193
1.196393 0.134754 2.077398
1.195938 0.114557 2.103322
1.192504 0.148986 2.102839
1.174372 0.190397 2.084374
1.175739 0.190197 2.074473
1.151170 0.218009 2.103336
1.344738 -0.971523 2.138364
1.336296 -0.939348 2.134818
1.367694 -1.000297 2.115171
1.361598 -0.978375 2.111789
1.347106 -0.930204 2.110628
1.335106 -0.922495 2.128618
1.328294 -0.896932 2.130648
1.323006 -0.870635 2.131083
1.317917 -0.856207 2.135738
1.327617 -0.861955 2.117896
1.312160 -0.829540 2.136557
1.314123 -0.811495 2.124621
1.318911 -0.804590 2.110851
1.317010 -0.791936 2.109743
1.309963 -0.785225 2.124192
1.300890 -0.755924 2.133934
1.299511 -0.738917 2.124206
1.282677 -0.666307 2.132467
1.336684 -0.975071 2.156037
1.331978 -0.964819 2.157150
1.333608 -0.962401 2.152611
1.319356 -0.949439 2.170113
1.315950 -0.896640 2.153561
1.315890 -0.881076 2.148617
1.305543 -0.852495 2.158266
1.299811 -0.839242 2.165908
1.308144 -0.821607 2.142332
1.296826 -0.817361 2.165473
1.301696 -0.782023 2.143433
1.300174 -0.760308 2.140117
1.280219 -0.671209 2.161177
1.276198 -0.645447 2.159534
1.273297 -0.612738 2.156595
1.272469 -0.588623 2.171900
1.328611 -1.005216 2.195932
1.319048 -0.981870 2.196159
1.301249 -0.942121 2.206008
1.310707 -0.935780 2.178952
1.304389 -0.931385 2.191195
1.307405 -0.909142 2.174705
1.285245 -0.871800 2.207747
1.291464 -0.867847 2.192849
1.282877 -0.841313 2.204205
1.278242 -0.734112 2.203691
1.290325 -0.857171 2.192125
1.292255 -0.831343 2.179980
1.289131 -0.821360 2.185425
1.286539 -0.767800 2.182671
1.284363 -0.747420 2.182868
1.279600 -0.707043 2.196737
1.281760 -0.703914 2.174055
1.277800 -0.686459 2.199232
1.277054 -0.674178 2.202745
1.275307 -0.637685 2.185811
1.275362 -0.629463 2.190814
1.274864 -0.611208 2.188894
1.275231 -0.603614 2.195976
1.278827 -0.945553 2.271378
1.275797 -0.931280 2.277022
1.280166 -0.910648 2.252961
1.274337 -0.890323 2.263950
1.273125 -0.874875 2.256342
1.287580 -0.987832 2.269172
1.272120 -0.863485 2.254309
1.269655 -0.835348 2.247404
1.265441 -0.817763 2.273793
1.268487 -0.807002 2.245668
1.265212 -0.783559 2.272303
1.268379 -0.790524 2.244165
1.269704 -0.751496 2.244286
1.274220 -0.708442 2.264539
1.274986 -0.705233 2.258015
1.279110 -0.662442 2.271433
1.275798 -0.697013 2.285523
1.275244 -0.703892 2.301265
1.277726 -0.686628 2.309386
1.280419 -0.657630 2.304295
1.281525 -0.647768 2.312414
1.281922 -0.628839 2.294960
1.282424 -0.604345 2.293328
1.282394 -0.587523 2.292072
1.279263 -0.569657 2.280076
1.278068 -0.555644 2.295330
1.271483 -0.530549 2.294437
1.267519 -0.514830 2.291235
1.260467 -0.483491 2.295640
1.255394 -0.459675 2.296001
1.247138 -0.422967 2.304649
1.253387 -0.444047 2.304410
1.227355 -0.378727 2.295855
1.213278 -0.342777 2.287129
1.203814 -0.309885 2.282431
1.222769 -0.367041 2.294595
1.218515 -0.353955 2.302411
1.273530 -0.983203 2.344397
1.273483 -0.983782 2.315157
1.266731 -0.947991 2.345454
1.266367 -0.932851 2.335861
1.266919 -0.908525 2.339638
1.267974 -0.894034 2.329505
1.268326 -0.863440 2.319950
1.267606 -0.852757 2.342907
1.267940 -0.796623 2.342332
1.269243 -0.778801 2.340149
1.268336 -0.769880 2.325944
1.271346 -0.734856 2.315192
1.275314 -0.728096 2.346919
1.274339 -0.950980 2.418916
1.276638 -0.952994 2.442772
1.270581 -0.912705 2.430605
1.274885 -0.918524 2.453121
1.269987 -0.887030 2.423645
1.272344 -0.865696 2.431331
1.278486 -0.841261 2.448937
1.273727 -0.840061 2.425831
1.277687 -0.829371 2.439425
1.274738 -0.821034 2.420961
1.283301 -0.795732 2.445543
1.282860 -0.781903 2.434274
1.284638 -0.765284 2.430964
1.285759 -0.730321 2.424572
0.576912 0.796009 2.549937
0.582002 0.797032 2.528395
0.085095 1.388419 2.589401
0.058108 1.418587 2.592053
0.073385 1.411149 2.570847
0.098127 1.382429 2.568970
0.040654 1.448552 2.583594
0.032649 1.452773 2.592294
0.826214 0.426096 2.589643
0.852811 0.401791 2.574826
0.831272 0.421614 2.576069
0.814034 0.440837 2.566049
0.817994 0.435969 2.574279
0.801700 0.455662 2.559254
0.802697 0.452825 2.582791
0.772656 0.490650 2.572757
0.742175 0.528328 2.588590
0.711165 0.572996 2.590873
0.708570 0.582833 2.561459
0.682950 0.618306 2.578525
0.683016 0.620604 2.567303
0.658276 0.659956 2.561128
0.736638 0.541511 2.562723
0.877634 0.386776 2.637892
0.874964 0.390423 2.661688
0.580952 0.753091 2.652091
0.567231 0.775240 2.647479
0.543443 0.808586 2.661279
0.557014 0.792424 2.643268
0.557028 0.788923 2.655333
0.512927 0.857312 2.652383
0.505667 0.871776 2.637711
0.526355 0.836541 2.653604
0.542560 0.817602 2.633520
0.519203 0.848321 2.650215
0.474109 0.910436 2.661846
0.497772 0.881540 2.643730
0.482202 0.901888 2.638592
0.461280 0.928480 2.649053
0.022264 1.412593 2.655651
-0.002037 1.467073 2.633838
-0.001984 1.470797 2.630123
-0.021575 1.480639 2.650588
-0.019832 1.501916 2.633950
0.569018 0.759229 2.709460
0.559458 0.774588 2.707929
0.549833 0.789008 2.702150
0.513188 0.839148 2.727144
0.501201 0.864243 2.712356
0.505510 0.853889 2.729670
0.531338 0.815655 2.701040
0.517220 0.835523 2.711390
0.478677 0.906411 2.708319
0.475397 0.913640 2.721087
0.481950 0.902111 2.715676
0.471567 0.920057 2.723722
0.464385 0.931294 2.729832
0.460543 0.933984 2.710265
0.012150 1.363379 2.720902
-0.046799 1.425828 2.723830
-0.031132 1.397692 2.730567
-0.000160 1.380570 2.714715
-0.014401 1.411088 2.699515
-0.057354 1.458842 2.714753
-0.080244 1.504394 2.726863
-0.067566 1.482687 2.717589
0.293083 1.141027 2.712281
0.280125 1.153617 2.711760
0.197710 1.210805 2.730168
0.224495 1.204490 2.702931
0.270152 1.164799 2.709070
0.267652 1.169903 2.700847
0.277398 1.160818 2.700728
0.579625 0.739420 2.739271
0.559224 0.773143 2.735423
0.570148 0.751872 2.761192
0.545934 0.789228 2.766448
0.530313 0.810644 2.764902
0.555301 0.779400 2.732978
0.509536 0.845906 2.747615
0.500709 0.865360 2.735163
0.503636 0.860901 2.761680
0.525845 0.818079 2.757562
0.524649 0.819308 2.733336
0.475992 0.915512 2.739669
0.493855 0.883919 2.765866
0.488260 0.892027 2.734796
0.475874 0.916760 2.750720
0.456971 0.942501 2.742412
0.002832 1.334421 2.764666
-0.022418 1.360789 2.761729
0.003189 1.340663 2.756743
0.014867 1.339935 2.745746
0.010485 1.352186 2.735570
-0.006578 1.349344 2.756097
-0.048272 1.411457 2.739462
-0.064720 1.434288 2.745152
-0.036166 1.373132 2.764852
-0.042094 1.395384 2.747301
-0.081433 1.456406 2.762606
-0.077673 1.441809 2.764497
-0.088442 1.487568 2.758498
-0.087702 1.505480 2.744483
0.159997 1.215071 2.761959
0.294018 1.124454 2.765907
0.260532 1.156874 2.745758
0.284260 1.137084 2.752327
0.277303 1.145745 2.744035
0.193832 1.190461 2.767457
0.221066 1.184860 2.747233
0.214049 1.193722 2.739963
0.207080 1.185802 2.762448
0.200728 1.199803 2.745375
0.190470 1.202220 2.750916
0.178448 1.208780 2.752618
0.246402 1.160582 2.761024
0.229772 1.159289 2.786185
0.297651 1.115417 2.791530
0.243196 1.146239 2.798250
0.245160 1.149501 2.787327
0.290513 1.125688 2.770350
0.201064 1.186323 2.767721
0.191806 1.174856 2.794490
0.223072 1.163379 2.785622
0.228572 1.166787 2.773082
0.434460 0.969414 2.783499
0.423673 0.983145 2.782225
0.400439 1.015336 2.794116
0.404798 1.011150 2.780869
0.413595 0.995013 2.795848
0.340324 1.087041 2.771274
0.351114 1.076417 2.776266
0.364230 1.061666 2.798428
0.394957 1.026130 2.774742
0.380341 1.043206 2.797982
0.316316 1.105197 2.781969
0.312652 1.106639 2.787402
0.095691 1.232826 2.799131
0.036673 1.291099 2.792632
0.042796 1.294237 2.780346
0.121798 1.233859 2.773174
0.035409 1.307002 2.768869
0.767403 0.461586 2.769809
0.753040 0.481742 2.784393
0.764250 0.467116 2.768754
0.744690 0.498127 2.772525
0.729208 0.525267 2.778087
0.710430 0.557711 2.787804
0.718192 0.543650 2.769450
0.689118 0.587094 2.769524
0.683427 0.597079 2.791340
0.693655 0.584666 2.796572
0.633163 0.659516 2.795763
0.639811 0.647477 2.776544
0.663132 0.621645 2.792746
0.656579 0.628788 2.790175
0.198671 1.159219 2.819430
0.218325 1.148204 2.828166
0.297879 1.110637 2.812464
0.300709 1.111181 2.802931
0.275504 1.121657 2.820158
0.255312 1.133803 2.815924
0.249051 1.140369 2.806314
0.209597 1.161271 2.803838
0.431418 0.965735 2.827379
0.417936 0.980325 2.834059
0.406305 1.002269 2.812258
0.400078 1.014103 2.803281
0.372017 1.047146 2.835986
0.367040 1.057892 2.807049
0.344884 1.077905 2.808748
0.376696 1.043030 2.827347
0.325712 1.093488 2.806967
0.054752 1.259086 2.821794
0.073546 1.240209 2.820118
0.044513 1.273256 2.813209
0.028185 1.278549 2.832972
0.735114 0.504071 2.828133
0.733720 0.507221 2.829148
0.712438 0.558047 2.834532
0.684013 0.601796 2.818157
0.700589 0.579270 2.825105
0.692548 0.593103 2.829949
0.650601 0.642089 2.815930
0.642965 0.648803 2.805168
0.682598 0.605576 2.826891
0.582278 0.738622 2.842686
0.575246 0.749796 2.854140
0.561169 0.768525 2.846350
0.535286 0.805672 2.851965
0.554060 0.780342 2.871362
0.551587 0.781559 2.840119
0.445073 0.944220 2.849915
0.513368 0.838713 2.867194
0.503310 0.854868 2.868361
0.502457 0.861099 2.842710
0.527157 0.817883 2.845069
0.527877 0.817471 2.864397
0.468982 0.911057 2.860673
0.485541 0.891174 2.847535
0.483059 0.894024 2.851319
0.453391 0.933956 2.849787
0.012567 1.284649 2.860785
0.002088 1.297714 2.848521
-0.049995 1.347521 2.854660
-0.070388 1.369156 2.864624
-0.070975 1.368667 2.868527
-0.008291 1.303726 2.862327
-0.009731 1.307796 2.850478
-0.036323 1.334258 2.846268
-0.001548 1.302793 2.840780
-0.068215 1.376102 2.837472
-0.093840 1.423943 2.846129
-0.098515 1.437437 2.851217
-0.100657 1.450782 2.837459
-0.105197 1.471955 2.867862
-0.106629 1.484396 2.862672
-0.107990 1.497458 2.860351
0.159956 1.157685 2.870818
0.094113 1.197246 2.867983
0.076381 1.220747 2.851747
0.092100 1.207645 2.840920
0.116562 1.186424 2.848567
0.126253 1.182276 2.840558
0.145581 1.168664 2.853331
0.134650 1.169804 2.867642
0.199303 1.151654 2.840798
0.171324 1.160493 2.840528
0.217049 1.143810 2.846757
0.218132 1.140638 2.861802
0.270746 1.117256 2.854058
0.285486 1.108356 2.859556
0.296750 1.104756 2.843034
0.250385 1.130054 2.838922
-0.116190 1.535127 2.883715
-0.121090 1.550020 2.880677
-0.126640 1.565838 2.877888
-0.134306 1.586776 2.880096
-0.143414 1.616224 2.883924
-0.144880 1.646741 2.887951
-0.110224 1.514149 2.877593
-0.145789 1.656295 2.902344
-0.142992 1.654456 2.875032
-0.141032 1.703641 2.897349
-0.140515 1.699447 2.886272
-0.119820 1.518141 2.962978
-0.131719 1.543064 2.958723
-0.150105 1.579120 2.968575
-0.129902 1.546464 2.946392
-0.147148 1.568023 2.971105
-0.152384 1.607725 2.971820
-0.150463 1.605627 2.957422
-0.147032 1.593029 2.943613
-0.151414 1.615508 2.958844
-0.145870 1.666624 2.948350
-0.145855 1.675026 2.970922
0.558752 0.766641 2.990266
0.581099 0.745927 2.987117
0.543245 0.780212 2.999050
0.521009 0.808761 2.986734
0.522579 0.802471 3.011240
0.436531 0.936464 3.002892
0.441878 0.923864 2.990720
0.445435 0.916621 2.987622
0.495134 0.841172 3.009572
0.495185 0.842443 2.979052
0.477815 0.867728 3.006575
0.491150 0.847384 2.990384
0.460496 0.891146 2.980546
-0.014291 1.293559 3.005761
-0.022277 1.299927 2.989753
0.011632 1.278777 2.981717
0.015259 1.275141 3.012018
-0.056459 1.328474 3.010422
-0.064792 1.340119 2.986406
-0.076902 1.359195 3.002114
-0.025144 1.302119 2.988215
-0.042676 1.315273 2.988921
-0.122159 1.496060 3.007142
-0.082407 1.377830 2.980092
-0.093902 1.431858 3.008120
-0.090820 1.418000 2.986460
-0.098705 1.451511 2.990720
0.140186 1.189680 2.995747
0.111542 1.213096 3.000644
0.117834 1.204539 2.980187
0.182440 1.158941 2.988291
0.234095 1.131293 2.992748
0.204995 1.146748 2.984289
0.267505 1.110314 3.007983
0.289028 1.098502 2.978117
0.277005 1.104136 3.003975
0.515270 0.811051 3.031602
0.538199 0.783904 3.032842
0.518524 0.807091 3.036000
0.441027 0.938216 3.035043
0.433799 0.947407 3.026526
0.513330 0.813901 3.025104
0.501996 0.831547 3.038238
0.491467 0.850434 3.046649
0.464976 0.892038 3.015321
0.462067 0.903630 3.037120
-0.025154 1.298237 3.038771
-0.000415 1.282688 3.028142
-0.003746 1.286262 3.013309
-0.054890 1.324739 3.034373
-0.061527 1.331292 3.037607
-0.033484 1.305875 3.023336
-0.036965 1.307776 3.033062
-0.117898 1.457016 3.046103
-0.126523 1.494207 3.018206
-0.138435 1.507340 3.024188
-0.087353 1.378233 3.037404
-0.085997 1.382225 3.019163
-0.102092 1.425097 3.043589
-0.100801 1.445886 3.019142
0.298180 1.087816 3.020061
0.148025 1.187977 3.019112
0.128696 1.202042 3.034815
0.123257 1.206205 3.042243
0.200834 1.155236 3.034661
0.234334 1.131976 3.017414
0.209356 1.148271 3.020892
0.260545 1.114657 3.014656
0.290673 1.091870 3.029740
0.244023 1.125715 3.024112
0.510249 0.827013 3.068159
0.499413 0.844341 3.075491
0.495183 0.853539 3.078829
0.481074 0.874503 3.052772
0.490202 0.863045 3.074987
0.452612 0.925457 3.055074
-0.015224 1.286285 3.073050
-0.018311 1.292209 3.049058
0.014286 1.267797 3.067264
-0.048622 1.316467 3.054652
-0.058553 1.325522 3.064065
-0.086669 1.363927 3.068695
-0.039872 1.308455 3.051484
-0.124165 1.455558 3.058187
-0.130755 1.465392 3.057879
-0.161634 1.501889 3.067772
-0.151709 1.479801 3.076528
-0.158319 1.508042 3.056158
-0.138213 1.484802 3.048726
-0.099871 1.393596 3.072166
-0.101119 1.404105 3.066249
-0.111980 1.418721 3.079041
0.301990 1.075824 3.071494
0.302571 1.079736 3.051594
0.154316 1.185584 3.065509
0.147054 1.190332 3.053311
0.126942 1.203042 3.052268
0.105386 1.217363 3.057330
0.197090 1.159648 3.056666
0.229540 1.136591 3.062454
0.222530 1.141623 3.053731
0.265923 1.108094 3.059952
0.445161 0.946082 3.082378
0.464295 0.938467 3.101210
0.467348 0.924832 3.091403
0.019534 1.259086 3.096904
0.010181 1.263101 3.103936
-0.026202 1.289025 3.109794
0.002062 1.266453 3.110816
-0.054986 1.317839 3.097296
-0.070372 1.332762 3.108023
-0.079837 1.343534 3.113489
-0.087302 1.360874 3.085760
-0.122975 1.428544 3.087436
-0.136368 1.430543 3.108544
-0.189970 1.507770 3.106447
-0.160669 1.464399 3.109302
-0.146846 1.465120 3.085287
-0.165164 1.484606 3.092386
-0.102441 1.379287 3.102269
-0.109992 1.411842 3.083074
0.304552 1.067575 3.101274
0.281910 1.090261 3.090773
0.085897 1.223081 3.095153
0.083109 1.227034 3.082755
0.141722 1.192138 3.113798
0.121630 1.203948 3.096394
0.103987 1.213305 3.101770
0.234928 1.131608 3.111859
0.214108 1.148339 3.085640
0.260544 1.108767 3.106997
0.244664 1.123844 3.098433
0.242312 1.125669 3.104389
0.253431 1.108902 3.163733
0.239423 1.123937 3.152510
0.178948 1.167276 3.162940
0.395826 1.017729 3.163109
0.331184 1.033305 3.174300
0.347764 1.023277 3.171495
0.342477 1.024184 3.178881
0.039931 1.237034 3.164006
0.036017 1.237463 3.186092
-0.123250 1.361827 3.204784
0.017203 1.249010 3.195471
0.001517 1.259831 3.196395
-0.008662 1.267186 3.196139
-0.019428 1.276137 3.213688
-0.080562 1.326505 3.219258
-0.049317 1.300273 3.197780
-0.053446 1.303561 3.217691
-0.091219 1.338212 3.197438
-0.112894 1.355515 3.194440
-0.184880 1.436787 3.207107
-0.154227 1.389918 3.207995
-0.138275 1.371479 3.219081
-0.177810 1.418248 3.218339
-0.172471 1.418923 3.200484
-0.194246 1.455978 3.221148
-0.198536 1.469748 3.192056
-0.213611 1.501360 3.206928
-0.216502 1.509122 3.206413
0.267316 1.088904 3.214309
0.292827 1.065442 3.190129
0.281435 1.074828 3.216831
0.054788 1.226495 3.197622
0.065137 1.218541 3.218245
0.092079 1.206969 3.190763
0.123361 1.183565 3.220188
0.117579 1.194280 3.189701
0.145914 1.172109 3.217708
0.132560 1.178587 3.219898
0.101229 1.199116 3.204058
0.226031 1.123935 3.217152
0.192063 1.150990 3.200072
0.193041 1.145764 3.217799
0.221770 1.128097 3.211632
0.257649 1.100874 3.189436
0.252824 1.101850 3.215270
0.332991 1.032930 3.196798
0.319774 1.044430 3.217075
0.356466 1.023108 3.194139
0.342804 1.025456 3.195395
-0.125274 1.367880 3.254381
-0.046333 1.297375 3.223982
0.026377 1.242368 3.226996
-0.003189 1.263460 3.231950
-0.032978 1.287947 3.252876
-0.042028 1.295111 3.245846
-0.061581 1.312690 3.247555
-0.091432 1.336099 3.228424
-0.184838 1.433667 3.227441
-0.161409 1.395969 3.227726
-0.171875 1.415053 3.235632
-0.178520 1.423904 3.231118
-0.191329 1.474669 3.237120
-0.196740 1.463793 3.221969
-0.202821 1.490186 3.224800
-0.181137 1.450604 3.249232
0.284624 1.072476 3.253895
0.272701 1.081424 3.245481
0.054020 1.222196 3.251221
0.062956 1.217401 3.235163
0.118031 1.183262 3.234418
0.158520 1.163779 3.224187
0.200138 1.137228 3.252319
0.174469 1.149779 3.254599
0.256193 1.096715 3.236038
0.240391 1.111360 3.241639
0.318465 1.049031 3.225953
0.318436 1.053644 3.234061
0.350136 1.039906 3.222167
0.012644 1.252150 3.257781
-0.029859 1.289552 3.267884
-0.024304 1.297449 3.291017
-0.007571 1.275770 3.281755
-0.069746 1.330528 3.271315
-0.058522 1.313730 3.263694
-0.063880 1.316608 3.259418
-0.095639 1.360616 3.273437
-0.087678 1.342349 3.265807
-0.090757 1.342988 3.263391
-0.077627 1.344498 3.273904
-0.031293 1.306584 3.290933
-0.151325 1.397412 3.257063
-0.116994 1.389823 3.271842
-0.134389 1.396902 3.265478
-0.127961 1.401160 3.271069
-0.148703 1.436148 3.270255
-0.153629 1.406058 3.260586
-0.146623 1.406139 3.265229
-0.144803 1.426807 3.269750
-0.162022 1.463709 3.264813
-0.158538 1.446042 3.265602
-0.130486 1.446444 3.276528
-0.145218 1.461415 3.273770
-0.152608 1.498448 3.274648
-0.175198 1.491376 3.260054
-0.117957 1.501802 3.285102
-0.128756 1.494426 3.281467
-0.080601 1.379092 3.288076
-0.108217 1.389075 3.276687
-0.097947 1.411126 3.284296
-0.090408 1.439379 3.285883
-0.112464 1.441634 3.281143
-0.079888 1.479828 3.288884
-0.086042 1.504066 3.290576
0.286459 1.079688 3.264060
0.158328 1.157482 3.256472
0.056297 1.218298 3.269453
0.056988 1.218851 3.260949
0.077043 1.200041 3.272001
0.071765 1.201177 3.283849
0.124082 1.171456 3.274744
0.122906 1.169654 3.287073
0.138699 1.163894 3.277725
0.234081 1.116908 3.258083
0.192455 1.139959 3.276250
0.183687 1.142826 3.287366
0.218723 1.127163 3.281644
0.263515 1.098686 3.276119
0.249886 1.112050 3.279156
0.302847 1.102533 3.288994
0.288723 1.096226 3.288543
0.307096 1.068775 3.264760
0.314074 1.067586 3.258823
0.097113 1.403400 3.348683
0.099207 1.424490 3.348887
0.128381 1.431438 3.358824
0.046484 1.457935 3.334723
0.095971 1.440923 3.347707
0.050383 1.491708 3.339387
0.030908 1.499256 3.331089
0.086899 1.491336 3.352913
0.088879 1.476426 3.352128
0.117527 1.442046 3.354823
0.097232 1.442254 3.348306
0.108472 1.487691 3.358579
0.014364 1.567613 3.329345
0.015231 1.605778 3.338294
-0.014033 1.627001 3.334423
-0.022923 1.641190 3.335194
0.018055 1.629208 3.347631
0.004073 1.635617 3.344443
-0.049299 1.662436 3.328093
-0.055958 1.685156 3.330868
-0.024908 1.671927 3.344463
-0.042992 1.664258 3.332925
0.013016 1.666439 3.360588
-0.003820 1.683155 3.359663
0.040484 1.511168 3.336254
0.048824 1.537408 3.340991
0.079633 1.513540 3.352495
0.075887 1.542916 3.351937
0.055216 1.568131 3.346278
0.030118 1.572336 3.335792
0.076961 1.559659 3.353733
0.108798 1.526052 3.361003
0.099228 1.549640 3.359985
0.060612 1.584852 3.351032
0.053575 1.610726 3.354362
0.075961 1.580005 3.355648
0.044819 1.629529 3.358128
0.147458 1.399767 3.366684
0.141516 1.386181 3.368484
0.145302 1.438723 3.362732
0.135461 1.420470 3.361760
0.160776 1.449988 3.364801
0.123922 1.483459 3.361419
0.153130 1.498787 3.363009
0.137247 1.485754 3.362821
0.166717 1.396821 3.371522
0.012299 1.690854 3.368920
0.004940 1.686465 3.364629
0.093664 1.577932 3.361766
0.137489 1.513347 3.363033
0.130615 1.565978 3.365968
0.121310 1.572170 3.365621
0.101487 1.571768 3.362485
0.074635 1.644969 3.374270
0.111724 1.584662 3.366370
2.259459 0.716941 -0.599916
2.240923 0.734935 -0.590066
2.232334 0.774227 -0.588117
2.241069 0.770889 -0.598114
2.252844 0.802917 -0.618513
2.230092 0.783973 -0.586475
2.240026 0.827774 -0.602829
2.227445 0.836460 -0.584939
2.245722 0.851150 -0.611551
2.230420 0.857311 -0.589454
2.252919 0.899976 -0.618918
2.232045 0.904576 -0.592108
2.227267 0.921128 -0.587851
2.246648 0.941195 -0.612369
2.378043 0.473351 -0.584831
2.376210 0.531441 -0.588126
2.383787 0.499975 -0.586270
2.403363 0.447856 -0.585676
2.330575 0.351766 -0.480693
2.325625 0.390731 -0.496258
2.351663 0.327074 -0.500325
2.342355 0.327104 -0.482957
2.336758 0.338783 -0.481819
2.334429 0.382507 -0.504127
2.335286 0.391496 -0.510138
2.247096 0.564877 -0.491322
2.245145 0.568918 -0.490802
2.234990 0.587844 -0.487958
2.220553 0.616090 -0.483875
2.230023 0.603617 -0.491301
2.238327 0.622740 -0.511644
2.214784 0.661201 -0.498812
2.213382 0.666843 -0.502817
2.206558 0.683060 -0.502330
2.198241 0.690942 -0.485139
2.199095 0.730896 -0.508876
2.183187 0.795450 -0.485941
2.188893 0.798458 -0.499548
2.180064 0.820487 -0.483323
2.180233 0.844572 -0.486674
2.187528 0.853143 -0.503343
2.176935 0.862653 -0.482212
2.194700 0.813129 -0.514324
2.186870 0.906610 -0.514006
2.179701 0.906995 -0.498026
2.184834 0.928898 -0.514650
2.177926 0.948336 -0.502269
2.292691 0.271015 -0.228485
2.293627 0.278859 -0.235343
2.282721 0.295034 -0.227715
2.264632 -0.012191 -0.103234
2.277344 -0.005614 -0.115527
2.270260 0.011725 -0.118123
1.906429 0.676297 -0.056229
1.888457 0.685723 -0.036135
1.880355 0.703943 -0.032557
1.877137 0.713368 -0.031712
1.889929 0.717014 -0.050639
1.887447 0.738470 -0.055492
1.867939 0.743396 -0.029148
1.873583 0.771770 -0.047480
1.866883 0.783241 -0.042370
1.880357 0.777379 -0.059299
1.836946 0.894916 -0.039846
1.836178 0.903372 -0.042100
1.831548 0.917116 -0.035090
1.832608 0.929523 -0.048092
1.856282 0.811628 -0.038830
1.865175 0.816270 -0.056296
1.850841 0.852354 -0.053521
1.852821 0.853727 -0.058857
1.843430 0.890968 -0.058514
1.818006 0.976742 -0.034798
1.822073 0.978441 -0.049041
1.812212 0.996846 -0.031740
1.792262 1.077977 -0.052093
1.787806 1.081675 -0.044392
1.782715 1.122251 -0.057953
1.773493 1.160277 -0.028677
1.783634 1.137869 -0.054272
1.838089 0.796400 -0.000348
1.864150 0.689224 -0.001199
1.880054 0.683933 -0.023793
1.866072 0.740369 -0.025216
1.857628 0.719552 -0.003171
1.857492 0.761872 -0.019585
1.844605 0.769892 -0.000708
1.851245 0.798623 -0.024550
1.829470 0.834532 0.002765
1.836071 0.829973 -0.009254
1.831932 0.856596 -0.011657
1.827097 0.876461 -0.006796
1.822571 0.890978 -0.000894
1.819914 0.907833 -0.000724
1.819349 0.934834 -0.012769
1.805485 0.964029 0.005189
1.813731 0.969764 -0.017867
1.791024 1.012866 0.006500
1.810086 0.996869 -0.025125
1.791452 1.027491 -0.004973
1.788634 1.035737 -0.005414
1.774417 1.083099 -0.010199
1.764907 1.105455 0.000009
1.769508 1.144984 -0.023424
1.758292 1.156155 0.004580
1.773651 1.097259 -0.022811
1.767042 1.165033 -0.011635
1.765002 1.180436 0.005020
1.774859 1.188470 -0.008868
1.793665 1.223455 -0.001522
1.808012 1.249165 0.008628
1.830577 1.253681 -0.017095
1.832177 1.265615 -0.005481
1.852229 1.278893 -0.020225
2.254259 -0.310118 0.088181
2.246460 -0.307253 0.093649
2.114741 -0.184192 0.107942
2.186542 -0.251949 0.103453
2.215866 -0.279752 0.100248
2.219587 -0.274351 0.091455
2.243940 -0.291493 0.081727
2.207195 -0.262393 0.093131
2.150915 -0.213004 0.098505
2.177149 -0.235308 0.096472
2.173180 -0.222737 0.087745
2.127089 -0.199415 0.108772
2.125175 -0.180708 0.093122
2.140134 -0.186174 0.083363
2.532617 -0.704668 0.089746
2.529289 -0.671709 0.079208
2.516845 -0.657075 0.094755
2.513770 -0.651968 0.098806
2.518357 -0.633554 0.083532
2.508025 -0.598055 0.088960
2.514034 -0.602726 0.079206
2.501132 -0.580967 0.094572
2.487186 -0.557891 0.110211
2.503561 -0.569503 0.082018
2.491972 -0.547925 0.089996
2.484174 -0.527741 0.083702
2.466058 -0.514507 0.107010
2.445311 -0.481564 0.091040
2.458883 -0.489094 0.080867
2.427015 -0.466075 0.093302
2.406610 -0.453552 0.100890
2.424764 -0.452630 0.079274
2.436843 -0.478918 0.099702
2.472794 -0.513481 0.092000
2.324733 -0.386134 0.101790
2.316705 -0.383637 0.105844
2.358310 -0.422818 0.111216
2.393687 -0.439810 0.097822
2.386297 -0.422936 0.086733
2.373623 -0.436950 0.113190
2.370076 -0.422921 0.101309
2.359443 -0.407367 0.094495
2.340403 -0.400942 0.103672
2.333500 -0.392273 0.100684
2.270174 -0.348557 0.110515
2.284893 -0.360076 0.108864
2.301599 -0.356946 0.090615
2.272577 -0.335291 0.094741
2.410404 -0.443553 0.084914
1.698946 1.049258 0.157544
1.681785 1.073782 0.174349
1.692536 1.077152 0.156230
1.692122 1.122850 0.149879
1.673627 1.098660 0.180772
1.681162 1.146010 0.171353
1.687879 1.146039 0.160427
1.686788 1.183147 0.172744
1.692923 1.209200 0.172643
1.695898 1.243774 0.176621
1.699674 1.264871 0.173710
1.695431 1.285816 0.179105
1.698287 1.280537 0.175078
1.819023 -0.148424 0.417922
1.832198 -0.157755 0.410452
1.807135 -0.127518 0.425927
1.815616 -0.104415 0.420071
1.824404 -0.128746 0.415587
1.817491 -0.076104 0.416362
1.839430 -0.085160 0.401154
1.837547 -0.079593 0.401163
1.813759 -0.050235 0.417153
1.839170 -0.054582 0.394683
1.842497 -0.160905 0.404915
1.855979 -0.115519 0.394381
1.823299 -0.001564 0.399682
1.814099 0.012439 0.409926
1.808230 0.061822 0.410575
1.816468 0.055453 0.396681
1.803766 0.082123 0.414090
1.798532 0.104184 0.417020
1.814878 0.079128 0.394563
1.763833 0.178038 0.408042
1.753624 0.181977 0.414743
1.798328 0.115559 0.414037
1.787592 0.127024 0.426372
1.790174 0.158457 0.395193
1.733781 0.198298 0.423661
1.748786 0.201583 0.401094
1.718019 0.238309 0.410067
1.738149 0.217804 0.398478
1.704778 0.259577 0.410605
1.839723 -0.654844 0.494524
1.821335 -0.633038 0.494925
1.803388 -0.617325 0.496860
1.808141 -0.609874 0.490441
1.835386 -0.598660 0.471916
1.901177 -0.693249 0.477224
1.876686 -0.658981 0.478337
1.855889 -0.666647 0.491206
1.845722 -0.659930 0.493553
1.882979 -0.667774 0.478076
1.898716 -0.672637 0.472146
1.934104 -0.718683 0.465784
1.926496 -0.695155 0.464986
1.915346 -0.671508 0.464393
1.847445 -0.633654 0.482474
1.876964 -0.637689 0.471033
1.889050 -0.634563 0.464657
1.887665 -0.631422 0.464199
1.865098 -0.612658 0.466399
1.772481 -0.582744 0.494419
1.757975 -0.574179 0.496753
1.729513 -0.542076 0.493668
1.764118 -0.547341 0.479203
1.760880 -0.538021 0.476829
1.782071 -0.560176 0.477051
1.784420 -0.554228 0.472911
1.833318 -0.583450 0.465161
1.774176 -0.545117 0.473676
1.706460 -0.510692 0.490817
1.736742 -0.494533 0.472926
1.748575 -0.507465 0.471186
1.712806 -0.459892 0.473605
1.724069 -0.469469 0.471672
1.730590 -0.449183 0.463701
1.740014 -0.473389 0.465984
1.830366 -0.718826 0.527456
1.830316 -0.696208 0.517564
1.801921 -0.686425 0.530781
1.792464 -0.673494 0.530694
1.834247 -0.684052 0.509518
1.839755 -0.681376 0.505231
1.767568 -0.630179 0.524962
1.721292 -0.589025 0.530204
1.740814 -0.592078 0.517804
1.767074 -0.594081 0.503927
1.780087 -0.645649 0.525066
1.784449 -0.623771 0.511112
1.788184 -0.621154 0.507714
1.788062 -0.615745 0.504682
1.858785 -0.711350 0.506643
1.847907 -0.685594 0.502319
1.706946 -0.559406 0.517085
1.708409 -0.577121 0.530619
1.744011 -0.572926 0.503494
1.759903 -0.692829 0.565648
1.736777 -0.660123 0.567338
1.757983 -0.678748 0.559729
1.772212 -0.662357 0.539172
1.740851 -0.658668 0.563050
1.791702 -0.721267 0.555535
1.776969 -0.700056 0.555602
1.800809 -0.717145 0.546379
1.724460 -0.626295 0.557253
1.748644 -0.641255 0.545769
1.723200 -0.605282 0.542405
1.707817 -0.585728 0.539259
1.699191 -0.701078 0.631736
1.665008 -0.655732 0.636236
1.698627 -0.676032 0.614922
1.693310 -0.669656 0.616248
1.626855 -0.606471 0.636120
1.661099 -0.624065 0.618633
1.694019 -0.654174 0.605390
1.659687 -0.604769 0.605704
1.633445 -0.596046 0.622111
1.552435 -0.490049 0.622761
1.523255 -0.449181 0.635859
1.547709 -0.473422 0.616807
1.585391 -0.557162 0.634797
1.626426 -0.581102 0.616311
1.621328 -0.568813 0.609970
1.585515 -0.517548 0.603968
1.600223 -0.546074 0.609868
1.570440 -0.509911 0.615367
1.534039 -0.440618 0.614651
1.535586 -0.426425 0.605577
1.510927 -0.385356 0.631389
1.518078 -0.392497 0.621697
1.528612 -0.395515 0.606584
1.516654 -0.356880 0.617325
1.522800 -0.351733 0.607612
1.511339 -0.331696 0.616966
1.501086 -0.318528 0.626055
1.475857 -0.240418 0.632064
1.501958 -0.305897 0.619643
1.503007 -0.271392 0.603122
1.481547 -0.224887 0.612501
1.464107 -0.201453 0.625065
1.452960 -0.190977 0.636251
1.448818 -0.173768 0.628868
1.461675 -0.194338 0.622626
1.528247 0.399661 0.703088
1.533301 0.409089 0.696793
1.536063 0.422620 0.700539
1.548035 0.437071 0.675274
1.542764 0.446974 0.696702
1.548039 0.469666 0.692147
1.551197 0.496616 0.689599
1.548117 0.502970 0.699338
1.554642 0.531698 0.687047
1.558157 0.540786 0.681514
1.556144 0.558652 0.694292
1.560373 0.595553 0.700315
1.564481 0.619116 0.699607
1.578384 0.639732 0.676680
1.580021 0.666192 0.679733
1.554603 0.776158 0.703719
1.550965 0.795521 0.687133
1.560954 0.785297 0.677844
1.547514 0.799154 0.690852
1.571730 0.695055 0.701755
1.578553 0.698058 0.687093
1.570319 0.729551 0.700363
1.581768 0.733204 0.674082
1.573332 0.754735 0.679764
1.545676 0.811636 0.679028
1.531108 0.836148 0.683111
1.520639 0.853615 0.695853
1.517418 0.865830 0.693002
1.511094 0.904712 0.679517
1.507068 0.927027 0.683519
1.798807 -1.005763 0.719398
1.768811 -0.991256 0.734362
1.762256 -0.996155 0.741298
1.757428 -0.967452 0.733060
1.750374 -0.963465 0.737168
1.779781 -0.993722 0.727654
1.793085 -0.980111 0.712064
1.774767 -0.950004 0.714832
1.776214 -0.937221 0.709751
1.772135 -0.929410 0.710305
1.739936 -0.922953 0.737924
1.729736 -0.895253 0.740003
1.725903 -0.871397 0.732154
1.751318 -0.884994 0.712119
1.735984 -0.860970 0.715629
1.727115 -0.852370 0.719848
1.736123 -0.849045 0.707943
1.710412 -0.825087 0.719382
1.488046 0.404187 0.798332
1.488887 0.449144 0.809320
1.494796 0.406210 0.786104
1.493995 0.454312 0.800953
1.498238 0.435249 0.789746
1.494054 0.481768 0.804370
1.503492 0.480131 0.787301
1.499928 0.527842 0.800069
1.497478 0.533702 0.805380
1.504613 0.554687 0.797031
1.514301 0.573900 0.784267
1.510726 0.599395 0.795012
1.503434 0.602403 0.807102
1.504285 0.613705 0.806791
1.515509 0.641474 0.791773
1.517600 0.666530 0.789679
1.505002 0.691948 0.806207
1.507657 0.703280 0.802510
1.511043 0.722285 0.795987
1.501444 0.727093 0.809036
1.517444 0.743855 0.784711
1.498550 0.742310 0.811739
1.499294 0.801306 0.793725
1.505362 0.792766 0.787074
1.487694 0.839551 0.796780
1.486318 0.855725 0.792380
1.476236 0.868835 0.810208
1.134992 1.402974 0.838779
1.131602 1.416817 0.826424
1.113961 1.434147 0.837393
1.109491 1.437959 0.841317
1.106740 1.444294 0.841710
1.109823 1.459899 0.824770
1.100039 1.487779 0.831653
1.404445 1.200583 0.845590
1.398941 1.219525 0.820086
1.458443 0.974417 0.834194
1.465532 0.960731 0.814718
1.456842 1.001609 0.841777
1.456212 1.020705 0.845504
1.461534 1.008541 0.832463
1.467242 0.994632 0.815764
1.458883 1.024885 0.841143
1.467098 1.040035 0.825935
1.466619 1.066089 0.834778
1.477619 1.087558 0.816248
1.466902 1.098211 0.840480
1.475312 1.113811 0.817809
1.451015 1.157153 0.830943
1.458987 1.132099 0.844336
1.443140 1.171225 0.824948
1.455735 1.165264 0.814005
1.262502 1.289625 0.836303
1.204553 1.330906 0.835093
1.167929 1.362340 0.842911
1.199264 1.341436 0.828066
1.234617 1.305958 0.836849
1.214217 1.327702 0.826715
1.311480 1.261229 0.844381
1.352531 1.254308 0.819037
1.321112 1.264672 0.830826
1.318747 1.260391 0.840412
1.306164 1.275132 0.823952
1.292259 1.271935 0.840780
1.383151 1.230570 0.825650
1.353674 1.241337 0.844346
1.163430 1.382669 0.823563
1.428698 0.323790 0.862117
1.435554 0.339951 0.859901
1.432331 0.357846 0.874318
1.445788 0.370499 0.858958
1.366195 0.255099 0.912306
1.381010 0.276187 0.903864
1.392222 0.267745 0.887620
1.377335 0.289051 0.912866
1.407901 0.315021 0.887027
1.398693 0.334745 0.911939
1.419370 0.336203 0.882298
1.411729 0.372091 0.916144
1.172339 1.010066 1.043369
1.209340 1.007504 1.034257
1.183971 1.013391 1.036264
1.232506 0.978625 1.050781
1.272282 0.959530 1.045804
1.265178 0.984700 1.034298
1.224818 1.002474 1.033756
1.249933 1.001300 1.027158
1.146099 1.022212 1.041630
1.286065 0.971929 1.032836
0.792785 1.515872 1.050692
0.792091 1.543137 1.055231
0.803797 1.522629 1.044838
0.824711 1.526987 1.034410
0.838465 1.533458 1.028651
0.846697 1.540529 1.023011
0.800605 1.561985 1.052746
0.811171 1.574484 1.046740
0.805718 1.602139 1.054014
0.815118 1.603538 1.046545
0.806340 1.621548 1.055800
0.845425 1.645176 1.023333
0.821443 1.650139 1.047605
0.835124 1.658490 1.038183
0.847024 1.661090 1.027589
0.856473 1.691589 1.034390
0.869310 1.702025 1.030777
1.164946 0.968387 1.085651
1.200093 0.967211 1.072080
1.189780 0.978085 1.066854
1.179973 0.963387 1.084514
1.153752 0.998720 1.060729
1.181391 0.988225 1.060675
1.218289 0.958275 1.072147
0.753268 1.533475 1.077076
0.740018 1.537983 1.086848
0.786085 1.540649 1.058271
0.751564 1.568635 1.089913
0.766949 1.566443 1.078165
0.783920 1.563135 1.065321
0.794835 1.564309 1.057518
0.771570 1.601635 1.082242
0.779223 1.638541 1.083889
0.790298 1.627550 1.071155
0.794963 1.631307 1.067534
0.782854 1.654049 1.084814
0.796615 1.672215 1.079559
0.796761 1.650342 1.070147
0.816709 1.695836 1.074794
0.809723 1.695646 1.080701
0.805576 1.702723 1.089653
1.136138 0.912847 1.122738
1.132839 0.926660 1.118459
1.115860 0.942350 1.118036
1.306056 0.405825 1.097165
1.309271 0.426425 1.098580
1.301630 0.428863 1.112304
1.300038 0.437564 1.117843
1.315144 0.478429 1.108706
1.328383 0.495534 1.097028
1.328037 0.483665 1.092847
1.322260 0.497669 1.106201
1.280127 0.634867 1.096979
1.266506 0.668735 1.093413
1.254363 0.649247 1.118675
1.256146 0.661588 1.109538
1.319759 0.556907 1.107111
1.306026 0.588578 1.099172
1.293349 0.608273 1.099359
1.234359 0.680907 1.125623
1.243694 0.682634 1.113566
1.249455 0.692704 1.102336
1.242000 0.733203 1.095658
1.238688 0.738034 1.097860
1.187816 0.806875 1.125051
1.208975 0.791187 1.112368
1.221726 0.753136 1.112270
1.218566 0.766689 1.110629
1.222662 0.778718 1.101862
1.224626 0.806168 1.094265
1.206918 0.812162 1.108522
1.201256 0.822551 1.110990
1.195906 0.838476 1.112527
1.168119 0.862576 1.122419
1.202521 0.851219 1.105294
1.197872 0.875605 1.103921
1.221070 0.854377 1.093311
1.147424 0.903479 1.121239
1.195881 0.896087 1.101930
1.203024 0.891565 1.099102
1.190152 0.915341 1.100919
1.155224 0.926688 1.109443
1.156215 0.945336 1.101713
1.214948 0.888841 1.093296
0.845807 1.175414 1.250065
