0.315190 1.511089 3.225445
0.306086 1.537160 3.232174
3.370465 1.451499 0.675533
3.357931 1.462417 0.698570
3.362062 1.492429 0.684898
3.353281 1.480325 0.704660
3.395429 0.982736 0.702248
3.412529 0.958715 0.675378
3.395147 1.017465 0.697151
3.393559 1.008682 0.701708
3.402768 1.054816 0.672653
3.393218 1.037352 0.696492
3.390332 1.073193 0.691919
3.389124 1.064329 0.697178
3.395059 1.092493 0.676067
3.385685 1.142729 0.682315
3.380221 1.144826 0.691337
3.390912 1.208675 0.672791
3.380623 1.224663 0.691159
3.378878 1.238336 0.693359
3.379130 1.283295 0.686950
3.382567 1.320092 0.674882
3.338508 1.464567 0.736318
3.343390 1.453293 0.728564
3.346478 1.472117 0.719408
3.335575 1.502938 0.735792
3.381871 0.980575 0.725161
3.379769 1.004077 0.725656
3.384029 1.037869 0.713443
3.382855 1.060713 0.710952
3.224210 1.104128 0.995847
3.219614 1.094742 1.004489
3.206568 1.153076 1.015458
3.222874 1.144330 0.991370
3.215185 1.162668 1.000384
3.210152 1.188608 1.003656
3.200099 1.221516 1.012735
3.204750 1.196566 1.010690
3.189978 1.253330 1.021647
3.212366 1.231990 0.991161
3.189498 1.296064 1.011570
3.195666 1.271667 1.008412
3.186005 1.319596 1.009325
3.192670 1.322977 0.997467
3.185772 1.368953 0.994093
3.182946 1.353892 1.002386
3.179061 1.370913 1.003666
3.169892 1.392856 1.015346
3.188929 1.436121 0.989567
3.172905 1.442793 1.014136
3.183303 1.470573 0.997907
3.181163 1.491984 0.999549
3.171379 1.481487 1.015464
3.163315 -0.988096 1.104342
3.238225 -0.957171 1.116332
3.244895 -0.952836 1.123542
3.277512 -0.941045 1.110776
3.297063 -0.916455 1.115061
3.304656 -0.909417 1.110521
3.308251 -0.865999 1.124574
3.327435 -0.873528 1.093557
3.311899 -0.898237 1.109813
3.316635 -0.839020 1.114377
3.328635 -0.862713 1.094832
3.314590 -0.821051 1.118346
3.313339 -0.766536 1.120060
3.315568 -0.788729 1.117383
3.328650 -0.737563 1.095393
3.319961 -0.738752 1.108270
3.072945 0.423755 1.295079
3.087511 0.395671 1.280990
3.090908 0.444398 1.270859
3.078183 0.437712 1.287006
3.085470 0.464120 1.274981
3.074423 0.491320 1.284836
3.081077 0.505294 1.274931
3.067735 0.503096 1.291381
3.053787 0.554491 1.300886
3.074482 0.538157 1.278355
3.058277 0.599807 1.287162
3.050606 0.577738 1.300710
3.076722 0.570347 1.270424
3.070010 0.598368 1.273342
3.042644 0.635495 1.300095
3.069823 0.629816 1.268905
3.044591 0.658901 1.295550
3.058046 0.647755 1.280499
2.913483 1.053097 1.388060
2.905957 1.073050 1.392633
2.915592 1.076015 1.382488
2.917550 1.119198 1.376887
2.893238 1.099488 1.402132
2.920262 1.127161 1.373755
2.892394 1.147800 1.400105
2.885062 1.219177 1.400602
2.911755 1.178062 1.377256
2.909377 1.226755 1.371649
2.875618 1.250903 1.405448
2.874870 1.282925 1.400903
2.888047 1.282010 1.388510
2.897650 1.231939 1.384864
2.898229 1.258906 1.380473
2.903527 1.265412 1.373389
2.870388 1.330983 1.398794
2.885913 1.308191 1.386920
2.862587 1.346474 1.404595
2.882729 1.346478 1.386390
2.893474 1.347147 1.376515
2.881310 1.386798 1.384645
2.880429 1.375522 1.386395
2.860569 1.423936 1.400107
2.872051 1.417380 1.390245
2.884887 1.464276 1.372656
2.874942 1.443463 1.384660
2.880190 1.499985 1.372440
2.856533 1.488850 1.394546
2.815408 0.638052 1.542775
2.809869 0.723357 1.535062
2.808341 0.722947 1.536749
2.810518 0.767537 1.526075
2.811984 0.759221 1.525843
2.787652 0.810976 1.542872
2.802230 0.789888 1.530930
2.680075 1.150796 1.610912
2.670372 1.214219 1.608836
2.692502 1.122724 1.603344
2.697499 1.117986 1.599324
2.685839 1.092512 1.613220
2.715997 1.110779 1.583111
2.682034 1.159609 1.607848
2.690451 1.134079 1.603727
2.701274 1.128674 1.594523
2.695755 1.172709 1.593197
2.696920 1.190697 1.589237
2.687600 1.228879 1.586215
2.655251 1.251398 1.614522
2.667988 1.282697 1.586949
2.659616 1.270309 1.602133
2.660303 1.310097 1.592409
2.657807 1.330247 1.595827
2.646307 1.303654 1.614516
2.641295 1.344135 1.614301
2.672811 1.368941 1.582077
2.649571 1.338319 1.605407
2.640675 1.394042 1.614011
2.650756 1.403766 1.605044
2.653466 1.402165 1.602327
2.653764 1.378305 1.600750
2.655267 1.415193 1.600408
2.648448 1.408715 1.607265
2.672256 1.441193 1.583142
2.655221 1.455176 1.599731
2.641258 1.490484 1.609755
2.639386 1.475167 1.612435
2.670045 1.495526 1.583991
2.650026 1.494004 1.601953
2.639016 0.414316 1.721870
2.618963 0.417491 1.737110
2.619940 0.441591 1.732785
2.591633 0.474120 1.750353
2.599376 0.474667 1.744211
2.588560 0.515038 1.747916
2.606087 0.507326 1.735146
2.629441 0.465506 1.721557
2.613997 0.512814 1.728383
2.588779 0.544070 1.743874
2.609142 0.553759 1.728096
2.610411 0.576290 1.724281
2.581686 0.581824 1.742754
2.615628 0.536877 1.724992
2.613354 0.578798 1.721791
2.554909 0.616112 1.751835
2.566257 0.611052 1.746133
2.580908 0.605920 1.738061
2.576320 0.636311 1.734744
2.545284 0.650602 1.748301
2.565140 0.650611 1.737294
2.596128 0.652974 1.721524
2.600360 -0.936061 1.848947
2.597072 -0.947578 1.846000
2.608794 -0.943821 1.840104
2.612964 -0.953734 1.832907
2.590333 -0.916967 1.857918
2.605421 -0.932708 1.846346
2.596498 -0.871014 1.856825
2.633265 -0.929963 1.825925
2.627987 -0.926376 1.830283
2.638480 -0.864929 1.826057
2.598578 -0.834257 1.855794
2.593130 -0.843356 1.859547
2.606651 -0.817699 1.850064
2.637024 -0.831300 1.827576
2.613011 -0.844571 1.845538
2.621620 -0.822638 1.838929
2.622299 -0.803471 1.837949
2.593793 -0.775980 1.858350
2.597880 -0.735662 1.853124
2.634887 -0.778806 1.827093
2.635676 -0.752938 1.824868
2.612686 -0.735270 1.841951
2.112859 1.564641 1.962083
2.109425 1.589173 1.961536
2.104513 1.625616 1.960294
2.113074 1.621854 1.956208
2.126485 1.512228 1.959504
2.150826 1.543337 1.943819
2.132844 1.549525 1.952858
2.121866 1.578028 1.956038
2.145971 1.583357 1.942726
2.128709 1.607167 1.949467
2.152495 1.619468 1.935624
2.140457 1.633660 1.940621
2.117379 1.679616 1.948035
2.084486 1.702460 1.962819
2.091039 1.684559 1.961389
2.149492 1.671317 1.931959
2.147728 1.656634 1.934421
2.151705 1.652329 1.932787
2.147112 1.690295 1.931139
2.377618 -0.940331 1.992009
2.272909 -0.296812 2.028016
2.262598 -0.304751 2.034140
2.303258 -0.303886 2.012259
2.284974 -0.257517 2.018232
2.279918 -0.256141 2.020871
2.310466 -0.246743 2.003114
2.270111 -0.205366 2.022000
2.280306 -0.197838 2.015800
2.264768 -0.190044 2.023688
2.307427 -0.181868 1.999738
2.257085 -0.135241 2.023438
2.241089 -0.156359 2.033914
2.240679 -0.105455 2.030059
2.252748 -0.129991 2.025423
2.252032 -0.061633 2.020639
2.242321 -0.077781 2.027014
2.258913 -0.035222 2.015029
2.243092 -0.058360 2.025196
2.224859 -0.012583 2.031451
2.239323 0.004177 2.022050
2.244997 -0.011683 2.020555
2.254496 0.033712 2.010921
2.234743 0.030783 2.021865
2.212079 0.056689 2.032096
2.245395 0.067514 2.013474
2.240459 0.061708 2.016442
2.207977 0.087395 2.032578
2.256440 0.088645 2.006419
2.241725 0.096030 2.013921
2.224535 0.140099 2.020137
2.211828 0.119437 2.028472
2.259732 0.139689 2.001588
2.249125 0.147845 2.006604
2.194864 0.181215 2.032759
2.256507 0.173291 2.000885
2.240971 0.165197 2.009671
2.224401 0.217160 2.015019
2.204952 0.183188 2.027318
2.241461 0.195098 2.007183
2.238576 0.203907 2.008104
2.211017 0.242545 2.020458
2.191791 0.228507 2.031452
2.247682 0.229621 2.001318
1.997830 0.611924 2.097226
2.034206 0.620438 2.080436
2.024323 0.625739 2.084505
2.008129 0.643757 2.090491
2.008776 0.666411 2.088679
2.039678 0.665647 2.074361
2.027043 0.653955 2.081145
1.977232 0.735224 2.097752
1.959068 0.766019 2.103694
1.979092 0.759698 2.095273
1.977386 0.810427 2.092074
1.968957 0.841726 2.093225
1.974573 0.820207 2.092522
1.961769 0.820356 2.098254
1.974949 0.847945 2.090030
1.954406 0.862759 2.098114
1.937123 0.891502 2.103470
1.966554 0.897876 2.090076
1.967195 0.937462 2.086797
1.968404 0.924408 2.087329
2.004403 0.686815 2.089108
2.005833 0.678323 2.089105
2.032506 0.692369 2.075708
2.009748 0.720990 2.084283
1.992216 0.729623 2.091488
2.033723 0.716148 2.073312
2.007200 0.774566 2.081450
1.982609 0.774939 2.092675
2.032658 0.757211 2.070618
2.016088 0.806373 2.074918
1.990065 0.796503 2.087530
2.015172 0.824941 2.073831
1.995537 0.828897 2.082374
2.020387 0.842402 2.069888
2.003374 0.860147 2.076256
1.993818 0.859386 2.080642
2.003512 0.884758 2.074362
2.001741 0.921381 2.072429
1.985236 0.922171 2.079989
2.104105 -0.911394 2.138029
2.107746 -0.927988 2.135050
2.150698 -0.915958 2.119262
2.123143 -0.932495 2.129871
2.163261 -0.928429 2.112964
2.141761 -0.895413 2.124009
2.140860 -0.870983 2.124893
2.164504 -0.882753 2.114197
2.114289 -0.860904 2.136144
2.117190 -0.819831 2.135517
2.113457 -0.766671 2.136884
2.119693 -0.745881 2.133122
2.138535 -0.844082 2.126152
2.131185 -0.847444 2.129246
2.184976 -0.844834 2.104752
2.170153 -0.834997 2.111791
2.155020 -0.805294 2.119014
2.129828 -0.827160 2.130000
2.183380 -0.807983 2.105188
2.157434 -0.805844 2.117893
2.140971 -0.766848 2.124380
2.142244 -0.781364 2.124359
2.166114 -0.775924 2.112849
2.144559 -0.730731 2.120691
2.124643 -0.750484 2.131116
2.177428 -0.754461 2.106408
2.157656 -0.757115 2.116185
2.120919 -0.715337 2.130891
2.109779 -0.585750 2.129516
2.153810 -0.705948 2.115157
2.127690 -0.723085 2.128096
2.146892 -0.686109 2.117470
2.123270 -0.688594 2.128608
2.172352 -0.688637 2.105697
1.665876 1.607579 2.152714
1.647882 1.588414 2.161691
1.669044 1.604186 2.151776
1.658975 1.631238 2.153453
1.639108 1.631477 2.161287
1.690796 1.625553 2.140339
1.668954 1.628823 2.149571
1.598835 1.660374 2.173716
1.616853 1.653487 2.167622
1.597676 1.699877 2.169393
1.662973 1.673530 2.148208
1.662197 1.680888 2.147822
1.680567 1.650683 2.142730
1.670770 1.668331 2.145586
1.666921 1.692202 2.144777
1.831005 0.519512 2.173575
1.864403 0.418893 2.165467
1.906170 0.411721 2.150858
1.879619 0.424802 2.159413
1.851817 0.427949 2.169400
1.881879 0.462095 2.156301
1.882589 0.438381 2.157491
1.916797 0.419695 2.146132
1.875680 0.474610 2.157929
1.843022 0.462653 2.171411
1.893383 0.482730 2.150807
1.895270 0.475476 2.150558
1.870075 0.531126 2.156763
1.849287 0.524846 2.165977
1.897320 0.518565 2.146739
1.906309 0.498501 2.144688
1.699650 0.274016 2.242082
1.698985 0.307752 2.240265
1.698066 0.337799 2.238704
1.693955 0.388273 2.237309
1.694130 0.364204 2.238717
1.863648 -0.901229 2.239274
1.901297 -0.915026 2.223340
1.890488 -0.901079 2.228542
1.872081 -0.868100 2.236930
1.890136 -0.872975 2.229554
1.902765 -0.895153 2.223901
1.921746 -0.873887 2.216562
1.922504 -0.882287 2.215923
1.319744 1.517712 2.312130
1.348171 1.520434 2.296219
1.315390 1.554214 2.303808
1.337891 1.566030 2.287284
1.333696 1.555092 2.293276
1.307358 1.611385 2.295520
1.311920 1.608446 2.292870
1.338425 1.610159 2.279656
1.329035 1.606488 2.284223
1.312772 1.632598 2.291832
1.290180 1.621476 2.306616
1.489952 -0.910224 2.412145
1.483662 -0.867536 2.415443
1.502998 -0.910223 2.405908
1.508639 -0.894301 2.403165
1.543784 -0.877616 2.385382
1.492295 -0.801493 2.408918
1.204738 0.705053 2.470050
1.196120 0.677730 2.477590
1.178262 0.738219 2.484835
1.202576 0.718398 2.470472
1.194295 0.723730 2.475466
1.233497 0.682053 2.453698
1.224126 0.708232 2.457492
1.217803 0.733807 2.459472
1.203908 0.765350 2.466019
1.187694 0.760498 2.476919
1.177691 0.808518 2.478943
1.199576 0.803155 2.465296
1.191822 0.787546 2.471854
1.223700 0.744481 2.454976
1.161534 0.829126 2.487184
1.183957 0.843152 2.471102
1.185096 0.827642 2.472073
1.191873 0.857672 2.464556
1.171813 0.910352 2.472067
1.197860 0.910989 2.455244
1.150072 0.933728 2.484467
1.162423 0.923598 2.477124
1.180269 0.939172 2.463803
1.138316 0.982485 2.486834
1.138569 1.013223 2.483199
1.139530 1.053362 2.478414
1.121899 1.088709 2.485889
1.127351 1.077380 2.483641
1.136924 1.122183 2.471771
1.118685 1.116566 2.484813
1.126521 1.159253 2.474067
1.116844 1.138160 2.483449
1.115208 1.127600 2.485802
1.108646 1.164356 2.485763
1.134616 1.170178 2.467156
1.122219 1.178028 2.474739
1.114995 1.199467 2.477116
1.118414 1.223157 2.472098
1.108871 1.234288 2.477150
1.142003 1.246978 2.453511
1.115290 1.256017 2.469966
1.090134 1.294067 2.481795
1.126703 1.277656 2.459770
1.079665 1.330004 2.484906
1.085774 1.331317 2.480581
1.086656 1.302045 2.483121
1.115355 1.307905 2.463125
1.117645 1.322388 2.459936
1.097773 1.368873 2.468155
1.099949 1.340559 2.469862
1.004125 1.521132 2.514422
1.000775 1.598384 2.504963
0.981724 1.579967 2.522458
0.982087 1.629376 2.513385
0.972932 1.618254 2.522245
1.011945 1.518088 2.509079
1.033600 1.512895 2.494028
1.023117 1.549817 2.496556
1.018729 1.566692 2.497432
1.020283 1.593706 2.492024
0.965564 1.666641 2.520735
0.994198 1.672383 2.498442
0.974061 1.680940 2.512729
0.977433 1.669623 2.511502
1.000098 1.692097 2.491453
3.620112 -0.700226 0.489811
3.624491 -0.696052 0.463930
3.620317 -0.681872 0.482233
3.616724 -0.634458 0.484250
3.621505 -0.650635 0.465189
3.612251 -0.600229 0.496134
3.613743 -0.566093 0.481015
3.614538 -0.576412 0.479026
3.611711 -0.550069 0.487832
3.431035 -1.014715 0.523367
3.496546 0.416701 0.594638
3.502965 0.407910 0.581302
3.494105 0.460052 0.588316
3.490010 0.445408 0.602424
3.496086 0.474744 0.576211
3.490856 0.473545 0.589526
3.481737 0.536826 0.595160
3.490864 0.543854 0.571138
3.484113 0.541913 0.589580
3.480385 0.599275 0.599123
3.491469 0.576001 0.572851
3.488659 0.601013 0.578400
3.482481 0.667940 0.580282
3.480580 0.646335 0.590013
3.487634 0.662098 0.568318
3.476827 0.701094 0.587875
3.481754 0.690564 0.577289
3.483643 0.697598 0.570794
3.478357 0.735342 0.576082
3.475024 0.711449 0.590270
3.469167 0.753957 0.595151
3.477611 0.743855 0.576011
3.472198 0.810744 0.573064
3.461935 0.807850 0.600073
3.473865 0.418022 0.649059
3.468112 0.415391 0.663690
3.468483 0.451254 0.653970
3.468627 0.443781 0.655618
3.472121 0.467180 0.640264
3.472730 0.463804 0.639950
3.455585 0.499790 0.671112
3.461926 0.511972 0.651889
3.458161 0.563480 0.655172
3.463245 0.533534 0.643808
3.453728 0.628471 0.657871
3.453265 0.616515 0.660841
3.452849 0.649556 0.656173
3.446393 0.674776 0.665242
3.440813 0.726984 0.665840
3.440810 0.773863 0.654897
3.438127 0.800734 0.654962
3.443997 0.783893 0.645501
3.448802 0.760981 0.640458
3.428755 0.828729 0.670220
3.432445 0.817125 0.664363
3.428077 0.869603 0.663088
3.436519 0.868130 0.645171
3.424296 0.915813 0.660218
3.428578 0.897694 0.655437
3.419202 0.919661 0.670268
3.426824 0.929723 0.651664
3.343091 1.029850 0.799332
3.337941 1.082322 0.798593
3.335071 1.100884 0.798606
3.343827 1.096811 0.782414
3.344808 1.103164 0.778198
3.328414 1.152125 0.794870
3.327356 1.130501 0.803888
3.321009 1.187388 0.804997
3.333242 1.178718 0.780897
3.318424 1.220804 0.808578
3.324847 1.207088 0.796815
3.322304 1.257497 0.796559
3.322928 1.245458 0.797526
3.319288 1.298481 0.794594
3.315089 1.277337 0.806863
3.308196 1.331868 0.810409
3.323320 1.331830 0.784355
3.309741 1.313255 0.810839
3.321073 1.350465 0.785696
3.317337 1.355302 0.791432
3.298995 1.403702 0.811406
3.298891 1.406925 0.811284
3.309773 1.382103 0.798244
3.317549 1.425820 0.780052
3.312476 1.432650 0.787746
3.301665 1.463724 0.803961
3.302200 1.451781 0.803843
3.301731 1.504372 0.798214
3.296643 1.500449 0.807937
3.310633 1.461519 0.788262
3.300829 0.409588 0.978971
3.308187 0.446600 0.961626
3.297008 0.429073 0.981736
3.314682 0.398483 0.959000
3.296204 0.495728 0.973210
3.304988 0.465532 0.963865
3.295392 0.528445 0.968767
3.286016 0.528438 0.984625
3.283950 0.542640 0.985513
3.301430 0.546748 0.955281
3.290926 0.589131 0.965817
3.282472 0.593140 0.979384
3.284536 0.622799 0.972191
3.276810 0.627942 0.984632
3.282045 0.660592 0.971639
3.290885 0.646963 0.958425
3.271611 0.677615 0.986342
3.291421 0.671977 0.954319
3.268590 0.715769 0.985433
3.268228 0.746163 0.981624
3.278732 0.746712 0.963890
3.268279 0.811286 0.971294
3.278958 0.787113 0.957691
3.274303 0.809866 0.961697
3.259995 0.840131 0.980129
3.262427 0.867875 0.971739
3.270379 0.853465 0.961294
3.254096 0.886181 0.982027
3.262266 0.893865 0.967723
3.250467 0.948889 0.978051
3.258018 0.916335 0.970850
3.238173 1.050061 0.982094
3.236723 1.089759 0.978125
3.248146 0.984074 0.976360
3.248309 0.970685 0.978194
3.254776 1.047757 0.955320
3.242113 1.030630 0.978542
3.252228 1.065117 0.956772
2.982921 1.534406 1.261434
2.988930 1.572873 1.249346
3.002753 1.548954 1.236072
2.975454 1.584081 1.263175
2.993293 1.595259 1.241372
3.002240 1.580413 1.232850
2.979395 1.633066 1.252578
2.973279 1.618669 1.261141
2.989942 1.668317 1.235574
2.984910 1.660083 1.242587
2.994110 1.657820 1.232211
2.969832 1.695842 1.255037
3.012601 -0.975374 1.328534
3.025970 -0.977473 1.307520
3.055576 -0.966558 1.304348
3.046473 -0.964081 1.323708
3.088416 -0.952707 1.314273
3.069855 -0.954615 1.328951
3.104715 -0.945841 1.312203
3.129529 -0.927910 1.318470
3.149904 -0.917839 1.304910
3.141969 -0.909406 1.321520
3.158081 -0.877753 1.318400
3.153825 -0.877529 1.323353
3.145391 -0.890246 1.328825
3.164997 -0.856423 1.313858
3.167176 -0.797862 1.314634
3.155088 -0.817039 1.328432
3.173814 -0.853434 1.303496
3.150673 -0.762916 1.333763
3.154469 -0.788366 1.329937
3.156992 -0.739289 1.324652
3.157540 -0.749419 1.324708
3.174595 -0.785975 1.305515
2.984287 -0.969150 1.374914
3.019672 -0.948571 1.398316
2.998655 -0.958248 1.391669
3.030403 -0.951007 1.382007
3.071923 -0.907970 1.403829
3.065041 -0.933062 1.385665
3.075351 -0.928568 1.378070
3.098080 -0.876834 1.386758
3.094565 -0.841422 1.397076
3.089124 -0.812576 1.404349
3.099131 -0.772883 1.392302
2.827188 0.402862 1.557191
2.824201 0.434524 1.555646
2.821569 0.474868 1.553993
2.502816 1.682609 1.702111
2.491063 1.652988 1.714157
2.521791 1.666870 1.689506
2.485159 1.692649 1.713763
2.542292 1.513026 1.689436
2.503628 0.416289 1.820709
2.526254 0.417452 1.805171
2.534329 0.395870 1.801210
2.537503 0.440527 1.795615
2.514259 0.449681 1.811519
2.532407 0.494536 1.793512
2.511580 0.491407 1.809012
2.490056 0.515682 1.820982
2.529245 0.521582 1.791841
2.518110 0.529550 1.798863
2.504981 0.538261 1.807180
2.501253 0.533309 1.810615
2.515553 0.538289 1.799343
2.511248 0.548499 1.800833
2.500904 0.601139 1.797985
2.496137 0.574362 1.807389
2.463611 0.634152 1.816249
2.441138 0.667590 1.822758
2.468760 0.646788 1.810035
2.497608 0.631796 1.791317
2.498002 0.612708 1.796761
2.476751 0.602808 1.815624
2.491223 0.637870 1.794473
2.473918 0.655670 1.804242
2.546432 0.396082 1.793053
2.543654 0.416642 1.793380
2.544736 0.432668 1.791397
2.263246 1.535553 1.879241
2.283183 1.523320 1.868519
2.289261 1.558703 1.861903
2.268042 1.572823 1.873365
2.265316 1.634888 1.869196
2.268067 1.662380 1.864801
2.266088 1.666445 1.865733
2.434967 -0.152426 1.920622
2.452833 -0.160352 1.909423
2.444131 -0.154947 1.914777
2.421823 -0.105741 1.925384
2.424426 -0.120816 1.925068
2.468189 -0.103864 1.895513
2.439086 -0.111426 1.914938
2.461143 -0.121821 1.901388
2.435578 -0.066255 1.913455
2.416763 -0.089926 1.927163
2.462846 -0.073197 1.896571
2.453242 -0.068327 1.902344
2.431967 -0.054346 1.914684
2.410432 -0.045822 1.927457
2.394805 0.100222 1.924689
2.430256 -0.019919 1.912482
2.446890 -0.010898 1.900904
2.433415 0.028249 1.905959
2.426742 0.043084 1.909128
2.431034 0.064660 1.904565
2.415956 0.066004 1.914246
2.421986 0.094486 1.907778
2.402804 0.078159 1.921636
2.394870 0.122807 1.922684
2.399941 0.148520 1.917217
2.381048 0.209010 1.924238
2.380777 0.248081 1.920762
2.385387 0.222534 1.920284
2.424391 0.136352 1.902150
2.418866 0.113830 1.907927
2.405720 0.152778 1.913014
2.408975 0.190133 1.907479
2.402350 0.214687 1.909938
2.312191 0.269231 1.961029
2.326649 0.299346 1.949636
2.347478 0.270692 1.939507
2.349504 0.286792 1.936666
2.347897 0.308657 1.935928
2.344177 0.312670 1.937880
2.303753 0.346774 1.959489
2.329714 0.345015 1.943836
2.321638 0.382164 1.945092
2.326311 0.392084 1.941195
2.332129 0.350695 1.941852
2.348722 0.359256 1.931166
2.176239 0.393868 2.026695
2.179976 0.442761 2.019936
2.173413 0.451368 2.022720
2.205847 0.405289 2.009399
2.199615 0.429931 2.010291
2.150159 0.463969 2.034252
2.189765 0.478960 2.011235
2.160645 0.491787 2.026169
2.184683 0.497718 2.012275
2.172290 0.517739 2.017019
2.201483 0.466317 2.005858
2.192123 0.484553 2.009393
2.151809 0.555865 2.024219
2.141794 0.547710 2.030742
2.186100 0.558162 2.005242
2.170285 0.560579 2.013573
2.138461 0.588638 2.028925
2.128902 0.595002 2.033859
2.184371 0.596904 2.002769
2.176306 0.591165 2.007550
2.178147 0.572832 2.008106
2.197359 0.536282 2.001149
2.112775 0.424262 2.057048
2.112585 0.414048 2.057997
2.106392 0.430842 2.059684
2.120130 0.488988 2.048059
2.111888 0.494013 2.051771
2.080018 0.511882 2.066271
2.121307 0.502182 2.046380
2.094553 0.499166 2.060012
2.153334 0.420626 2.036457
2.132096 0.407874 2.048642
2.143092 0.441188 2.039954
2.122358 0.445304 2.050482
2.134386 0.474922 2.041678
2.142711 0.503391 2.034853
2.122251 0.530902 2.043308
2.071741 0.562073 2.066718
2.084234 0.547041 2.061727
2.116606 0.539679 2.045562
2.090143 0.550038 2.058558
2.069525 0.579468 2.066574
2.119703 0.586672 2.039958
2.096521 0.579891 2.052977
2.080585 0.632045 2.056971
2.114427 0.627098 2.039842
2.087494 0.613322 2.055226
2.082632 0.663475 2.053200
2.104459 0.643764 2.043662
2.112117 0.640992 2.039888
1.973950 0.971335 2.080376
1.962661 0.963681 2.086288
1.928063 1.001269 2.098050
1.926511 0.997909 2.099094
1.968421 0.993829 2.080468
1.960016 1.019660 2.081445
1.910551 1.049775 2.101899
1.934920 1.051299 2.090538
1.976235 1.050347 2.072197
1.966213 1.031839 2.077892
1.937684 1.077847 2.087690
1.913987 1.059579 2.099511
1.961217 1.071281 2.077384
1.971813 1.089801 2.071568
1.898283 1.102202 2.103709
1.907315 1.094470 2.100163
1.906213 1.154541 2.095884
1.938618 1.109751 2.085088
1.918486 1.120597 2.093164
1.948623 1.095304 2.081627
1.934567 1.133367 2.085145
1.927516 1.159085 2.086251
1.880663 1.216506 2.101481
1.912023 1.208694 2.089048
1.935905 1.176881 2.081250
1.931015 1.190806 2.082300
1.959988 1.177871 2.070090
1.936882 1.196498 2.079306
1.920362 1.207476 2.085546
1.955285 1.210111 2.069943
1.993127 0.952942 2.073744
1.901121 1.250504 2.090227
1.873568 1.272590 2.100235
1.910059 1.277606 2.084229
1.879319 1.288455 2.096447
1.923571 1.233696 2.081967
1.938275 1.275719 2.072140
1.914344 1.282959 2.081991
1.871506 1.328370 2.096642
1.896722 1.320813 2.086609
1.905733 1.303971 2.084099
1.847904 1.361663 2.104016
1.866559 1.337915 2.098021
1.901766 1.348290 2.082438
1.883783 1.351570 2.089760
1.931699 1.305374 2.072837
1.921419 1.318244 2.076312
1.924077 1.339406 2.073527
1.912410 1.342256 2.078394
1.932409 -0.921662 2.207940
1.972075 -0.915055 2.189917
1.961683 -0.915938 2.194854
1.976902 -0.887443 2.191797
1.958425 -0.876645 2.200930
1.962265 -0.863579 2.199969
1.980141 -0.830626 2.192745
1.962231 -0.828647 2.200151
1.942766 -0.782891 2.206543
1.969245 -0.777934 2.195625
1.948087 -0.780650 2.204075
1.975652 -0.751760 2.191932
1.965187 -0.727737 2.195567
1.995566 -0.900282 2.182331
2.014978 -0.892421 2.175084
1.988788 -0.879656 2.187269
2.008002 -0.898176 2.177366
2.007476 -0.844084 2.181583
1.989683 -0.844931 2.188701
1.996477 -0.823752 2.186134
1.984625 -0.815588 2.190690
2.011033 -0.775542 2.179658
1.974031 -0.712451 2.192312
1.949037 -0.702143 2.202176
1.981358 -0.671975 2.189195
1.935364 -0.648223 2.206763
1.972051 -0.647251 2.192101
1.967275 -0.612029 2.192287
1.343576 0.399808 2.410352
1.340711 0.459427 2.407063
1.326633 0.436849 2.416995
1.378362 0.423997 2.388779
1.366548 0.420755 2.395713
1.385207 0.428059 2.384594
1.365175 0.442462 2.394735
1.339305 0.485042 2.405577
1.327399 0.468399 2.414020
1.316835 0.513660 2.416499
1.330424 0.530453 2.407000
1.321472 0.516415 2.413518
1.367574 0.465622 2.391327
1.367723 0.492620 2.388804
1.365371 0.501852 2.389247
1.367828 0.530564 2.385366
1.313262 0.537813 2.416643
1.338110 0.552278 2.400691
1.320202 0.543325 2.412149
1.305697 0.580531 2.417427
1.352461 0.573566 2.390312
1.339163 0.600762 2.395881
1.358814 0.550506 2.388575
1.300560 0.606996 2.418025
1.347464 0.611024 2.390113
1.326440 0.613215 2.402399
1.318393 0.645536 2.404641
1.336061 0.665686 2.393120
1.349649 0.654131 2.385813
1.211007 -0.076637 2.421326
1.209285 -0.057963 2.431604
1.231612 -0.075660 2.444257
1.218418 -0.086889 2.424274
1.264360 -0.075905 2.451887
1.317684 -0.139937 2.447200
1.338532 -0.157044 2.441920
1.323775 -0.154151 2.447577
1.314344 -0.122427 2.445781
1.326943 -0.099488 2.438661
1.319826 -0.104591 2.441836
1.382431 -0.152346 2.420778
1.375839 -0.148560 2.423460
1.360815 -0.125776 2.428245
1.355577 -0.110377 2.428982
1.312135 -0.082449 2.444133
1.312642 -0.091421 2.443542
1.352151 -0.083723 2.428515
1.316276 -0.052632 2.444063
1.352925 -0.034874 2.426687
1.323452 -0.036861 2.441891
1.178276 -0.011856 2.431153
1.183653 -0.019983 2.421518
1.181504 -0.019675 2.452716
1.160822 0.019508 2.425309
1.303945 0.007416 2.452362
1.322505 0.005632 2.442915
1.324211 -0.024481 2.441688
1.337781 0.027494 2.434383
1.320524 0.013357 2.443933
1.366150 0.002706 2.418972
1.356349 0.024718 2.423974
1.317283 0.075850 2.444263
1.332665 0.072240 2.435652
1.320296 0.069233 2.442805
1.304200 0.083094 2.451477
1.345645 0.105505 2.426605
1.333770 0.090504 2.434243
1.306169 0.133558 2.449156
1.350652 0.140129 2.422190
1.323791 0.124546 2.438736
1.313093 0.155703 2.444360
1.320108 0.179080 2.439236
1.306348 0.198672 2.446855
1.314680 0.184622 2.442369
1.339384 0.191269 2.426934
1.309128 0.238935 2.442938
1.338224 0.228561 2.425492
1.322532 0.231172 2.435085
1.281948 0.347782 2.451545
1.290981 0.285538 2.450675
1.299925 0.263396 2.446844
1.336420 0.254967 2.425006
1.322177 0.283980 2.431853
1.308796 0.317702 2.437420
1.297778 0.294899 2.445871
1.334924 0.299529 2.423089
1.243308 0.396342 2.471418
1.253150 0.406261 2.464382
1.232119 0.429464 2.474910
1.232213 0.451971 2.472748
1.261506 0.439261 2.456177
1.260762 0.460326 2.454678
1.209410 0.479319 2.484973
1.209505 0.474125 2.485286
1.209957 0.505075 2.482480
1.226535 0.488720 2.473406
1.226379 0.475351 2.474469
1.224002 0.503918 2.473764
1.222804 0.529303 2.471908
1.253123 0.511851 2.454938
1.201342 0.553782 2.483354
1.204030 0.589346 2.478962
1.193496 0.584707 2.486169
1.225575 0.548377 2.468426
1.231782 0.576015 2.462372
1.241334 0.600226 2.454838
1.209086 0.636028 2.472141
1.208061 0.616850 2.474298
1.203694 0.665741 2.473581
1.191380 0.637288 2.483679
1.218166 0.601871 2.468966
1.215177 0.614398 2.469852
1.226374 0.662970 2.459466
0.807447 1.109123 2.772369
0.787895 1.195130 2.784629
0.778298 1.222757 2.792514
0.789990 1.208083 2.779262
0.796839 1.163725 2.777925
0.795479 1.206982 2.771889
0.770286 1.250518 2.798226
0.784910 1.254641 2.777221
0.787343 1.273694 2.770260
0.777717 1.266630 2.784903
0.764125 1.328284 2.792149
0.778031 1.302899 2.777647
0.759254 1.361346 2.791687
0.776531 1.350497 2.769859
0.765695 1.367164 2.781292
0.753291 1.378306 2.796631
0.769072 1.397220 2.770089
0.764639 1.389498 2.777926
0.754433 1.410859 2.787647
0.766253 1.426899 2.768033
0.758860 1.468731 2.770479
0.741924 1.461664 2.795704
0.733707 1.506771 2.799069
0.752602 1.498887 2.773918
0.757649 1.492660 2.767888
0.753106 1.195280 2.833786
0.774204 1.169134 2.808479
0.770087 1.187129 2.810814
0.752675 1.198174 2.833844
0.771725 1.201312 2.805828
0.748931 1.257578 2.827208
0.759959 1.230742 2.817001
0.755644 1.293763 2.810750
0.744254 1.266408 2.832040
0.760620 1.278340 2.806620
0.745483 1.329554 2.818120
0.741042 1.319786 2.826088
0.749010 1.344513 2.810380
0.728578 1.352514 2.837225
0.723302 1.394783 2.836050
0.723723 1.419431 2.830601
0.716966 1.465298 2.831689
0.709883 1.509469 2.832997
0.724003 1.477713 2.818846
0.733972 1.399210 2.819528
0.733383 1.376022 2.825681
0.728088 1.372294 2.834029
0.793514 0.700743 2.858569
0.791668 0.731499 2.856513
0.790439 0.714870 2.861040
0.810717 0.674049 2.838054
0.797849 0.731630 2.847829
0.778194 0.772443 2.869269
0.784660 0.806411 2.856084
0.800244 0.749529 2.842045
0.776594 0.842396 2.862697
0.794771 0.819340 2.840224
0.773005 0.877536 2.862871
0.780060 0.854270 2.856171
0.786223 0.914780 2.837605
0.777356 0.889771 2.854595
0.760381 0.946104 2.869340
0.762492 0.932623 2.868684
0.754703 0.982902 2.870389
0.768156 0.951837 2.857088
0.770500 0.973392 2.849559
0.750071 1.008745 2.872190
0.764390 0.987235 2.855605
0.759202 1.039951 2.852669
0.748959 1.032508 2.869220
0.753737 1.084613 2.852182
0.751992 1.107844 2.850689
0.753532 1.098867 2.849954
0.737825 1.143972 2.864697
0.752986 1.128088 2.845675
0.745693 1.173313 2.848297
0.736512 1.169539 2.861999
0.738051 1.208102 2.852712
0.722324 1.265076 2.863991
0.706743 1.334029 2.872343
0.720085 1.313941 2.857681
0.722175 1.355097 2.846460
0.709932 1.347762 2.865313
0.737946 1.234817 2.847525
0.725673 1.258801 2.860205
0.734774 1.270108 2.844797
0.726914 1.281387 2.853851
0.537410 1.389131 3.059780
0.530884 1.383783 3.065671
0.538588 1.410661 3.056118
0.518103 1.424855 3.071048
0.498412 1.463766 3.081436
0.510118 1.455345 3.073348
0.508621 1.501512 3.068510
0.514789 1.495854 3.064373
0.518007 1.464451 3.065850
0.519218 1.477046 3.063197
0.531627 1.505682 3.049776
0.600094 0.766097 3.062671
0.602885 0.751757 3.050006
0.615019 0.798850 3.064073
0.615582 0.776549 3.061578
0.626850 0.785703 3.054683
0.613832 0.828433 3.065585
0.597744 0.814039 3.077299
0.626663 0.813135 3.055433
0.621974 0.816029 3.059655
0.613011 0.875806 3.062273
0.618699 0.860123 3.059255
0.608711 0.911952 3.061376
0.607236 0.905075 3.063316
0.591772 0.944928 3.071953
0.586803 0.934253 3.076995
0.620692 0.948502 3.047179
0.611355 0.969337 3.052249
0.602296 0.982474 3.058422
0.601792 1.000359 3.056557
0.598447 1.009804 3.058376
0.603999 1.022735 3.051925
0.585568 1.041491 3.066843
0.601078 1.058559 3.050654
0.594845 1.078773 3.054073
0.544357 0.962142 3.102369
0.538029 0.953895 3.105949
0.563864 0.977674 3.088721
0.543315 1.020360 3.099852
0.536702 0.996506 3.105299
0.561407 0.986632 3.089771
0.524146 1.055317 3.109803
0.526081 1.028508 3.110215
0.562450 1.037730 3.084791
0.551111 1.028233 3.094212
0.536143 1.072434 3.100620
0.529771 1.061639 3.105653
0.506927 1.116137 3.116417
0.545938 1.101018 3.090724
0.531877 1.123519 3.098342
0.529442 1.108478 3.101855
0.553697 1.122763 3.082271
0.517917 1.156627 3.104836
0.504005 1.186069 3.110729
0.497425 1.183547 3.115561
0.499882 1.222224 3.108929
0.501904 1.201719 3.110135
0.528356 1.163747 3.096121
0.520778 1.194533 3.097664
0.530996 1.212198 3.087861
0.516064 1.216844 3.098287
0.486300 1.242401 3.115693
0.514473 1.238257 3.096500
0.500102 1.284731 3.100074
0.488965 1.298645 3.106082
0.484886 1.277977 3.111809
0.523976 1.286119 3.083135
0.515868 1.294959 3.087221
0.514011 1.322324 3.085052
0.505415 1.310532 3.092732
0.481896 1.302635 3.110665
0.514004 1.348237 3.082407
0.497241 1.344428 3.094955
0.471255 1.398974 3.109210
0.505266 1.393077 3.084856
0.485623 1.392251 3.099442
0.471867 1.426069 3.105543
0.473696 1.414991 3.105606
0.410137 1.528712 3.137705
0.415199 1.513050 3.136109
0.402691 1.576648 3.137548
0.396815 1.546047 3.145545
0.424361 1.558885 3.123727
0.429608 1.578238 3.117596
0.392177 1.603342 3.142926
0.387358 1.580801 3.148923
0.417264 1.594070 3.124483
0.409177 1.646504 3.124065
0.382104 1.632548 3.147563
0.385333 1.675978 3.138594
0.381420 1.672723 3.142256
0.377152 1.700682 3.140764
0.270410 1.534119 3.274750
0.258419 1.522980 3.290199
0.272668 1.518100 3.274585
0.270177 1.572657 3.269399
0.255968 1.550544 3.288929
0.260770 1.604115 3.275822
0.262495 1.587830 3.276205
0.278709 1.587064 3.257184
0.244437 1.631895 3.290547
0.253489 1.617528 3.282342
0.250899 1.672806 3.276870
0.250209 1.654200 3.280449
0.240764 1.700820 3.283867
0.258054 1.700640 3.263737
0.250835 1.684669 3.275229
0.179688 1.591629 3.354060
0.184857 1.587630 3.350913
0.201900 1.592840 3.339974
0.197085 1.647199 3.341062
0.181851 1.617378 3.357299
0.176767 1.673384 3.358084
0.199747 1.668333 3.335416
0.171063 1.694200 3.359750
3.618165 -0.500404 0.399347
3.618440 -0.502285 0.408847
3.615725 -0.456802 0.417612
3.613778 -0.427197 0.414871
3.614409 -0.437055 0.410530
3.611825 -0.391460 0.409411
3.612277 -0.403225 0.411316
3.609267 -0.344124 0.400251
3.605603 -0.309308 0.424390
3.608590 -0.335927 0.402257
3.604199 -0.284191 0.412422
3.605132 -0.290042 0.401198
3.601609 -0.246679 0.409926
3.602007 -0.244964 0.399455
3.600061 -0.231238 0.421567
3.598529 -0.190342 0.414640
3.594834 -0.132807 0.421686
3.594530 -0.103171 0.402622
3.594659 -0.116229 0.411109
3.587759 -0.029907 0.421671
3.593285 -0.077187 0.395631
3.590569 -0.059744 0.413207
3.585912 0.002064 0.412322
3.586951 -0.012402 0.415812
3.583324 0.039082 0.411870
3.580837 0.066486 0.418694
3.579758 0.112442 0.394749
3.580745 0.081902 0.407321
3.575104 0.143650 0.421495
3.578147 0.135106 0.396271
3.574974 0.178023 0.396945
3.571647 0.212593 0.394873
3.568527 0.213781 0.425755
3.569828 0.229312 0.397058
3.563580 0.277615 0.422256
3.566388 0.278558 0.397954
3.562061 0.311667 0.413985
3.565133 0.297555 0.398189
3.558363 0.337562 0.424376
3.561559 0.323750 0.410438
3.445599 1.541233 0.468393
3.443846 1.517225 0.479983
3.439098 1.575810 0.481905
3.442996 1.566711 0.471186
3.437697 1.602270 0.480070
3.433825 1.584198 0.497235
3.432544 1.647127 0.484630
3.434094 1.617427 0.488104
3.427803 1.684287 0.490206
3.433998 1.660854 0.476711
3.434939 1.687361 0.467450
3.495120 0.754371 0.526373
3.501451 0.771051 0.502604
3.496622 0.805630 0.508302
3.500813 0.796647 0.498046
3.491946 0.835672 0.514003
3.498456 0.817048 0.499968
3.486641 0.865344 0.520608
3.493688 0.866510 0.500916
3.488728 0.905538 0.504232
3.472752 0.946645 0.531072
3.483346 0.929330 0.509937
3.481760 0.981018 0.499814
3.474059 0.973621 0.521581
3.476686 0.988918 0.511344
3.467322 1.041525 0.528567
3.469272 1.080974 0.515202
3.471821 1.060153 0.511857
3.466361 1.116883 0.515020
3.469845 1.110497 0.506196
3.466292 1.151288 0.503616
3.454686 1.181664 0.527125
3.464004 1.191852 0.499072
3.451999 1.225220 0.527666
3.463057 1.211487 0.499804
3.459880 1.260011 0.504944
3.450113 1.238378 0.531729
3.460758 1.278574 0.499436
3.450343 1.268543 0.529193
3.446830 1.316168 0.528592
3.455346 1.326405 0.501893
3.453361 1.350989 0.500296
3.447256 1.396946 0.503293
3.444481 1.430162 0.501295
3.442091 1.449207 0.503298
3.432845 1.464509 0.527076
3.429846 1.505787 0.525865
3.436752 1.496096 0.508215
3.437309 0.974600 0.618049
3.432573 0.975819 0.629018
3.437027 0.993927 0.613869
3.427209 1.047223 0.621940
3.434781 1.021248 0.612154
3.423884 1.088975 0.619023
3.432636 1.075312 0.603443
3.415038 1.120567 0.632725
3.425661 1.118243 0.611963
3.414474 1.099314 0.636517
3.425225 1.150991 0.609890
3.419357 1.160440 0.621203
3.417198 1.169167 0.624441
3.409459 1.207414 0.636909
3.420306 1.214852 0.611761
3.410060 1.230990 0.631975
3.411664 1.293494 0.616477
3.414351 1.270619 0.614565
3.415197 1.291130 0.608896
3.409316 1.327755 0.615437
3.401447 1.311678 0.636359
3.401030 1.364012 0.627318
3.401817 1.389940 0.620030
3.403731 1.378005 0.618150
3.400687 1.437909 0.612567
3.405609 1.405498 0.608003
3.395609 1.462951 0.619371
3.403518 1.454859 0.602807
3.391933 1.506282 0.619378
3.397391 1.484690 0.611180
3.440435 0.320197 0.741097
3.454129 0.301635 0.717003
3.449092 0.299933 0.727801
3.441564 0.343355 0.734701
3.447418 0.367881 0.718188
3.436804 0.384717 0.737709
3.453546 0.334079 0.711702
3.376188 0.864730 0.765765
3.371759 0.901244 0.765657
3.367311 0.945812 0.762509
3.375759 0.931852 0.749197
3.425046 0.416439 0.756752
3.418648 0.394921 0.773287
3.429538 0.444302 0.742620
3.425911 0.462897 0.746433
3.418023 0.489206 0.757624
3.411718 0.498804 0.768504
3.414397 0.499608 0.763109
3.410113 0.550852 0.763122
3.410423 0.538220 0.764590
3.421067 0.532842 0.744405
3.402143 0.597798 0.771239
3.411115 0.593454 0.753868
3.404414 0.630929 0.760635
3.401654 0.668634 0.758864
3.398157 0.655856 0.768592
3.392217 0.678878 0.776171
3.394751 0.672613 0.772299
3.393359 0.728008 0.763486
3.398085 0.727533 0.754258
3.386993 0.761654 0.768395
3.399054 0.767535 0.743866
3.379689 0.800237 0.773698
3.396441 0.788703 0.744520
3.385255 0.813858 0.760404
3.380926 0.878752 0.753698
3.360265 0.979805 0.767545
3.364720 0.966496 0.761836
3.355866 1.019741 0.772242
3.367265 0.996253 0.750073
3.406708 0.271441 0.816934
3.409010 0.253894 0.815319
3.404770 0.299272 0.816302
3.399250 0.350681 0.818813
3.383870 0.379754 0.842646
3.247072 1.611236 0.874421
3.249676 1.595340 0.872274
3.246017 1.638194 0.873115
3.260543 1.641221 0.847467
3.243720 1.682905 0.870059
3.254851 1.678806 0.851915
3.273974 -0.997838 0.900455
3.291977 -0.992686 0.883963
3.286927 -0.989376 0.907173
3.324374 -0.975489 0.883433
3.310003 -0.982370 0.886106
3.356541 -0.959224 0.882974
3.387439 -0.942310 0.887068
3.402356 -0.932671 0.891657
3.424770 -0.910576 0.889320
3.414381 -0.919211 0.897959
3.441859 -0.881311 0.889211
3.430332 -0.897517 0.900543
3.442432 -0.830478 0.909338
3.438063 -0.852586 0.912061
3.445391 -0.820677 0.904663
3.452769 -0.847867 0.885387
3.439433 -0.773641 0.916427
3.441086 -0.728043 0.910059
3.450560 -0.767519 0.895989
3.450182 -0.758941 0.896306
3.451438 -0.729175 0.891541
3.436397 -0.691824 0.914169
3.437003 -0.706344 0.914866
3.446972 -0.678684 0.892785
3.440171 -0.678930 0.905446
3.443201 -0.623381 0.891980
3.439439 -0.630304 0.899907
3.445558 -0.633647 0.889019
3.433420 -0.603797 0.907374
3.434594 -0.612119 0.906413
3.435230 -0.556982 0.897423
3.430381 -0.581209 0.909635
3.440198 -0.540411 0.886560
3.424165 -0.527602 0.914507
3.428326 -0.501981 0.904795
3.439844 -0.513365 0.884707
3.427870 -0.449202 0.900480
3.436544 -0.467001 0.886760
3.432456 -0.417704 0.888132
3.416852 -0.414347 0.915770
3.426681 -0.384401 0.893589
3.419189 -0.406139 0.910429
3.228905 1.123905 0.985243
3.233958 1.097600 0.981378
3.226696 1.180951 0.978514
3.234223 1.177276 0.966569
3.238562 1.210453 0.952861
3.237971 1.195484 0.956811
3.239812 1.091431 0.972744
3.239882 1.183322 0.956017
3.230155 1.258392 0.955833
3.218927 1.234902 0.979891
3.208376 1.287690 0.983615
3.227219 1.269671 0.957848
3.198545 1.329663 0.985721
3.219568 1.322973 0.955005
3.211674 1.334476 0.963606
3.192959 1.382770 0.982513
3.206249 1.377044 0.963605
3.204993 1.393746 0.964668
3.193311 1.438457 0.983302
3.201223 1.457326 0.971589
3.191384 1.445823 0.986098
3.209901 1.467147 0.957181
3.196612 1.498992 0.975649
3.199848 1.482698 0.972431
3.381044 -0.914774 0.990851
3.386121 -0.877128 1.000080
3.386092 -0.888415 0.996781
3.385051 -0.836910 1.009763
3.384824 -0.854918 1.007402
3.394507 -0.815939 0.995592
3.387570 -0.766661 1.006048
3.383739 -0.778826 1.013237
3.397286 -0.758967 0.989409
3.379148 -0.731520 1.015832
3.378422 -0.695123 1.012684
3.372650 -0.662449 1.018609
3.368328 -0.616801 1.020054
3.378450 -0.560252 0.997673
3.378308 -0.541686 0.996047
3.372000 -0.487565 1.000531
3.371780 -0.515170 1.003979
3.356940 -0.448591 1.020222
3.358392 -0.416987 1.014160
3.371742 -0.420627 0.993336
3.367737 -0.394255 0.996596
3.355170 -0.389687 1.016044
3.358210 -0.348159 1.006080
3.359163 -0.360846 1.006219
3.354818 -0.319474 1.007675
3.350671 -0.333119 1.016215
3.355651 -0.279737 1.000059
3.362457 -0.282478 0.989245
3.342685 -0.239480 1.015548
3.359996 -0.255794 0.989394
3.345512 -0.261215 1.014106
3.341151 -0.202517 1.012683
3.353111 -0.223153 0.996016
3.350005 -0.213347 0.999676
3.390552 -0.722508 0.995906
3.390642 -0.663118 0.989303
3.385635 -0.613052 0.990688
3.382856 -0.588018 0.992620
3.383269 -0.547371 0.988097
3.379019 -0.516804 0.992215
3.147238 1.538841 1.043503
3.144922 1.525622 1.048636
3.152959 1.559865 1.032497
3.160280 1.546388 1.023709
3.137281 1.594942 1.051019
3.146259 1.583552 1.038815
3.144095 1.618274 1.037866
3.142292 1.643747 1.036890
3.203311 0.465802 1.116743
3.214010 0.486157 1.096305
3.211304 0.510206 1.098061
3.208314 0.513480 1.102689
3.197937 0.536153 1.115739
3.191674 0.595954 1.116860
3.189982 0.610614 1.117315
3.201666 0.659033 1.094811
3.185697 0.652412 1.118057
3.203582 0.639803 1.094587
3.187433 0.695908 1.109733
3.183878 0.672521 1.118020
3.195419 0.727540 1.093922
3.174165 0.715026 1.125792
3.178855 0.725467 1.117679
3.187829 0.754874 1.100628
3.173761 0.779134 1.117078
3.173808 0.796825 1.114702
3.175814 0.812200 1.109832
3.173540 0.823249 1.111753
3.156878 0.914354 1.121847
3.159199 0.891647 1.121908
3.165487 0.941262 1.105963
3.165641 0.919069 1.108886
3.177283 0.906655 1.094407
3.149976 0.977139 1.122641
3.166257 1.019711 1.094211
3.150389 0.999879 1.118610
3.123027 1.044580 1.147906
3.120405 1.027685 1.153104
3.119267 1.079833 1.148338
3.114738 1.072503 1.155355
3.124727 1.120588 1.135554
3.131301 1.113791 1.127711
3.105480 1.159696 1.154994
3.103774 1.159865 1.157255
3.106634 1.132253 1.157729
3.115635 1.195250 1.133961
3.122865 1.168122 1.129884
3.109572 1.164340 1.148685
3.112188 1.218409 1.134982
3.092181 1.233802 1.160413
3.095172 1.282351 1.148647
3.089727 1.272849 1.157468
3.078118 1.363608 1.158978
3.089807 1.401128 1.136225
3.088539 1.374296 1.141124
3.080682 1.428882 1.149069
3.087082 1.421800 1.140177
3.071803 1.442358 1.160732
3.084032 1.451256 1.143288
3.076408 1.498017 1.149432
3.072473 1.488018 1.155887
3.105022 1.234436 1.142666
3.015717 1.540139 1.221362
3.022620 1.514858 1.216073
3.028995 1.571794 1.201249
3.023308 1.548583 1.211134
3.032731 1.575488 1.196294
3.007961 1.605833 1.222615
3.025431 1.587682 1.203646
3.002256 1.628549 1.226503
3.015986 1.619382 1.211171
3.098772 0.483281 1.256114
3.093078 0.482582 1.263376
3.090223 0.536862 1.259128
3.096614 0.594320 1.242325
3.072268 0.629351 1.266076
3.095447 0.628018 1.239445
3.071773 0.643130 1.265061
3.095650 0.652418 1.236358
3.102223 0.411352 1.261156
3.119195 0.405383 1.240568
3.113394 0.441172 1.243199
3.107647 0.442680 1.250272
3.111408 0.482305 1.240240
3.100481 0.470568 1.255730
3.103671 0.502862 1.247117
2.969584 0.752465 1.370825
2.983453 0.750706 1.355713
2.974218 0.788300 1.360079
2.973749 0.780346 1.362086
2.996349 0.777733 1.337648
2.950012 0.870608 1.368034
2.944117 0.913897 1.369248
2.945025 0.889600 1.370320
2.942268 0.938597 1.369013
2.953573 0.927171 1.358371
2.967809 0.837390 1.356413
2.968375 0.845478 1.354460
2.973577 0.864280 1.346040
2.973878 0.886949 1.341788
2.971379 0.911592 1.340329
2.965070 0.949069 1.343897
2.955509 0.963778 1.353521
2.951237 1.010660 1.355011
2.938112 0.990399 1.369749
2.933819 1.042128 1.369851
2.956556 1.038518 1.346909
2.932033 1.085234 1.365093
2.957054 1.079114 1.342205
2.965254 0.997764 1.340588
2.960524 1.049213 1.341648
2.948857 1.119325 1.346179
2.925900 1.112729 1.368858
2.930178 1.092596 1.365758
2.948219 1.131376 1.345487
2.933304 1.148540 1.358852
2.947228 1.183609 1.338905
2.926583 1.173059 1.362829
2.921887 1.218247 1.358936
2.934325 1.195657 1.350588
2.926591 1.209766 1.355394
2.913970 1.248054 1.363641
2.915971 1.242255 1.361994
2.938014 1.235892 1.336324
2.933354 1.259718 1.340101
2.921164 1.298453 1.352579
2.931327 1.294706 1.341938
2.910525 1.325450 1.361291
2.912418 1.302780 1.361009
2.928016 1.321684 1.344078
2.924665 1.366619 1.344240
2.927140 1.352368 1.342682
2.812820 1.410734 1.438432
2.852675 0.766615 1.484029
2.840950 0.751044 1.498530
2.856558 0.746097 1.484860
2.855866 0.748403 1.484978
2.828998 0.784944 1.503630
2.839482 0.818316 1.486898
2.843955 0.842508 1.480293
2.833107 0.862252 1.489515
2.833296 0.875446 1.488343
2.825739 0.942152 1.477859
2.821857 0.970283 1.476025
2.822076 1.062715 1.481581
2.607988 1.525876 1.635436
2.600303 1.566849 1.637838
2.587867 1.553560 1.650160
2.615329 1.528017 1.628971
2.622038 1.557061 1.620298
2.621158 1.579243 1.617866
2.589686 1.609777 1.641430
2.600520 1.581631 1.635566
2.591063 1.636642 1.637388
2.606841 1.634356 1.623788
2.590711 1.620752 1.639215
2.616376 1.602441 1.618707
2.611699 1.591839 1.624351
2.613993 1.622659 1.618447
2.604679 1.661008 1.623186
2.609393 1.683500 1.616729
2.609090 1.694181 1.615496
2.611772 1.667915 1.616276
2.603832 1.246381 1.664553
2.587960 1.241422 1.678818
2.583430 1.285279 1.677462
2.608480 1.283397 1.656115
2.622483 1.231566 1.650485
2.612978 1.273480 1.653172
2.583165 1.330379 1.673038
2.587779 1.311083 1.670898
2.601972 1.312810 1.658287
2.593034 1.335386 1.663628
2.598728 1.367260 1.654898
2.598704 1.382267 1.653730
2.576783 1.374653 1.674351
2.581672 1.413011 1.666092
2.587122 1.429504 1.659484
2.565850 1.458828 1.674548
2.559763 1.440482 1.681512
2.580670 1.461301 1.661755
2.559965 1.502879 1.676138
2.562591 1.487431 1.674997
2.588669 1.475342 1.653674
2.587121 1.509315 1.653835
2.540104 1.574312 1.685140
2.537373 1.639440 1.680928
2.660772 -0.715201 1.803450
2.657454 -0.690502 1.805054
2.636483 -0.669450 1.820230
2.632090 -0.670730 1.823619
2.649248 -0.672767 1.810429
2.667103 -0.641733 1.794497
2.650608 -0.643863 1.807520
2.634063 -0.612017 1.818950
2.668771 -0.611592 1.791185
2.646668 -0.592004 1.808199
2.629143 -0.568222 1.820337
2.629490 -0.580660 1.820868
2.667272 -0.563998 1.790171
2.629160 -0.530930 1.817483
2.637880 -0.530509 1.810922
2.648440 -0.537032 1.803501
2.638184 -0.487261 1.806968
2.624659 -0.500437 1.818293
2.657203 -0.511862 1.794586
2.632202 -0.450113 1.808604
2.614462 -0.473350 1.823724
2.655523 -0.452193 1.791223
2.648797 -0.463337 1.797108
2.608979 -0.382438 1.821211
2.641162 -0.442886 1.801353
2.611342 -0.425825 1.822510
2.648689 -0.437198 1.795255
2.634983 -0.375984 1.800872
2.625371 -0.407500 1.810700
2.603572 -0.347228 1.822166
2.599548 -0.337925 1.824181
2.639281 -0.343756 1.794551
2.611002 -0.368200 1.818684
2.636246 -0.360571 1.798407
2.636936 -0.334768 1.795665
2.611800 -0.314227 1.813443
2.600010 -0.283963 1.819190
2.601764 -0.291557 1.818630
2.589064 -0.236208 1.822676
2.623062 -0.298874 1.803489
2.623161 -0.277910 1.801562
2.632468 -0.246954 1.791824
2.626286 -0.243929 1.796165
2.573398 -0.230647 1.833587
2.559589 -0.206389 1.841585
2.553753 -0.199227 1.845166
2.556778 -0.179588 1.841405
2.527496 -0.152318 1.859356
2.538641 -0.120190 1.848949
2.531026 -0.077669 1.850553
2.527399 -0.091268 1.854253
2.517314 -0.034073 1.856050
2.537960 -0.006777 1.838938
2.531637 -0.018654 1.844486
2.508963 0.020145 1.856810
2.528982 0.037951 1.841189
2.540657 0.067432 1.830230
2.531413 0.072151 1.836216
2.515457 0.107469 1.843773
2.523716 0.085948 1.840207
2.542539 -0.137910 1.847711
2.574030 -0.152499 1.826937
2.558772 -0.129489 1.835572
2.546748 -0.095847 1.841144
2.554448 -0.076481 1.833851
2.554138 -0.049325 1.831590
2.549333 -0.027632 1.832856
2.543219 0.011046 1.833574
2.489660 0.133842 1.857765
2.520673 0.127240 1.837646
2.505193 0.168976 1.840844
2.526221 0.162575 1.828639
2.507743 0.163481 1.840517
2.491806 0.202032 1.844503
2.487478 0.190866 1.849343
2.512977 0.190631 1.832039
2.511229 0.203070 1.831379
2.491243 0.231681 1.842816
2.480046 0.240649 1.850769
2.528597 -0.939938 1.885330
2.562306 -0.943551 1.869508
2.541137 -0.950661 1.873971
2.570714 -0.910959 1.871839
2.542639 -0.927326 1.884759
2.567172 -0.879553 1.876510
2.548319 -0.878586 1.888825
2.581699 -0.867185 1.867169
2.580234 -0.883046 1.867554
2.546020 -0.831684 1.891982
2.553131 -0.852520 1.886435
2.582822 -0.863596 1.866503
2.553521 -0.815457 1.886786
2.556678 -0.827647 1.884619
2.570204 -0.779025 1.874712
2.590030 -0.779122 1.861082
2.555961 -0.731866 1.882170
2.548562 -0.749581 1.888229
2.582185 -0.757759 1.865862
2.534066 -0.666013 1.894080
2.531442 -0.619277 1.893215
1.980473 1.098233 2.066887
1.964218 1.164474 2.068973
1.977424 1.171943 2.062549
1.955589 1.227927 2.068429
2.005033 0.980684 2.065301
2.040674 0.963221 2.049914
2.027782 0.980023 2.054521
1.996024 1.016273 2.065848
2.049305 1.007740 2.041625
2.021704 0.993529 2.056175
2.064131 0.968673 2.037921
2.006828 1.051510 2.058123
2.031107 1.049729 2.046866
2.029231 1.023944 2.049695
2.014878 1.077809 2.052505
2.023843 1.064055 2.049231
2.030838 1.066034 2.045741
2.013638 1.104243 2.050979
1.985443 1.112730 2.063306
2.046025 1.102206 2.035712
2.019316 1.097015 2.048942
2.007748 1.137909 2.050888
1.982229 1.147107 2.062022
2.007051 1.170624 2.048763
1.986911 1.166184 2.058477
2.031163 1.181305 2.036377
2.020140 1.169102 2.042559
2.008848 1.219029 2.044574
1.992950 1.211503 2.052693
1.974164 1.242888 2.058802
1.966337 1.240965 2.062476
1.949661 1.288305 2.066105
1.971623 1.313170 2.054305
1.967579 1.305268 2.056754
1.935928 1.341737 2.068175
