1.491801 0.815568 1.280339
1.486124 0.799646 1.294745
1.572463 0.654644 1.263245
1.599055 0.631873 1.243670
1.568103 0.610477 1.284570
1.576292 0.679303 1.247759
1.571690 0.673530 1.255669
1.542186 0.677486 1.287618
1.541748 0.758290 1.250402
1.250334 1.140903 1.283285
1.272092 1.098416 1.292228
1.222269 1.196270 1.280360
1.233817 1.182890 1.258901
1.196931 1.258548 1.275114
1.204542 1.252797 1.252998
1.175044 1.317831 1.268340
1.414089 0.962431 1.274178
1.436243 0.891100 1.296279
1.471021 0.872287 1.274283
1.486166 0.884145 1.251917
1.425352 0.949196 1.272339
1.433469 0.960508 1.258844
1.423370 0.905661 1.299961
1.449005 0.909699 1.274204
1.335432 1.009889 1.300570
1.357489 1.008963 1.280806
1.374653 1.018215 1.259721
1.303036 1.067932 1.280700
1.351395 1.031627 1.267472
1.320116 1.042132 1.290184
1.030619 1.392627 1.392604
0.968363 1.438154 1.413933
0.987442 1.424946 1.401367
1.002257 1.432362 1.380267
0.923621 1.546374 1.380498
0.939291 1.486050 1.410627
0.959131 1.495774 1.371135
1.056704 1.376560 1.384500
1.066414 1.383237 1.367993
1.071291 1.337258 1.409068
0.807812 1.365793 1.737917
0.814183 0.871622 2.241806
0.830954 0.841908 2.256588
0.548884 1.426412 2.272229
0.546766 1.431142 2.278255
0.539133 1.505802 2.262239
0.539539 1.467854 2.288313
0.525548 1.565918 2.255011
0.530489 1.526173 2.276923
0.557193 1.381999 2.256050
0.791228 0.738674 2.776560
0.741271 0.834599 2.753825
0.767758 0.788082 2.755865
0.771186 0.799437 2.719283
0.664979 0.952316 2.767340
0.678031 0.931697 2.764412
0.717655 0.873861 2.753839
0.708009 0.884957 2.766295
0.714462 0.869265 2.778112
0.625733 1.024385 2.740537
0.644855 0.990877 2.756697
0.584706 1.075479 2.737885
0.596675 1.061653 2.758956
0.548248 1.122278 2.765378
0.535719 1.139481 2.732007
0.485739 1.208593 2.742470
0.497640 1.188224 2.754312
0.505945 1.171888 2.772538
0.389194 1.314422 2.763572
0.394998 1.332169 2.723197
0.466266 1.223698 2.771343
0.472854 1.215989 2.769094
0.568105 1.096979 2.760099
0.571873 1.091253 2.740954
1.009032 0.401901 2.766190
1.027253 0.391607 2.728210
0.976901 0.448279 2.747608
0.904457 0.547347 2.778043
0.912574 0.545934 2.741719
0.949858 0.493764 2.724777
0.954536 0.481875 2.741606
1.052727 0.350104 2.765149
0.859152 0.622906 2.770876
0.816287 0.693846 2.780375
0.843760 0.667879 2.730298
1.069377 -0.013981 2.843937
1.053598 0.075841 2.859760
1.030512 0.123929 2.884650
1.042875 0.173169 2.869196
1.026923 0.187915 2.886553
1.013724 0.285228 2.889018
1.019237 0.233888 2.891599
1.008523 0.314281 2.879311
1.019126 0.323478 2.859061
0.942663 -0.347565 2.956001
0.944304 -0.354210 2.953605
0.985204 -0.339400 2.910928
0.965605 -0.356937 2.930436
0.947338 -0.311986 2.953535
0.956272 -0.308873 2.943963
0.971799 -0.219842 2.931281
0.976014 -0.253404 2.925284
0.952242 -0.152770 2.957725
0.982199 -0.164883 2.923054
0.974254 -0.092207 2.937553
0.975987 -0.114217 2.933824
0.990442 -0.129619 2.916857
0.969363 -0.022218 2.948540
0.987337 -0.074580 2.923932
0.963561 0.003727 2.957095
0.962782 -0.008258 2.957164
0.968088 0.056413 2.955087
1.012320 0.079030 2.903826
0.990586 0.071425 2.928302
0.973837 0.152726 2.950727
0.979455 0.137602 2.943210
0.996543 0.121461 2.922612
0.972777 0.207532 2.951889
0.974731 0.185286 2.949646
1.004837 0.208213 2.910710
0.968993 0.286058 2.951294
0.971547 0.244397 2.951802
0.977543 0.313542 2.929560
0.968843 0.288213 2.951125
0.670382 -0.341172 3.240333
0.638919 -0.358416 3.262983
0.674096 -0.275691 3.243532
0.649163 -0.300302 3.260034
0.715199 -0.267213 3.212925
0.679248 -0.315370 3.236082
0.650240 -0.215032 3.265380
0.660731 -0.247014 3.255511
0.677692 -0.144460 3.249483
0.649017 -0.194644 3.267561
0.716191 -0.225142 3.215252
0.691167 -0.152677 3.238752
0.698905 -0.180422 3.231319
0.661558 -0.102053 3.263108
0.677706 -0.061294 3.253633
0.657986 -0.043953 3.267959
0.727269 -0.106240 3.213694
0.726024 -0.121584 3.213779
0.688414 -0.127235 3.242241
0.703419 -0.021381 3.235838
0.689448 -0.047453 3.245326
0.657457 0.026165 3.270572
0.665220 0.000230 3.264354
0.727227 0.034963 3.219588
0.715530 0.039505 3.228478
0.711126 -0.014445 3.230176
0.689797 -0.018380 3.246261
0.695885 0.077303 3.244370
0.692450 0.080215 3.246994
0.658735 0.144929 3.272914
0.734664 0.162007 3.218386
0.704054 0.142194 3.240370
0.699970 0.107760 3.242312
0.685905 0.139886 3.253659
0.736285 0.196908 3.218244
0.731785 0.224767 3.222374
0.708748 0.254596 3.239613
0.708837 0.271974 3.239516
0.743679 0.286903 3.214238
0.720871 0.327604 3.230808
0.703195 0.293622 3.243534
0.278246 0.516573 3.656001
0.250066 0.493091 3.676078
0.255415 0.588618 3.677073
0.263681 0.561391 3.669277
0.291191 0.602401 3.647252
0.277780 0.603063 3.658635
0.231094 0.658805 3.696204
0.291211 0.676270 3.646849
0.268600 0.668468 3.668049
0.230817 0.749434 3.701998
0.278153 0.755926 3.658169
0.254716 0.758540 3.679955
0.230696 0.827917 3.685192
0.224250 0.825204 3.689194
0.248050 0.810993 3.678229
0.255397 0.784876 3.676805
0.249596 0.785843 3.681818
0.233156 0.862315 3.670700
0.224153 0.870305 3.671614
0.258845 0.873996 3.651499
0.317419 -0.347893 -3.379966
0.350152 -0.351633 -3.382983
0.371939 -0.382905 -3.384218
0.391752 -0.330244 -3.381946
0.324449 -0.313182 -3.380728
0.353546 -0.319027 -3.383350
0.418309 -0.273413 -3.378967
0.425696 -0.315242 -3.377399
0.371457 -0.212816 -3.385249
0.401837 -0.244855 -3.380967
0.365987 -0.204544 -3.384671
0.364358 -0.194772 -3.384265
0.388716 -0.180690 -3.381717
0.410639 -0.179593 -3.378151
0.312433 -0.102831 -3.375113
0.351564 -0.091676 -3.379248
0.408313 -0.098040 -3.376764
0.396762 -0.140576 -3.379443
0.340147 -0.072006 -3.377045
0.393278 -0.020971 -3.376509
0.396799 -0.075967 -3.377630
0.324388 0.014078 -3.374391
0.349975 0.037658 -3.376865
0.391212 -0.018004 -3.376702
0.348249 0.049467 -3.376834
0.336146 0.070832 -3.375960
0.375017 0.080281 -3.378970
0.390974 0.059822 -3.376751
0.348874 0.133126 -3.377572
0.320828 0.113428 -3.374525
0.387565 0.115740 -3.377819
0.336654 0.176139 -3.376351
0.314516 0.183339 -3.373945
0.397268 0.193765 -3.376457
0.357464 0.281778 -3.377512
0.392494 0.256850 -3.377029
0.413977 0.266321 -3.373976
0.326418 0.320783 -3.373767
0.376364 0.331647 -3.376749
0.402108 0.321998 -3.374350
0.587048 0.888012 -3.295364
0.588413 0.872255 -3.294014
0.647570 0.880409 -3.264693
0.640902 0.848989 -3.267307
0.574518 0.938099 -3.303638
0.597849 0.929400 -3.291255
0.622960 0.941906 -3.278036
0.676668 0.956166 -3.250689
0.602506 0.966100 -3.289196
0.606961 1.015715 -3.289664
0.664065 1.014748 -3.260076
0.665862 0.993885 -3.257776
0.566961 1.080884 -3.311289
0.591681 1.063474 -3.298785
0.630931 1.037309 -3.278536
0.667206 1.073160 -3.261526
0.617190 1.136759 -3.288466
0.647270 1.095739 -3.272590
0.663048 1.113207 -3.264792
0.582499 1.190187 -3.303543
0.569228 1.154163 -3.309899
0.620445 1.149352 -3.286963
0.645130 1.191612 -3.274275
0.563070 1.237119 -3.310861
0.630244 1.246875 -3.281003
0.659667 1.239304 -3.266492
0.577185 1.320406 -3.301916
0.607639 1.297148 -3.290412
0.655764 1.327030 -3.265481
0.663278 1.280553 -3.263729
0.892473 1.345957 -3.118117
0.917278 1.386730 -3.112242
0.912083 1.427776 -3.120357
0.945617 1.379984 -3.095853
0.983124 1.336354 -3.072727
0.994699 1.386904 -3.070480
0.928546 1.436554 -3.111901
0.930267 1.408407 -3.107674
0.978097 1.448210 -3.083827
0.989440 1.405841 -3.074616
1.003382 1.421565 -3.067698
0.941269 1.496117 -3.108969
0.980153 1.465768 -3.084088
0.999161 1.495087 -3.073704
0.964047 1.532909 -3.096303
0.925611 1.577735 -3.118016
0.945599 1.560378 -3.106597
1.011581 1.372228 -3.059223
1.023671 1.420334 -3.054561
1.026247 1.453693 -3.054667
1.035783 1.490107 -3.049486
1.058545 1.339290 -3.025571
1.051110 1.420419 -3.035870
1.089003 1.436651 -3.008227
1.078629 1.508448 -3.018292
1.094712 1.502892 -3.005892
1.088489 1.539147 -3.011301
1.068473 1.550446 -3.026704
1.043939 1.582167 -3.045404
1.088028 0.630073 -2.989862
1.106358 0.616013 -2.975384
1.136427 0.643892 -2.951205
1.123164 0.602472 -2.962204
1.095850 0.715900 -2.982764
1.105905 0.703662 -2.975041
1.120280 0.704181 -2.963448
1.107784 0.778709 -2.972765
1.129017 0.728789 -2.955881
1.076752 0.804987 -2.995949
1.077239 0.793176 -2.995905
1.114154 0.801052 -2.967007
1.131522 0.795171 -2.952949
1.074019 0.897510 -2.993286
1.095021 0.847967 -2.980232
1.118714 0.870614 -2.960362
1.063796 0.959398 -3.001107
1.092474 0.926562 -2.977979
1.121443 0.909689 -2.955805
1.062099 0.978329 -3.003549
1.096527 1.000091 -2.977331
1.110235 0.975415 -2.964279
1.092626 1.048574 -2.983185
1.102592 1.059376 -2.976069
1.144225 1.054399 -2.942972
1.109832 1.037789 -2.969449
1.089661 1.097277 -2.987715
1.090418 1.139268 -2.988908
1.125176 1.144158 -2.962416
1.133886 1.103708 -2.953645
1.078209 1.177477 -3.000668
1.104301 1.201515 -2.982541
1.144088 1.189684 -2.949804
1.101738 1.212653 -2.985242
1.111994 1.229417 -2.978406
1.127349 1.231727 -2.966046
1.087508 1.305146 -3.002492
1.110457 1.292036 -2.984025
1.145007 1.288902 -2.955475
1.384507 -0.108751 -2.733641
1.400523 -0.135669 -2.717127
1.381518 -0.049241 -2.735782
1.416832 -0.040269 -2.699159
1.370732 -0.007357 -2.746517
1.376664 -0.012591 -2.740555
1.378416 0.089836 -2.732035
1.380139 0.075380 -2.731978
1.397986 0.060149 -2.714504
1.390357 0.162719 -2.707988
1.381052 0.126762 -2.724366
1.394301 0.137980 -2.709605
1.331364 0.222897 -2.746088
1.351756 0.197037 -2.734567
1.360565 0.178582 -2.730562
1.384973 0.186248 -2.710474
1.337714 0.233227 -2.741644
1.357091 0.271275 -2.731882
1.370903 0.236444 -2.716579
1.332283 0.290642 -2.754204
1.378034 0.333696 -2.720300
1.394861 0.311578 -2.704611
1.529617 -0.467466 -2.565235
1.530051 -0.420731 -2.566876
1.558103 -0.521812 -2.525991
1.544827 -0.538018 -2.542303
1.566854 -0.477474 -2.517357
1.542623 -0.469907 -2.548781
1.574343 -0.395777 -2.512503
1.554622 -0.433069 -2.535499
1.528125 -0.367563 -2.571248
1.536127 -0.205091 -2.563829
1.537950 -0.192059 -2.561755
1.558670 -0.359339 -2.533650
1.552880 -0.370764 -2.540634
1.575030 -0.313735 -2.514188
1.571123 -0.324604 -2.518960
1.574618 -0.255279 -2.515537
1.564274 -0.255984 -2.528448
1.571393 -0.156886 -2.520535
1.547526 -0.183958 -2.549959
1.567473 -0.138916 -2.525495
1.573927 -0.043141 -2.516887
1.542451 -0.065428 -2.556249
1.563970 0.006685 -2.528380
1.545203 0.061848 -2.550143
1.573838 0.055558 -2.515234
1.526864 0.221807 -2.567734
1.539797 0.204980 -2.553614
1.537542 0.236128 -2.555400
1.526018 0.313595 -2.566178
1.545889 0.146312 -2.547542
1.567083 0.144494 -2.521762
1.546994 0.166183 -2.545853
1.561681 0.270867 -2.525773
1.543202 0.255197 -2.548440
1.544852 0.344958 -2.543517
1.554796 0.293603 -2.533404
1.554450 -0.777666 -2.510553
1.894847 -0.140716 -2.009848
1.907734 -0.090339 -1.984073
1.891789 -0.053984 -2.018642
1.907842 -0.061613 -1.984512
1.918224 -0.075962 -1.962547
1.893907 0.083055 -2.015862
1.899232 0.083860 -2.004845
1.918747 -0.006422 -1.962916
1.913346 0.077541 -1.975220
1.911865 0.050496 -1.978418
1.903175 0.122312 -1.996239
1.906624 0.224403 -1.986749
1.903632 0.196003 -1.993629
1.920400 0.134726 -1.959268
1.890940 0.278735 -2.018736
1.897913 0.243762 -2.004623
1.889635 0.326397 -2.019153
1.905260 0.302685 -1.987083
1.961584 0.654556 -1.841545
1.960836 0.644260 -1.843901
1.939475 0.670126 -1.887330
1.949285 0.681345 -1.865734
1.940886 0.768633 -1.877727
1.935079 0.728242 -1.891870
1.940787 0.831063 -1.872627
1.941134 0.794431 -1.875240
1.950122 0.900066 -1.849743
1.947371 0.846622 -1.857048
1.937730 0.953921 -1.882415
1.955139 0.947963 -1.841496
1.939363 1.013791 -1.879974
1.948217 0.975722 -1.858949
1.958223 1.030323 -1.835668
1.946479 1.033850 -1.863373
1.944966 1.142399 -1.866342
1.940079 1.115655 -1.877902
1.945974 1.208944 -1.865568
1.938753 1.186275 -1.881940
1.950622 1.259557 -1.855521
1.952937 1.233302 -1.849569
1.937630 1.304506 -1.888240
1.938808 1.279025 -1.884360
1.952885 1.352235 -1.852234
1.942436 1.340019 -1.877767
1.952900 1.414990 -1.851078
1.942132 1.434293 -1.877377
1.942667 1.511536 -1.871199
1.941838 1.478252 -1.875980
1.951029 1.553750 -1.841690
1.941785 1.547561 -1.870616
1.985950 -0.453407 -1.785009
1.985210 -0.512650 -1.777629
1.983285 -0.413352 -1.794528
1.987467 -0.412269 -1.784846
1.976848 -0.372611 -1.813042
1.974986 -0.383392 -1.816810
1.994688 -0.266543 -1.778002
1.978822 -0.307539 -1.812810
1.974699 -0.231619 -1.828613
1.991217 -0.251326 -1.787547
1.981209 -0.146605 -1.818271
1.996094 -0.166968 -1.781600
1.985721 -0.101151 -1.808376
1.977607 -0.115511 -1.827546
1.975662 -0.065798 -1.833112
1.996893 -0.054516 -1.782379
1.981590 -0.000985 -1.820130
1.994855 -0.001002 -1.788073
1.981725 0.091673 -1.820817
1.990929 0.049858 -1.798397
1.978354 0.126532 -1.828656
2.001012 0.110335 -1.774637
1.980723 0.195846 -1.821290
1.999072 0.187703 -1.778162
1.978832 0.253289 -1.824227
1.992231 0.232279 -1.793047
1.975228 0.334901 -1.828976
1.983865 0.298194 -1.811318
2.231490 1.270407 -1.194471
2.230728 1.234418 -1.196579
2.247924 1.300215 -1.158150
2.228202 1.289572 -1.201679
2.238919 1.376016 -1.177358
2.227330 1.353248 -1.203438
2.239079 1.446491 -1.175072
2.235555 1.418374 -1.184072
2.239911 1.507586 -1.170872
2.236301 1.465401 -1.180698
2.229858 1.559336 -1.190392
2.235254 1.550902 -1.179311
2.303846 1.227661 -1.043578
2.289251 1.222335 -1.072618
2.284285 1.299714 -1.084211
2.303741 1.297850 -1.046594
2.275893 1.430786 -1.096539
2.275574 1.578616 -1.092274
2.294888 1.384826 -1.061786
2.297658 1.348840 -1.057705
2.280287 1.417242 -1.088698
2.285764 1.504718 -1.074262
2.284691 1.460024 -1.078381
2.298505 1.558804 -1.046559
2.286066 1.547970 -1.072166
2.314892 0.392198 -1.029869
2.340230 0.359496 -0.980288
2.324431 0.435420 -1.012107
2.332710 0.444792 -0.996235
2.313688 0.496181 -1.034043
2.329577 0.505571 -1.003488
2.327657 0.533864 -1.007674
2.334017 0.592792 -0.996283
2.322232 0.649817 -1.018857
2.318039 0.684419 -1.026368
2.325512 0.705989 -1.012673
2.323367 0.747358 -1.016948
2.333239 0.821310 -1.000117
2.333145 0.860828 -0.999933
2.318540 0.954562 -1.025776
2.337489 0.937226 -0.991288
2.344556 0.938153 -0.978741
2.313884 0.970990 -1.034202
2.336701 0.990593 -0.992553
2.316395 1.079326 -1.025692
2.326804 1.052763 -1.009056
2.312630 1.122372 -1.028554
2.315338 1.135286 -1.022751
2.326388 1.089627 -1.007377
2.318833 1.199634 -1.015466
2.328257 1.154099 -0.999588
2.335942 1.212650 -0.985873
2.328575 1.250433 -0.999835
2.314745 1.315682 -1.025510
2.332618 1.301777 -0.991881
2.335419 -0.774753 -0.875096
2.341511 -0.797483 -0.857690
2.345228 -0.712919 -0.873062
2.338834 -0.668423 -0.895332
2.365563 -0.636243 -0.855112
2.357943 -0.583453 -0.879777
2.366322 -0.594055 -0.862699
2.376817 -0.563550 -0.850416
2.356005 -0.553834 -0.889021
2.368151 -0.464570 -0.884265
2.369428 -0.503811 -0.875424
2.374703 -0.392635 -0.883467
2.377447 -0.446644 -0.870996
2.363846 -0.402368 -0.900667
2.374372 -0.338654 -0.890300
2.365480 -0.370481 -0.901808
2.372258 -0.389432 -0.888126
2.384160 -0.271376 -0.880107
2.398252 -0.300590 -0.854236
2.376770 -0.254277 -0.893555
2.389856 -0.228449 -0.873642
2.393242 -0.190885 -0.871001
2.387217 -0.153756 -0.884835
2.770509 0.128149 -0.334764
2.758673 0.201088 -0.297267
2.755004 0.209882 -0.346783
2.739772 0.284686 -0.344853
2.746089 0.252252 -0.355795
2.737983 0.297804 -0.352283
2.736834 0.302183 -0.339457
2.794511 -0.600660 -0.322196
2.800599 -0.625373 -0.312680
2.778574 -0.554091 -0.344552
2.813137 -0.564115 -0.306960
2.780887 -0.480341 -0.349976
2.820263 -0.478965 -0.308264
2.791637 -0.450198 -0.341650
2.802826 -0.392220 -0.333997
2.814354 -0.382017 -0.321849
2.813764 -0.341912 -0.322867
2.819522 -0.317845 -0.316617
2.821684 -0.270844 -0.314055
2.785768 -0.238885 -0.356950
2.823082 -0.209924 -0.312676
2.820944 -0.214358 -0.315432
2.813817 -0.171258 -0.322311
2.822239 -0.102820 -0.299287
2.792029 -0.133650 -0.351218
2.788414 -0.114637 -0.354924
2.791239 -0.033840 -0.343356
2.809571 -0.072075 -0.314748
2.798643 0.030457 -0.299779
2.797338 -0.001684 -0.321822
2.777133 0.100234 -0.328713
2.788168 0.062826 -0.309114
2.628952 0.471745 -0.161886
2.617186 0.455019 -0.117083
2.648527 0.379300 -0.115897
2.652632 0.408451 -0.160428
2.604064 0.506686 -0.132888
2.609725 0.487146 -0.129236
2.609456 0.534366 -0.169212
2.582108 0.622117 -0.159595
2.556947 0.677145 -0.112907
2.571811 0.688845 -0.168207
2.535993 0.770809 -0.114819
2.550203 0.720864 -0.118067
2.531411 0.819341 -0.134714
2.546944 0.815331 -0.169863
2.767975 -0.133039 -0.002599
2.722976 -0.062435 0.002886
2.750740 -0.071744 -0.027096
2.709154 0.033857 -0.027261
2.690616 0.076469 -0.019711
2.697637 0.096724 -0.035441
2.698910 0.054786 -0.022443
2.636117 0.225470 0.001467
2.673357 0.114504 -0.012779
2.671034 0.185201 -0.037964
2.645145 0.236066 -0.015845
2.602475 0.338955 0.004938
2.626188 0.296143 -0.011047
2.649708 0.243272 -0.026912
2.928718 -0.610612 0.007898
2.949110 -0.602971 -0.035874
2.917959 -0.553172 0.007736
2.938525 -0.514182 -0.041315
2.948238 -0.556843 -0.043564
2.885901 -0.450977 0.006569
2.912177 -0.478816 -0.019159
2.910158 -0.441159 -0.035772
2.900050 -0.394236 -0.042665
2.871001 -0.334881 -0.025678
2.853413 -0.348777 0.002556
2.832071 -0.288273 0.003783
2.844170 -0.295782 -0.008314
2.850327 -0.287247 -0.020021
2.830163 -0.246921 -0.014043
2.823158 -0.260638 0.001080
2.846861 -0.233629 -0.043144
2.774763 -0.160574 0.005715
2.806342 -0.195792 -0.014373
2.779207 -0.103583 -0.040722
2.173839 0.394013 0.308593
2.189182 0.407847 0.288732
2.245511 0.372605 0.258996
2.181567 0.429960 0.284522
2.145259 0.526519 0.269081
2.150611 0.481561 0.286401
2.067703 0.575005 0.315882
2.109949 0.580612 0.268847
2.098339 0.587607 0.276185
2.007879 0.667682 0.297144
2.023627 0.692102 0.265308
2.013330 0.708175 0.261486
1.909307 0.809576 0.318683
1.940740 0.775208 0.295890
1.983960 0.740860 0.266487
1.923099 0.830122 0.289196
1.952557 0.804309 0.265292
1.921961 0.781991 0.315612
2.040195 0.607546 0.318257
2.054801 0.640238 0.277864
2.055087 0.650020 0.270799
2.080804 0.601464 0.284395
2.034483 0.671385 0.271798
1.883523 0.900902 0.308690
1.870987 0.917132 0.318620
1.890017 0.943163 0.269977
1.932053 0.851488 0.265562
1.852912 0.988956 0.299143
1.818271 1.038484 0.318410
1.816604 1.104381 0.265480
1.802788 1.127562 0.268105
2.149811 0.161379 0.449226
2.121367 0.154239 0.497233
2.109520 0.206591 0.486368
2.128290 0.181684 0.471722
2.089462 0.270509 0.476501
2.110204 0.248601 0.460439
2.048511 0.339038 0.485512
2.062141 0.315176 0.483192
1.783037 0.828017 0.617620
1.763811 0.902479 0.587327
1.779854 0.857306 0.579412
1.736620 0.949692 0.613272
1.749984 0.935743 0.590835
1.721023 1.012004 0.581080
1.708638 1.071912 0.565574
1.706845 1.040626 0.610074
1.461502 1.329742 0.580198
1.471283 1.315705 0.587420
1.480656 1.295338 0.621543
1.587196 1.204634 0.605415
1.601040 1.191622 0.619291
1.603895 1.199963 0.574145
1.651507 1.157800 0.599241
1.656183 1.157799 0.584494
1.620557 1.176587 0.619525
1.696397 1.091577 0.595941
1.680861 1.128049 0.572736
1.575075 1.219493 0.582983
1.574467 1.212291 0.612682
2.019111 -0.679470 0.686465
2.079775 -0.780485 0.687503
2.103135 -0.779952 0.672671
2.102744 -0.800069 0.682287
2.166084 -0.791955 0.640510
2.067994 -0.732868 0.675403
2.122729 -0.737816 0.643612
2.110593 -0.723600 0.646013
2.080801 -0.666558 0.643519
2.082962 -0.661944 0.640822
2.038007 -0.668602 0.669853
2.071118 -0.686872 0.656302
1.258517 1.394182 0.922991
1.220380 1.438678 0.894442
1.237584 1.430828 0.888798
1.244269 1.405833 0.919478
1.289760 1.402202 0.880437
1.154730 1.487530 0.914726
1.152154 1.489942 0.916772
1.105648 1.551028 0.925807
1.109294 1.546561 0.910151
1.117163 1.540493 0.887567
1.178846 1.466521 0.901370
1.296743 1.375528 0.912789
1.355121 1.353005 0.877778
1.321953 1.342279 0.933266
1.628107 -0.241936 0.959083
1.639281 -0.254335 0.943315
1.620212 -0.261301 0.976023
1.625264 -0.177355 0.953852
1.621278 -0.149013 0.955747
1.615642 -0.128942 0.962432
1.607123 -0.093571 0.976470
1.620653 -0.045312 0.946465
1.607541 -0.063223 0.973150
1.591869 0.000882 0.995610
1.622584 0.003490 0.939402
1.601214 0.081893 0.984092
1.614478 0.075419 0.961521
1.604827 0.071245 0.975666
1.652947 0.144306 0.951941
1.639067 0.145980 0.968987
1.637109 0.125737 0.958841
1.644399 0.175842 0.983740
1.701256 0.219712 0.939070
1.714724 0.283880 0.952274
1.702011 0.252161 0.956490
1.693541 0.266097 0.977005
1.706080 0.323813 0.984508
1.702869 0.308011 0.982428
1.706431 -0.712222 1.078612
1.713034 -0.735492 1.094767
1.690709 -0.695714 1.107298
1.685847 -0.663747 1.064809
1.657093 -0.621070 1.087359
1.656753 -0.627371 1.100007
1.612031 -0.539056 1.111860
1.620394 -0.530505 1.071647
1.711726 -0.761133 1.177294
1.723003 -0.776155 1.147522
1.656165 -0.639409 1.132167
1.698358 -0.734779 1.177455
1.709764 -0.747980 1.146071
1.668061 -0.662772 1.133458
1.635380 -0.605945 1.156994
1.650558 -0.628421 1.132361
1.612956 -0.547600 1.122035
1.517477 0.386389 1.352566
1.523410 0.351127 1.340061
1.524850 0.422657 1.313130
1.519431 0.412931 1.332688
1.455030 -0.621009 2.038832
1.468518 -0.635668 1.997308
1.452897 -0.541381 2.037240
1.460750 -0.552851 2.015498
1.460776 -0.460705 1.990600
1.459703 -0.510084 2.011104
1.441875 -0.406563 2.023407
1.439539 -0.424110 2.038896
1.414369 -0.280090 2.007774
1.437290 -0.350117 1.996967
1.431906 -0.366309 2.032130
1.419304 -0.304954 2.025255
1.405471 -0.219135 2.002141
1.405527 -0.229351 2.035727
1.397393 -0.151036 2.001118
1.401624 -0.192180 2.019106
1.391953 -0.083480 2.036126
1.386890 -0.054023 1.983281
1.388260 -0.081261 1.987619
1.387079 0.027912 1.989306
1.386738 -0.009779 1.994816
1.392280 0.086594 2.011742
1.392425 0.069763 2.028098
1.395778 0.146345 1.982802
1.394737 0.109623 2.026106
1.395434 0.209735 2.029214
1.397863 0.170472 2.034516
1.386103 0.260408 2.032202
1.394475 0.280632 1.981296
1.379815 0.319405 1.990770
1.377369 0.291474 2.031374
0.702391 1.105111 2.099560
0.708934 1.123186 2.066578
0.688730 1.171362 2.055421
0.638655 1.267847 2.059784
0.625677 1.266799 2.095966
0.636694 1.238837 2.097034
0.603779 1.323545 2.095022
0.633533 1.280611 2.056720
0.628117 1.273436 2.080760
1.278101 0.399205 2.097749
1.239316 0.451781 2.091029
1.244175 0.459152 2.078479
1.265546 0.412328 2.100602
1.123207 0.593705 2.088334
1.193102 0.530436 2.065134
1.180507 0.509155 2.098103
1.173902 0.555851 2.058481
1.014067 0.711395 2.077235
1.023135 0.693338 2.100936
0.884409 0.830954 2.078422
0.902785 0.813851 2.073838
0.951307 0.769521 2.069361
1.092984 0.626792 2.084733
1.099839 0.621726 2.078935
1.138050 0.597638 2.058306
1.301999 0.371735 2.092408
1.307331 0.401918 2.055042
0.856141 0.877653 2.058691
0.880431 0.849267 2.051634
0.821681 0.933656 2.055565
1.356582 -0.116282 2.274691
1.361819 -0.029370 2.270166
1.364473 -0.009217 2.260999
1.373460 0.073795 2.246868
1.368641 0.073509 2.280212
1.364496 0.162134 2.262816
1.371546 0.157033 2.231124
1.336134 0.216503 2.262985
1.358149 0.178060 2.262416
1.320539 0.247962 2.237315
0.776718 0.892067 2.378568
0.720861 0.962174 2.411094
0.751982 0.925907 2.378485
0.672767 1.024797 2.402672
0.634314 1.078717 2.393339
0.665323 1.040371 2.385387
0.681767 1.020090 2.374845
0.710482 0.983898 2.364558
0.713344 0.982069 2.353492
0.546960 1.250120 2.406985
0.531438 1.304779 2.386827
0.537437 1.288785 2.383306
0.607587 1.123626 2.383450
0.616826 1.122145 2.351481
0.628076 1.093050 2.378399
0.575928 1.189074 2.389102
0.574691 1.184167 2.402393
0.567052 1.218869 2.358087
1.017926 0.525963 2.378527
1.042923 0.488515 2.389140
1.037740 0.491767 2.396739
0.970247 0.585202 2.392969
0.988544 0.564741 2.376686
1.161558 0.368478 2.410597
1.091806 0.436063 2.404320
1.066281 0.470816 2.373646
1.103697 0.441130 2.364730
1.186606 0.358347 2.373672
1.052623 0.490332 2.360443
0.916096 0.685219 2.386479
0.940954 0.643376 2.371241
0.967287 0.602671 2.353033
0.962933 0.604261 2.371720
0.872599 0.756164 2.408929
0.883579 0.741489 2.395521
0.878040 0.759912 2.362089
0.819864 0.834990 2.381749
0.842746 0.809015 2.361577
0.781678 0.696495 3.059402
0.719075 0.774275 3.081388
0.752690 0.744807 3.027218
0.751633 0.732182 3.080646
0.693508 0.810801 3.085367
0.717389 0.790938 3.041482
0.681696 0.837963 3.062704
0.272542 1.269790 3.061344
0.304563 1.241627 3.086053
0.232694 1.304488 3.078923
0.242351 1.298463 3.050964
0.249679 1.292078 3.039976
0.514188 1.085521 3.075011
0.526794 1.084210 3.028064
0.658733 0.875424 3.064602
0.652897 0.876686 3.085097
0.637883 0.918717 3.049576
0.685372 0.843774 3.036268
0.583565 1.001708 3.071872
0.603302 0.977510 3.048976
0.558810 1.037804 3.071148
0.363250 1.193814 3.086861
0.401418 1.169244 3.065975
0.379509 1.182637 3.082411
0.432567 1.150492 3.069137
0.476782 1.120592 3.056713
0.443617 1.142848 3.069646
0.317451 1.228064 3.055486
0.882152 0.379147 3.062493
0.885167 0.368374 3.060775
0.862525 0.441166 3.075673
0.882104 0.450477 3.035151
0.860327 0.511660 3.048204
0.838072 0.578942 3.064750
0.852806 0.575195 3.029415
0.839766 0.611177 3.027140
0.830737 0.611549 3.060137
0.810956 0.658620 3.043309
0.449819 -0.779396 3.435133
0.446289 -0.788952 3.438769
0.446119 -0.720661 3.442807
0.457778 -0.732475 3.428251
0.484765 -0.656409 3.399142
0.464828 -0.696743 3.421248
0.463828 -0.585222 3.427046
0.441373 -0.615810 3.452130
0.488558 -0.557186 3.399234
0.459292 -0.546529 3.433609
0.428935 -0.475544 3.471823
0.392271 -0.468925 3.518008
0.426734 -0.435619 3.475500
0.406658 -0.443457 3.500450
0.399712 -0.367241 3.510691
0.430608 -0.338608 3.473467
0.421195 -0.287980 3.486646
0.408710 -0.326849 3.500942
0.433351 -0.373280 3.468880
0.437019 -0.307205 3.466526
0.425561 -0.158783 3.483657
0.396876 -0.174635 3.517872
0.442888 -0.248449 3.461006
0.429966 -0.122448 3.478798
0.401328 -0.141547 3.512755
0.413856 -0.033413 3.497923
0.424551 -0.040998 3.485365
0.445795 -0.131071 3.460134
0.437264 -0.080225 3.470595
0.402036 0.035418 3.512604
0.414138 -0.017435 3.497581
0.430002 0.080500 3.480715
0.408448 0.068183 3.505412
0.435428 0.029690 3.473126
0.432113 0.135280 3.478900
0.412338 0.181998 3.501835
0.448692 0.204037 3.459229
0.412076 0.245587 3.502740
0.429072 0.315508 3.482776
0.413080 0.307643 3.501690
0.448357 0.276082 3.460394
0.433654 0.253996 3.478044
0.448701 0.287553 3.459968
0.439463 0.322747 3.470088
1.496481 0.650884 -2.588331
1.501797 0.606107 -2.583813
1.463562 0.710905 -2.629773
1.487903 0.657421 -2.599519
1.494417 0.763915 -2.590778
1.502456 0.726971 -2.579730
1.459855 0.784927 -2.633628
1.479455 0.832826 -2.609902
1.504285 0.814714 -2.578561
1.471762 0.860825 -2.618744
1.492805 0.852474 -2.592985
1.469467 0.964246 -2.619301
1.482931 0.964087 -2.603566
1.458675 0.996238 -2.632147
1.476563 1.013750 -2.611491
1.498428 1.021115 -2.586784
1.509979 1.036718 -2.574492
1.460182 1.101734 -2.633283
1.493303 1.121731 -2.596541
1.513195 1.115563 -2.574008
1.502991 1.175743 -2.585062
1.463296 1.262603 -2.619508
1.498383 1.270836 -2.581712
1.506711 1.248577 -2.575377
1.461581 1.306324 -2.615951
1.472184 1.316112 -2.603317
1.486141 1.273803 -2.594059
1.525235 0.637144 -2.547980
1.537014 0.631089 -2.532144
1.520727 0.670455 -2.553303
1.534127 0.684631 -2.534121
1.530584 0.767584 -2.544266
1.532397 0.781901 -2.543166
1.551777 0.607921 -2.514858
1.547210 0.676715 -2.514476
1.523327 0.847324 -2.554751
1.524671 0.903410 -2.553603
1.520060 0.983545 -2.560954
1.510978 1.025278 -2.572719
1.518964 1.031878 -2.563586
1.525921 1.069847 -2.557199
1.556717 0.897943 -2.513464
1.551011 0.849713 -2.519479
1.557963 0.960988 -2.514768
1.551697 1.027354 -2.523756
1.522003 1.111055 -2.562970
1.525227 1.124564 -2.559149
1.534205 1.154677 -2.548522
1.514793 1.217095 -2.569977
1.519523 1.323496 -2.556643
1.517122 1.279665 -2.561771
1.548710 1.181362 -2.529941
1.562974 1.226905 -2.513574
1.555917 1.326285 -2.521357
1.718146 -0.363284 -2.314039
1.747306 -0.331470 -2.269308
1.722883 -0.301874 -2.309256
1.737714 -0.291112 -2.286050
1.734393 -0.319315 -2.290416
1.750790 -0.210270 -2.267919
1.741121 -0.265185 -2.281641
1.744952 -0.131400 -2.278619
1.728392 -0.047933 -2.305123
1.752843 -0.061702 -2.267324
1.718056 0.033579 -2.321343
1.738672 -0.014955 -2.289547
1.718802 0.083608 -2.319823
1.742434 0.087326 -2.283601
1.736032 0.061688 -2.293748
1.730053 0.154102 -2.301666
1.751309 0.138685 -2.269125
1.744032 0.217969 -2.277996
1.748876 0.205849 -2.271018
1.717118 0.251402 -2.317329
1.735757 0.286850 -2.287784
1.742039 0.238674 -2.280262
1.715967 0.321971 -2.315596
1.732249 0.323337 -2.291368
1.745426 0.296611 -2.272840
1.793378 0.402841 -2.191184
1.796354 0.384382 -2.187184
1.809047 0.353576 -2.167115
1.798967 0.448611 -2.178466
1.811639 0.430811 -2.158067
1.802088 0.527387 -2.165982
1.803395 0.482662 -2.168202
1.791662 0.591023 -2.171589
1.799084 0.555125 -2.166453
1.792641 0.639140 -2.159461
1.792940 0.789394 -2.162177
1.803668 0.876089 -2.149753
1.790525 0.930415 -2.175464
1.799043 0.918731 -2.159931
1.790474 0.997699 -2.178606
1.804099 0.966633 -2.154068
1.808640 1.041798 -2.147651
1.788565 1.063057 -2.183313
1.809257 1.144769 -2.149808
1.801435 1.092511 -2.161639
1.800559 1.192765 -2.166379
1.793813 1.257539 -2.180858
1.800414 1.219686 -2.167654
1.818265 1.373176 -2.143328
1.789552 1.424936 -2.194212
1.815755 1.401741 -2.148566
1.807499 1.500005 -2.161388
1.815006 1.460436 -2.150276
1.812853 1.558015 -2.144025
1.798791 1.533871 -2.172919
2.121031 1.254678 -1.459791
2.141372 1.228363 -1.412361
2.119981 1.290539 -1.460595
2.131472 1.282694 -1.434126
2.117041 1.363106 -1.462239
2.121847 1.381573 -1.449904
2.123771 1.347986 -1.448172
2.129473 1.452097 -1.427009
2.139287 1.453584 -1.405151
2.133769 1.479603 -1.415129
2.114279 1.471263 -1.459078
2.129846 1.560639 -1.416451
2.124239 1.532248 -1.431894
2.177099 0.400916 -1.345532
2.170803 0.365639 -1.360832
2.168948 0.462477 -1.363452
2.162483 0.421819 -1.381463
2.172132 0.527987 -1.349877
2.157676 0.524158 -1.387653
2.166238 0.589975 -1.359692
2.163732 0.556344 -1.369315
2.168242 0.655687 -1.348446
2.160862 0.619889 -1.371432
2.157387 0.678632 -1.373855
2.143083 0.772719 -1.396445
2.148518 0.786074 -1.380496
2.154204 0.825856 -1.367367
2.163619 0.765137 -1.343365
2.142302 0.880585 -1.397908
2.150765 0.863265 -1.377382
2.143235 0.963861 -1.404234
2.154295 0.963178 -1.378326
2.163110 0.863914 -1.350176
2.158756 0.853539 -1.358896
2.144996 1.010597 -1.403336
2.148556 1.032780 -1.396166
2.151484 1.064417 -1.389708
2.159022 0.993063 -1.369119
2.170127 1.046080 -1.344846
2.148130 1.127324 -1.397656
2.148046 1.164625 -1.397655
2.160432 1.091184 -1.368666
2.163970 1.166631 -1.359652
2.146656 1.240032 -1.399561
2.149662 1.236077 -1.392577
2.145032 1.299543 -1.401370
2.153536 1.299830 -1.381303
2.169741 1.233886 -1.343319
2.156103 1.261876 -1.376778
2.144860 1.349844 -1.399273
2.141572 1.431127 -1.401544
2.155363 1.450919 -1.367922
2.162606 1.338834 -1.357509
2.164337 1.416516 -1.349508
2.146016 1.512493 -1.383286
2.155358 1.502194 -1.362463
2.152599 1.571819 -1.358558
2.146520 1.547026 -1.376777
2.161389 1.457141 -1.353740
2.159990 1.556866 -1.343030
2.264097 -0.097962 -1.126361
2.275218 -0.117416 -1.101601
2.273361 -0.057450 -1.105939
2.251022 -0.079764 -1.155466
2.267088 0.035866 -1.119078
2.270774 -0.008714 -1.110809
2.266930 0.086403 -1.113702
2.255015 0.061688 -1.147877
2.264708 0.130136 -1.113359
2.269719 0.104615 -1.101893
2.266663 0.191910 -1.101983
2.248436 0.188275 -1.157133
2.268677 0.238937 -1.100687
2.260556 0.247629 -1.123298
2.268147 0.323247 -1.120834
2.282939 0.399678 -1.094884
2.294117 0.359304 -1.070576
2.291782 0.462939 -1.077601
2.282840 0.463321 -1.095729
2.304588 0.507320 -1.052002
2.298698 0.476492 -1.063738
2.298616 0.572114 -1.064253
2.307691 0.552859 -1.046576
2.308477 0.617864 -1.044375
2.305351 0.717387 -1.048181
2.309725 0.667156 -1.041683
2.303081 0.672048 -1.053305
2.300985 0.766516 -1.056337
2.289950 0.736172 -1.074301
2.298563 0.833060 -1.062879
2.307466 0.804475 -1.045934
2.284958 0.891088 -1.089556
2.312991 0.874362 -1.036274
2.292350 0.961085 -1.076034
2.307755 0.930815 -1.046044
2.284857 1.021866 -1.089662
2.310839 1.001295 -1.039787
2.287799 1.079840 -1.080659
2.291460 1.050937 -1.075416
2.283828 1.123928 -1.084642
2.304383 1.102382 -1.045925
2.283005 1.209574 -1.084888
2.295220 1.163180 -1.059649
2.644766 0.437595 -0.540001
2.679231 0.389691 -0.487510
2.662133 0.384953 -0.514581
2.678409 0.420290 -0.487869
2.656609 0.444123 -0.521497
2.647590 0.528501 -0.533837
2.664272 0.528127 -0.506051
2.665571 0.475264 -0.506202
2.660144 0.573343 -0.512175
2.659968 0.542927 -0.512840
2.668231 0.647014 -0.495147
2.654639 0.627856 -0.520221
2.663750 0.694391 -0.501588
2.645327 0.760235 -0.531405
2.639586 0.839337 -0.531618
2.651615 0.773574 -0.519889
2.658878 0.731996 -0.508568
2.654068 0.808304 -0.510249
2.636887 0.862730 -0.530638
2.643170 0.856696 -0.522513
2.646158 0.940047 -0.492077
2.626472 0.932847 -0.530238
2.655530 0.853815 -0.498787
2.636820 0.991997 -0.483148
2.615935 0.970467 -0.536271
2.622988 1.038160 -0.481974
2.610692 1.047184 -0.515751
2.501594 1.324553 -0.500582
2.522377 1.282246 -0.513551
2.597883 1.101756 -0.503480
2.564607 1.188574 -0.497812
2.553024 1.203261 -0.539582
2.550221 1.225435 -0.482551
2.548088 1.221355 -0.519181
1.798272 0.373332 0.814100
1.795747 0.438173 0.819893
1.796200 0.526350 0.817349
1.795480 0.578506 0.850069
1.796580 0.547299 0.825766
1.798185 0.646354 0.846336
1.796524 0.615432 0.853819
1.788133 0.717322 0.849486
1.787538 0.731582 0.832153
1.644508 -0.763647 1.461566
1.619372 -0.698846 1.451826
1.632023 -0.709994 1.436482
1.594515 -0.672702 1.482923
1.590227 -0.666749 1.488147
1.609741 -0.667469 1.443010
1.602385 -0.686843 1.475766
0.863377 1.389713 1.619511
0.866041 1.367472 1.638771
0.825782 1.429010 1.656725
0.832809 1.397842 1.663385
0.806654 1.516630 1.651848
0.824789 1.493594 1.626244
0.810760 1.463941 1.663891
0.813814 1.556760 1.626268
1.157228 0.636209 1.966604
1.095760 0.706440 1.947469
1.110542 0.666303 1.977032
1.133093 0.678026 1.939788
1.193723 0.635083 1.929555
1.232116 0.598272 1.939853
1.053393 0.773160 1.926974
1.050951 0.743752 1.958267
1.089843 0.730260 1.928831
1.368601 0.382570 1.957784
1.373962 0.362548 1.965771
1.333418 0.465624 1.958344
1.365895 0.411904 1.941933
1.296563 0.507993 1.974977
1.316888 0.512370 1.940587
1.347071 0.481333 1.921239
0.895364 0.893135 1.978131
0.877324 0.952929 1.953601
0.878776 0.927067 1.971122
0.902651 0.951455 1.924199
0.949937 0.858412 1.946037
0.968939 0.858254 1.925296
0.941081 0.896001 1.920535
0.950228 0.847296 1.955943
0.837595 0.985913 1.980146
0.883724 0.982522 1.925894
0.836134 1.057535 1.935002
0.829153 1.089778 1.922774
0.638117 1.364747 1.979595
0.675414 1.343664 1.946655
0.662372 1.430355 1.922212
0.623479 1.412087 1.980146
0.694435 1.338716 1.928466
0.642109 1.488093 1.940744
0.623081 1.462764 1.974262
0.615069 1.540422 1.976961
0.639631 1.550550 1.935063
0.629556 1.570136 1.948736
0.579245 1.385293 2.151796
0.587158 1.342516 2.158158
0.578880 1.443574 2.118895
0.579015 1.400522 2.137844
0.577886 1.473981 2.106097
0.565955 1.481264 2.158492
0.559066 1.560843 2.125205
0.567452 1.540779 2.106888
1.401533 -0.773328 2.309673
1.405305 -0.765802 2.293735
1.407134 -0.698384 2.297688
1.406312 -0.662065 2.345712
1.407638 -0.680159 2.301246
1.408527 -0.584571 2.325677
1.409805 -0.605183 2.298119
1.401652 -0.527994 2.331775
1.406523 -0.562157 2.331606
1.398464 -0.507264 2.334146
1.380978 -0.394997 2.296464
1.385624 -0.427548 2.320478
1.368628 -0.368721 2.346913
1.379915 -0.387015 2.291661
1.358496 -0.269598 2.330234
1.362062 -0.285354 2.319521
1.360802 -0.308500 2.336923
1.355622 -0.245388 2.334188
1.355076 -0.162571 2.300851
1.277147 0.272422 2.334180
1.233655 0.320662 2.347198
1.253134 0.301553 2.334821
1.353477 -0.105915 2.344808
1.354090 -0.103416 2.309106
1.355840 -0.070258 2.295977
1.362373 0.039433 2.321910
1.359713 0.016858 2.331661
1.364432 0.071764 2.306660
1.361468 0.053390 2.329638
1.347921 0.154242 2.343370
1.366559 0.110111 2.294778
1.324115 0.210166 2.324049
1.340733 0.173353 2.340753
1.295259 0.251183 2.327987
1.390926 -0.775232 2.382683
1.387159 -0.803024 2.392339
1.398173 -0.720904 2.378390
1.399794 -0.714049 2.366031
1.404062 -0.679606 2.358173
1.404567 -0.637214 2.410305
1.406370 -0.605741 2.376292
1.404873 -0.597135 2.397489
1.401065 -0.535489 2.378141
1.402512 -0.557679 2.399947
1.389134 -0.461932 2.397025
1.396360 -0.506797 2.396859
1.370264 -0.390602 2.398148
1.380136 -0.421161 2.360618
1.361924 -0.343496 2.370607
1.367110 -0.367288 2.363284
1.354372 -0.298407 2.402066
1.352451 -0.228299 2.370894
1.352464 -0.259798 2.395084
1.351523 -0.151965 2.381835
1.351322 -0.190631 2.373289
1.274963 0.261575 2.370404
1.285238 0.245196 2.377212
1.282997 0.236882 2.403432
1.210808 0.337139 2.367475
1.246584 0.294552 2.379036
1.352479 -0.096937 2.379764
1.351591 -0.121946 2.399980
1.352111 -0.077325 2.404717
1.351561 -0.016154 2.395968
1.356957 0.037378 2.368423
1.352595 0.067758 2.397405
1.354281 0.041521 2.390253
1.341663 0.148215 2.370883
1.335948 0.141754 2.398586
1.313230 0.203372 2.376585
1.327630 0.189548 2.354838
1.296439 0.239961 2.355555
1.391398 -0.710547 2.487417
1.384566 -0.743953 2.515957
1.395718 -0.644267 2.486766
1.390578 -0.671682 2.506813
1.389013 -0.583383 2.518619
1.396811 -0.622123 2.483241
1.385747 -0.521709 2.513148
1.383723 -0.542829 2.530585
1.382485 -0.454689 2.491231
1.378912 -0.478279 2.526097
1.371091 -0.406209 2.516733
1.374931 -0.420323 2.506836
1.368148 -0.375752 2.476549
1.368802 -0.388173 2.493696
1.357330 -0.276574 2.518080
1.359366 -0.317519 2.488928
1.354033 -0.225903 2.512466
1.355726 -0.251725 2.530187
1.356627 -0.261957 2.486117
1.351101 -0.167768 2.499943
1.352880 -0.199710 2.479325
1.287607 0.149394 2.509622
1.245366 0.220846 2.520401
1.271262 0.200158 2.487948
1.271035 0.212077 2.474978
1.148714 0.342253 2.500029
1.212402 0.278226 2.497680
1.242358 0.239994 2.498346
1.234501 0.230409 2.532424
1.177944 0.313625 2.500821
1.343072 -0.110927 2.527147
1.346589 -0.084111 2.475030
1.334816 -0.063279 2.533722
1.342101 -0.081227 2.504230
1.324347 0.011899 2.524264
1.340339 0.035052 2.475006
1.305137 0.079845 2.526932
1.332410 0.070823 2.480509
1.300641 0.136558 2.495423
0.960435 -0.800427 2.903415
1.021026 -0.791866 2.852980
1.009589 -0.802410 2.861848
1.037634 -0.731137 2.842875
0.999527 -0.750423 2.873411
0.972386 -0.663005 2.902529
1.015594 -0.639523 2.866863
1.012546 -0.639199 2.869487
1.009830 -0.679203 2.869446
1.006624 -0.584957 2.878196
1.031724 -0.611553 2.854609
1.033550 -0.538743 2.857183
1.043121 -0.514002 2.849696
0.988049 -0.521926 2.898386
1.027314 -0.453247 2.866320
1.027999 -0.472026 2.865021
1.010935 -0.503467 2.878959
1.044240 -0.391904 2.853217
1.037455 -0.432584 2.857890
1.048870 -0.539056 2.843510
1.049472 -0.492142 2.844833
1.031734 -0.329131 2.867230
1.020577 -0.389205 2.875106
1.014850 -0.277240 2.885181
1.021429 -0.310232 2.877623
0.995779 -0.325961 2.901177
1.040356 -0.205393 2.864361
1.007169 -0.254312 2.893502
1.005546 -0.148348 2.900710
1.002666 -0.203815 2.900174
1.049424 -0.316189 2.851223
1.048772 -0.246236 2.854518
1.037138 -0.086370 2.873110
1.042580 -0.140853 2.865508
1.015483 -0.064222 2.895228
1.026537 -0.062123 2.884243
1.020200 0.006837 2.893021
1.025237 -0.015317 2.887346
1.038657 0.097755 2.875647
1.030130 0.055115 2.883857
1.061581 -0.068335 2.850773
0.804892 -0.577154 3.085384
0.822731 -0.579055 3.065177
0.837488 -0.583661 3.048046
0.817174 -0.622707 3.064169
0.833627 -0.539100 3.059494
0.856055 -0.570803 3.029223
0.828296 -0.481684 3.075377
0.830977 -0.494847 3.070008
0.842756 -0.405999 3.069974
0.853478 -0.427463 3.054148
0.870616 -0.394809 3.037695
0.862308 -0.384415 3.049645
0.840012 -0.383357 3.076645
0.858260 -0.291700 3.066860
0.879858 -0.283475 3.040217
0.874762 -0.302259 3.045029
0.851876 -0.247397 3.079619
0.885051 -0.222884 3.038716
0.857818 -0.185865 3.078790
0.893097 -0.192402 3.030516
0.876691 -0.192639 3.053057
0.896058 -0.103184 3.036922
0.872652 -0.101473 3.068034
0.890584 -0.050338 3.048745
0.885484 -0.026104 3.057277
0.875511 -0.049332 3.068747
0.891045 0.004865 3.052386
0.878510 0.100170 3.075499
0.907442 0.046054 3.033948
0.916824 0.148242 3.027437
0.908403 0.155225 3.038485
0.874870 0.143214 3.081315
0.911692 0.199167 3.034958
0.872497 0.165446 3.084914
0.913195 0.247856 3.033278
0.885521 0.267576 3.069109
0.889666 0.332929 3.061754
0.906795 0.290850 3.041120
0.730016 -0.348345 3.192683
0.710822 -0.364431 3.206631
0.769616 -0.355477 3.156377
0.740886 -0.376227 3.180416
0.716704 -0.299365 3.208688
0.773230 -0.313051 3.157954
0.726092 -0.205355 3.208898
0.770976 -0.242114 3.166858
0.756856 -0.252611 3.178792
0.772521 -0.174773 3.170181
0.753127 -0.195234 3.186300
0.741480 -0.140235 3.200153
0.793027 -0.097106 3.157296
0.738399 -0.054475 3.207678
0.789350 -0.047087 3.163886
0.759278 -0.054323 3.189816
0.739776 0.040832 3.210394
0.738312 0.013003 3.210549
0.786102 0.022639 3.170442
0.758528 0.016902 3.193704
0.799257 0.069092 3.160907
0.750269 0.044150 3.201674
0.747186 0.120428 3.207185
0.744699 0.135376 3.209799
0.784381 0.145913 3.175988
0.793149 0.221320 3.170802
0.770443 0.185441 3.189219
0.749164 0.247675 3.209210
0.777475 0.245110 3.184628
0.794900 0.340226 3.169506
0.749651 0.336092 3.209422
0.808114 0.015865 3.150226
0.807125 0.072448 3.153442
0.813187 0.281710 3.152556
0.804110 0.230210 3.161247
0.224335 1.115532 3.501927
0.255855 1.137284 3.476119
0.289836 1.126690 3.469740
0.412230 0.875670 3.493520
0.404966 0.856245 3.504411
0.398358 0.943001 3.500117
0.400758 0.910819 3.502790
0.407264 0.982037 3.479651
0.354988 1.081272 3.471521
0.354061 1.076836 3.476261
0.380220 1.058872 3.466028
0.333589 1.108956 3.459617
0.282538 0.890964 3.627674
0.308301 0.872489 3.611529
0.234091 0.962571 3.611019
0.267976 0.935215 3.612721
0.305851 0.920164 3.599406
0.240460 0.968736 3.605633
0.246576 0.969085 3.604833
0.259616 0.990329 3.585799
0.323263 0.860064 3.598703
0.320458 0.890955 3.596077
1.198567 1.380010 -2.915592
1.208896 1.371858 -2.905841
1.220108 1.379567 -2.896348
1.208578 1.443073 -2.909478
1.235091 1.424736 -2.884812
1.195165 1.478625 -2.922453
1.190482 1.457438 -2.926167
1.227478 1.468701 -2.893282
1.208766 1.515621 -2.910977
1.191445 1.559581 -2.926517
1.189288 1.566261 -2.928508
1.232106 1.545784 -2.889797
1.230746 1.535888 -2.891107
1.483274 0.408011 -2.613451
1.488898 0.363971 -2.607636
1.504627 0.457120 -2.587167
1.495382 0.441795 -2.598478
1.463720 0.516055 -2.632724
1.467778 0.490643 -2.628727
1.483077 0.533108 -2.610056
1.479480 0.512830 -2.615044
1.468389 0.571693 -2.625840
1.511662 0.539083 -2.575605
1.493023 0.549764 -2.597590
2.206475 -0.776814 -1.159513
2.198673 -0.782011 -1.177706
2.194371 -0.803481 -1.181684
2.195904 -0.703647 -1.207460
2.192325 -0.701051 -1.217230
2.212320 -0.675860 -1.173406
2.219118 -0.640173 -1.165290
2.201851 -0.604112 -1.217592
2.215620 -0.625863 -1.177325
2.210925 -0.551897 -1.206229
2.216559 -0.513829 -1.200463
2.216032 -0.500869 -1.203606
2.214422 -0.452923 -1.214288
2.230235 -0.492199 -1.168733
2.235797 -0.398029 -1.166225
2.225306 -0.433020 -1.189353
2.229388 -0.352045 -1.185651
2.221142 -0.389229 -1.204754
2.242686 -0.295323 -1.158475
2.230290 -0.318650 -1.185685
2.242198 -0.258904 -1.162673
2.237191 -0.259707 -1.173659
2.229864 -0.157515 -1.200901
2.230731 -0.202319 -1.193636
2.258186 0.349552 -1.146565
2.270550 0.388211 -1.120659
2.264178 0.449842 -1.134713
2.262890 0.415068 -1.138146
2.259413 0.491103 -1.143301
2.266546 0.492317 -1.128486
2.248977 0.580960 -1.157534
2.265964 0.542567 -1.127127
2.254312 0.605894 -1.145760
2.262504 0.598945 -1.130688
2.256429 0.680487 -1.135112
2.269817 0.682153 -1.111102
2.268862 0.763740 -1.112948
2.262472 0.739334 -1.122673
2.248070 0.783772 -1.152289
2.281346 0.553256 -1.097156
2.252426 0.862363 -1.151212
2.264999 0.874940 -1.128231
2.260636 0.941606 -1.139573
2.277490 0.950980 -1.104969
2.257095 1.009327 -1.146688
2.255703 0.966310 -1.150181
2.260831 1.080695 -1.135983
2.277293 1.035298 -1.103892
2.262495 1.137729 -1.129766
2.254663 1.107636 -1.147989
2.252008 1.192876 -1.151216
2.269287 1.153794 -1.113847
2.266413 1.269468 -1.120474
2.259331 1.211328 -1.135028
2.252388 1.285248 -1.149221
2.265266 1.288732 -1.122649
2.372526 1.448894 -0.435696
2.461306 1.387138 -0.465634
2.484262 1.346596 -0.462451
2.467919 1.356656 -0.421985
2.418883 1.402181 -0.423912
2.419385 1.446804 -0.463452
2.443359 1.403699 -0.459215
2.321712 1.502711 -0.444989
2.373286 1.484214 -0.465177
2.367359 1.458156 -0.440651
2.295471 1.541657 -0.449416
2.317523 1.543714 -0.470539
2.404101 1.476399 -0.474380
2.890576 -0.721718 0.107187
2.876602 -0.647894 0.109092
2.875643 -0.680282 0.119075
2.902562 -0.683228 0.073173
1.826121 1.335617 0.138553
2.027664 0.382585 0.484944
1.988851 0.466200 0.486902
1.958026 0.511423 0.496338
1.984318 0.487598 0.478137
1.929239 0.583971 0.471081
1.956352 0.559766 0.454305
2.048596 0.351966 0.478662
2.060023 0.369387 0.456248
2.047398 0.402795 0.452540
1.903163 0.645913 0.444324
1.899772 0.617867 0.490596
1.902321 0.603711 0.501524
1.853672 0.709287 0.498451
1.879843 0.687351 0.454088
1.915661 0.602682 0.473845
1.847379 0.766946 0.467012
1.860788 0.741262 0.452451
1.848675 0.745876 0.480275
1.841119 0.804743 0.456519
1.811459 0.901740 0.453939
1.809590 0.870812 0.479963
1.788227 0.927355 0.483289
1.795946 0.947811 0.451092
2.209969 -0.602637 0.553515
2.217325 -0.627806 0.556054
2.264180 -0.616373 0.530548
2.235117 -0.600393 0.540870
2.174734 -0.530060 0.550523
2.195571 -0.545222 0.545114
2.196210 -0.573669 0.552269
2.225438 -0.567002 0.537166
2.273778 -0.515732 0.509007
2.105109 -0.455843 0.563715
2.140353 -0.489030 0.555490
2.103080 -0.404171 0.558335
2.135241 -0.419277 0.547908
2.215906 -0.500605 0.526325
2.188248 -0.458787 0.531076
2.233629 -0.453370 0.514671
2.245394 -0.476056 0.513469
2.276832 -0.497322 0.505684
2.200133 -0.427492 0.525068
2.158766 -0.408812 0.538122
2.260294 -0.393543 0.503785
2.239344 -0.414980 0.511230
2.084770 -0.352325 0.555745
2.090854 -0.389088 0.560692
2.122462 -0.382809 0.549058
2.126541 -0.357251 0.545066
2.091004 -0.278591 0.546198
2.052966 -0.296076 0.559966
2.151726 -0.281378 0.529095
2.135771 -0.308121 0.536040
2.213139 -0.362886 0.518949
2.183427 -0.355786 0.527839
2.216790 -0.285472 0.511742
2.202582 -0.327516 0.520191
2.076797 -0.238358 0.555936
2.103859 -0.205221 0.552654
2.101353 -0.213147 0.552685
2.151730 -0.197122 0.535676
2.132326 -0.197535 0.543357
2.178678 -0.211397 0.522661
2.169875 -0.253825 0.523974
2.180375 -0.204332 0.521215
2.157394 -0.156978 0.537739
2.316597 -0.614650 0.507591
2.300322 -0.564768 0.505661
2.149246 -0.092270 0.539086
2.115481 -0.118497 0.558122
2.091049 -0.044257 0.564850
2.103144 -0.029451 0.554974
2.148439 -0.046042 0.527916
2.192832 -0.084616 0.504516
2.166579 -0.104039 0.527852
2.158966 -0.074124 0.529333
2.084803 0.018705 0.563856
2.135640 0.016252 0.521282
2.132034 0.000413 0.525873
2.080938 0.046685 0.564842
2.106125 0.057617 0.540004
2.131670 0.074508 0.510835
2.097633 0.057716 0.549824
1.750960 0.409787 0.942504
1.751477 0.401265 0.937333
1.740496 0.443353 0.980630
1.759702 0.457086 0.941360
1.732307 0.511378 1.033083
1.732766 0.583897 1.044511
1.752686 0.569141 0.999508
1.745437 0.643135 1.013412
1.734246 0.611218 1.039880
1.743605 0.678494 1.005415
1.737825 0.713851 1.001722
1.642619 0.834695 1.033236
1.656995 0.833839 1.001867
1.686662 0.774372 1.040643
1.704035 0.729686 1.050943
1.726328 0.726383 1.015319
1.673332 0.790971 1.044476
1.291397 1.269882 1.031638
1.217797 1.330293 1.046192
1.237116 1.321206 1.029663
1.250682 1.323561 1.013867
1.254264 1.288681 1.049605
1.530194 0.985293 1.043988
1.529335 1.002964 1.000472
1.481397 1.057881 1.029486
1.613944 0.877151 1.017410
1.626894 0.855227 1.033280
1.549918 0.957897 1.040109
1.586701 0.917399 1.005818
1.583696 0.909614 1.035877
1.583189 0.919447 1.014019
1.403783 1.142961 1.044620
1.358803 1.200127 1.037874
1.366690 1.210155 1.018101
1.389506 1.190335 1.012277
1.459956 1.089692 1.015328
1.421599 1.151522 1.004388
1.316919 1.235348 1.042533
1.342870 1.241446 1.012110
1.314417 1.228041 1.052782
1.667274 -0.630368 1.069760
1.601689 -0.498683 1.103035
1.598702 -0.492005 1.113140
1.608598 -0.507776 1.083416
1.598057 -0.406867 1.082856
