-0.965364 1.856959 1.100940
-0.938985 1.856600 1.078192
-0.911790 1.857568 1.109089
-0.812644 1.857283 1.062773
-0.787214 1.858794 1.088392
-0.751810 1.860058 1.098774
-0.718647 1.860407 1.068439
-0.705098 1.861098 1.097667
-0.674568 1.861455 1.077756
-0.658455 1.861646 1.113356
-0.572867 1.862405 1.063941
-0.600121 1.861982 1.105927
-0.513025 1.863014 1.075328
-0.494702 1.863263 1.072559
-0.485072 1.863082 1.097064
-0.458525 1.863790 1.063720
-0.421165 1.863827 1.102751
-0.367449 1.864561 1.087295
-0.342886 1.864776 1.115862
-0.308830 1.865067 1.101937
-0.282217 1.865311 1.114958
-0.252441 1.865443 1.097169
-0.227100 1.865482 1.092883
-0.229643 1.865276 1.064647
0.093853 1.859238 1.142147
0.102314 1.859312 1.163918
0.137387 1.858403 1.156236
0.147794 1.858379 1.165668
0.224390 1.857868 1.178925
0.267010 1.856611 1.152665
0.290686 1.856428 1.152014
0.328575 1.855622 1.143144
0.372766 1.854797 1.138492
0.404535 1.856386 1.177821
0.473316 1.853345 1.134611
0.554033 1.851251 1.119834
0.592487 1.851201 1.178136
0.594319 1.849988 1.134879
0.639179 1.845372 1.176566
0.668640 1.843294 1.130585
0.694519 1.832852 1.177273
0.718710 1.829532 1.147149
1.046185 1.615120 1.167348
1.014173 1.691997 1.133879
1.047382 1.655654 1.124130
0.870463 1.764050 1.159758
0.916748 1.757799 1.124810
0.835811 1.785292 1.144867
0.862224 1.776621 1.132131
0.888533 1.767450 1.129912
0.940631 1.745504 1.128238
0.969440 1.705877 1.169188
0.995358 1.718781 1.122365
1.075184 1.600919 1.126855
-1.454020 1.715099 1.443772
-1.443490 1.758045 1.430722
-1.429093 1.778808 1.486771
-1.392303 1.824953 1.447982
-1.358949 1.840674 1.453758
-1.348176 1.844218 1.465846
-1.318795 1.849482 1.439269
-1.260257 1.854586 1.481718
-1.229966 1.855950 1.441973
-1.226351 1.856006 1.451112
-1.181894 1.856287 1.459327
-1.141109 1.856582 1.461045
-1.153758 1.856380 1.434203
-1.103677 1.856925 1.480121
-1.090952 1.856990 1.482555
-1.014794 1.857375 1.447622
-1.024510 1.857350 1.486704
-0.973489 1.857857 1.465132
-0.930264 1.858367 1.476641
-0.886992 1.859050 1.428832
-0.879283 1.858913 1.464125
-0.844233 1.859136 1.483350
-0.803465 1.859645 1.434651
-0.796393 1.859728 1.471316
-0.765249 1.860086 1.438170
-0.730585 1.860360 1.434763
-0.702114 1.860835 1.442775
-0.668955 1.861203 1.445623
-0.657582 1.861035 1.429123
-0.579063 1.860989 1.473038
-0.552600 1.861099 1.433349
-0.550189 1.860915 1.465742
-0.521080 1.860932 1.473354
-0.471740 1.861122 1.462953
-0.431844 1.861059 1.460373
-0.423302 1.861148 1.457251
-0.389361 1.861280 1.453719
-0.340966 1.860784 1.482014
-0.306859 1.861126 1.473107
-0.276092 1.861258 1.486769
-0.300275 1.861672 1.429853
-0.226787 1.861446 1.458607
-0.223273 1.861488 1.437036
-1.434283 1.612978 2.000566
-1.431648 1.700756 1.982648
-1.422884 1.672779 2.040216
-1.426039 1.726084 2.008682
-1.422524 1.745882 2.033315
-1.417967 1.779877 2.014345
-1.407614 1.801233 2.012628
-1.396161 1.817124 1.987902
-1.384646 1.826901 2.006735
-1.339259 1.846133 2.022007
-1.322814 1.849333 1.984547
-1.285245 1.853335 2.038751
-1.240199 1.854713 2.029062
-1.222229 1.855014 2.031353
-1.183533 1.855623 2.014520
-1.423579 1.633693 2.043731
-1.414007 1.733463 2.067135
-1.411281 1.694700 2.075163
-1.405242 1.718536 2.091106
-1.409991 1.724388 2.078310
-1.382816 1.797777 2.095789
-1.377039 1.821270 2.070346
-1.360557 1.838960 2.042711
-1.335417 1.843378 2.073272
-1.295405 1.852299 2.044797
-1.264494 1.852624 2.091692
-1.237761 1.854377 2.054885
-1.214528 1.854728 2.054077
-1.180352 1.854739 2.066492
-1.135591 1.854515 2.098479
-1.094981 1.855112 2.085274
-1.068245 1.855158 2.081681
-0.999157 1.854785 2.051101
-1.004324 1.853838 2.102576
-0.976736 1.854211 2.052042
-0.967420 1.854117 2.043520
-0.910573 1.852054 2.061807
-0.888603 1.851486 2.064527
-0.817938 1.849770 2.090978
-0.798399 1.850384 2.063681
-0.784234 1.849720 2.079415
-0.765029 1.850498 2.052924
-0.707603 1.848158 2.095496
-0.680987 1.847721 2.096081
-0.653515 1.850293 2.050498
-0.644323 1.847612 2.093627
-0.597347 1.847613 2.083746
-0.591356 1.847037 2.096919
-0.550551 1.847647 2.078972
-0.490847 1.848184 2.051835
-0.451271 1.847333 2.094579
-0.441869 1.848558 2.049810
-0.370397 1.849683 2.049391
-0.352406 1.849547 2.086425
-0.319131 1.850227 2.078378
-0.282308 1.851080 2.078773
-0.248745 1.851876 2.081477
-0.224136 1.852682 2.080139
-0.195141 1.853720 2.057205
0.304041 1.808344 2.409252
0.427716 1.653500 2.391229
0.455933 1.625492 2.364223
0.364656 1.758224 2.388204
0.387098 1.731639 2.378483
0.397861 1.738213 2.351940
0.384269 1.721665 2.395772
0.315764 1.803599 2.399400
0.324689 1.796500 2.398352
0.316307 1.797759 2.410264
-0.132197 1.851851 2.352027
-0.126028 1.852040 2.386991
-0.093836 1.852744 2.377429
-0.073236 1.853083 2.380730
-0.031705 1.853010 2.396825
-0.005666 1.852949 2.391292
0.045157 1.852098 2.402550
0.060121 1.852165 2.385388
0.103910 1.850948 2.395159
0.107371 1.851512 2.370362
0.159240 1.848915 2.394575
0.168240 1.848511 2.393147
0.234080 1.839917 2.401963
0.235023 1.844858 2.350433
0.259226 1.836818 2.384212
-0.993031 1.615087 2.739379
-1.013956 1.608714 2.727168
-0.958927 1.621268 2.758261
-0.956204 1.640790 2.763828
-0.997067 1.642226 2.742538
-1.024217 1.669011 2.727911
-0.947849 1.676315 2.769333
-0.967411 1.699225 2.758018
-1.001779 1.742633 2.725853
-0.936229 1.709424 2.774506
-0.951519 1.764091 2.746912
-0.935501 1.794312 2.727864
-0.901883 1.778632 2.762835
-0.849067 1.806197 2.768286
-0.758902 1.636265 2.863472
-0.716815 1.631450 2.885473
-0.772273 1.653115 2.857003
-0.771512 1.700112 2.855996
-0.680698 1.673223 2.902198
-0.725769 1.702212 2.876316
-0.746804 1.736564 2.860609
-0.783835 1.722010 2.848202
-0.700214 1.721145 2.887206
-0.704892 1.745076 2.880981
-0.734520 1.723638 2.868474
-0.703801 1.775815 2.868027
-0.681242 1.770979 2.884491
-0.655409 1.801588 2.863185
-0.657588 1.819287 2.845820
-0.639432 1.803744 2.871683
-0.627749 1.813728 2.867876
-0.606761 1.821984 2.865405
-0.578628 1.828812 2.863975
-0.573727 1.834620 2.844731
-0.526324 1.828731 2.894176
-0.471660 1.837200 2.902608
-0.429827 1.845243 2.843182
-0.418715 1.844995 2.854368
-0.321558 1.844596 2.897483
-0.308089 1.844583 2.900123
0.151750 1.427896 2.973740
0.148286 1.421708 3.007003
0.124752 1.492578 2.984393
0.126717 1.480736 2.992998
0.111448 1.524265 3.009351
-0.012915 1.694461 3.026844
0.021618 1.701260 2.984041
0.058711 1.656494 2.988056
0.037230 1.647144 3.026758
-0.070715 1.761504 2.999180
-0.170926 1.815518 3.002244
-0.128909 1.809980 2.974274
-0.089828 1.777182 2.992936
-0.061282 1.766595 2.983653
-0.045391 1.734256 3.009172
-0.025051 1.732056 2.993380
0.068010 1.650322 2.980216
0.845508 1.871335 -2.519402
0.900271 1.872390 -2.520757
0.911966 1.872654 -2.525252
0.934884 1.872370 -2.558947
0.952725 1.872644 -2.560680
0.998755 1.873584 -2.559990
1.030183 1.873692 -2.571642
1.085365 1.874901 -2.549567
1.070582 1.876062 -2.515031
1.117478 1.875794 -2.520187
1.162506 1.874964 -2.516709
1.175819 1.874198 -2.527847
1.228354 1.872374 -2.521722
1.262565 1.869184 -2.560370
1.300053 1.866833 -2.566084
1.321257 1.867025 -2.528065
1.366563 1.861236 -2.543053
1.382864 1.863603 -2.514486
1.436805 1.839123 -2.557122
1.452208 1.841366 -2.531239
-0.149893 1.862114 -2.364779
-0.123751 1.862209 -2.328478
-0.117508 1.862203 -2.361375
-0.089598 1.862641 -2.340555
-0.026363 1.863944 -2.380063
0.001455 1.864381 -2.366005
0.028154 1.864154 -2.330458
0.048622 1.864658 -2.362014
0.092505 1.865115 -2.385862
0.084863 1.864501 -2.336758
0.179556 1.864934 -2.342615
0.204528 1.866206 -2.388008
0.234257 1.865551 -2.345865
0.287767 1.866883 -2.376282
0.331003 1.866834 -2.359321
0.364598 1.867175 -2.371885
0.410984 1.866555 -2.334769
0.424528 1.866999 -2.357829
0.492100 1.867491 -2.384158
0.531114 1.867430 -2.367434
0.552982 1.867236 -2.355921
0.608371 1.867188 -2.329282
0.596802 1.868381 -2.388579
0.664564 1.868599 -2.359949
0.706551 1.869010 -2.352391
0.735399 1.869515 -2.380647
0.760951 1.870034 -2.367069
0.765002 1.870151 -2.371728
1.660918 1.652487 -2.386501
1.673230 1.633747 -2.369235
1.666669 1.636189 -2.379066
1.690526 1.670488 -2.339167
1.666882 1.682718 -2.374826
1.662058 1.715604 -2.378263
1.658501 1.779616 -2.363523
1.688553 1.741429 -2.331197
1.684446 1.720551 -2.341922
1.670084 1.789891 -2.338489
0.805178 1.871110 -2.354728
0.863129 1.873548 -2.382801
0.874087 1.873779 -2.348522
0.877475 1.873839 -2.338924
0.951700 1.875909 -2.347450
1.008882 1.875878 -2.364309
1.079925 1.874883 -2.335569
1.050886 1.876039 -2.386696
1.134187 1.874568 -2.360106
1.147226 1.874136 -2.328498
1.191147 1.874234 -2.375253
1.221652 1.873911 -2.360325
1.261356 1.873528 -2.387685
1.292493 1.873108 -2.355063
1.324244 1.872468 -2.377645
1.345719 1.872187 -2.363937
1.367889 1.871762 -2.359113
1.406464 1.871372 -2.328934
1.418174 1.870596 -2.356699
1.461075 1.869965 -2.332925
1.492739 1.866869 -2.366907
1.520106 1.864479 -2.363683
1.551471 1.861148 -2.348930
1.581840 1.859282 -2.333146
1.636830 1.834373 -2.342299
1.628093 1.829803 -2.368868
-0.177370 1.862126 -1.782809
-0.156277 1.862092 -1.781330
-0.104480 1.862444 -1.833803
-0.061768 1.862171 -1.814742
-0.036890 1.862108 -1.825764
-0.036169 1.861891 -1.792800
0.028846 1.861652 -1.811624
0.035490 1.861585 -1.806765
0.089151 1.861341 -1.794225
0.104265 1.861344 -1.821967
0.154089 1.861654 -1.806317
0.161667 1.861700 -1.803911
0.194023 1.862002 -1.811519
0.240041 1.862266 -1.790924
0.252312 1.862456 -1.801652
0.283143 1.862910 -1.817287
0.336635 1.863118 -1.801025
0.357663 1.863137 -1.806567
0.378411 1.863081 -1.812612
0.410705 1.862983 -1.787906
0.466472 1.862679 -1.789433
0.464334 1.862712 -1.832637
0.521401 1.863103 -1.819272
0.512511 1.862831 -1.787775
0.561414 1.863342 -1.796317
0.608306 1.864381 -1.795522
0.624171 1.864630 -1.793561
0.671946 1.865208 -1.802132
0.687918 1.865338 -1.798373
0.726129 1.865700 -1.811007
0.741594 1.865743 -1.819990
0.755577 1.865955 -1.781840
0.803259 1.866336 -1.822413
0.861099 1.867007 -1.778381
0.874207 1.867426 -1.802631
0.898475 1.867326 -1.782540
0.934958 1.867838 -1.796891
0.984048 1.867995 -1.790061
0.998809 1.868266 -1.804449
1.014849 1.868598 -1.830037
1.090773 1.868951 -1.823436
1.089264 1.868237 -1.777706
1.125171 1.868426 -1.780581
1.145432 1.868877 -1.799875
1.185315 1.869468 -1.816498
1.189972 1.869617 -1.825883
1.251677 1.869895 -1.815503
1.290142 1.870144 -1.819318
1.296605 1.870063 -1.802063
1.320557 1.869986 -1.774473
1.359589 1.870507 -1.809316
1.386586 1.870242 -1.798426
1.458118 1.869577 -1.816634
1.474324 1.869422 -1.800775
1.481350 1.869407 -1.782814
1.522011 1.869383 -1.817301
1.553450 1.869375 -1.815428
1.579988 1.869374 -1.797862
1.614037 1.869150 -1.803503
1.656958 1.868441 -1.825571
1.682905 1.868261 -1.803313
1.766331 1.865995 -1.820258
1.755617 1.866694 -1.803485
0.818628 1.813856 0.114195
0.836645 1.815614 0.091032
0.884381 1.805402 0.104747
0.881444 1.809734 0.087387
0.937013 1.799939 0.095791
0.982654 1.798156 0.080762
1.012489 1.792410 0.087768
1.036221 1.777773 0.130721
1.084679 1.786154 0.077317
1.088336 1.772785 0.129979
1.132704 1.767944 0.132877
1.137468 1.778531 0.081842
1.182957 1.763447 0.129822
1.234603 1.759863 0.126550
1.281963 1.753076 0.106912
1.180267 1.768512 0.103052
1.406027 1.699284 0.128434
1.529177 1.639735 0.103893
1.423352 1.696014 0.106263
1.429111 1.684151 0.128702
1.495357 1.656341 0.102423
1.296471 1.750896 0.075859
1.353934 1.729807 0.096091
1.375089 1.717787 0.106900
1.392206 1.712919 0.093334
1.554489 1.641244 0.087010
1.574132 1.602248 0.119389
1.600422 1.618986 0.087897
1.616089 1.600440 0.098125
1.612807 1.621302 0.078428
1.641457 1.606798 0.078110
0.806222 1.806342 0.183959
0.839104 1.801391 0.166990
0.900372 1.785720 0.189306
0.910726 1.787170 0.169907
0.965585 1.772768 0.191289
0.952528 1.784052 0.150836
0.992969 1.772111 0.174752
1.003361 1.779344 0.140210
1.049816 1.761402 0.187840
1.128182 1.761722 0.160176
1.139311 1.766619 0.135622
1.186446 1.753326 0.175286
1.222021 1.754668 0.160155
1.250219 1.752444 0.153915
1.281492 1.750024 0.140909
1.373027 1.689431 0.194596
1.456151 1.640196 0.162415
1.486471 1.605653 0.171417
1.505195 1.616927 0.146439
1.532732 1.600739 0.145896
1.452167 1.654700 0.146564
1.443704 1.668864 0.135528
1.316930 1.730241 0.169208
1.331707 1.726645 0.158420
1.378581 1.705897 0.156179
1.556942 1.589159 0.143595
0.397130 1.822478 0.527698
0.449227 1.801206 0.547428
0.485057 1.797977 0.515360
0.535755 1.786711 0.504162
0.540546 1.781598 0.518869
0.555890 1.775721 0.531311
0.583236 1.771753 0.533542
0.644904 1.766391 0.537101
0.675669 1.769184 0.515232
0.702353 1.764193 0.558221
0.712509 1.766829 0.542026
0.753326 1.766523 0.562663
0.788160 1.773534 0.511282
-0.131030 1.862983 0.557886
-0.105845 1.863284 0.523378
-0.106853 1.863113 0.553231
-0.058977 1.863386 0.522204
-0.019148 1.862524 0.538876
0.033250 1.861540 0.529050
0.036982 1.861190 0.541197
0.102798 1.858832 0.549484
0.112106 1.859447 0.506728
0.132022 1.858046 0.534501
0.167672 1.856445 0.527867
0.225055 1.852070 0.562560
0.242729 1.851974 0.532572
0.251917 1.851571 0.521265
0.298635 1.844185 0.543799
0.325286 1.840014 0.530046
0.360572 1.833697 0.518422
0.914216 1.760772 0.545136
0.824882 1.772028 0.517695
0.858561 1.768786 0.541420
0.888065 1.766816 0.515884
0.887296 1.764813 0.551396
0.943785 1.753295 0.557913
0.957078 1.753199 0.505281
1.021507 1.732101 0.551208
1.027337 1.732017 0.527602
1.140672 1.687871 0.515097
1.115297 1.702795 0.503966
1.130541 1.686220 0.547746
1.151793 1.672436 0.544562
1.213836 1.608062 0.560500
1.236699 1.585989 0.555268
1.174189 1.653086 0.553822
1.096668 1.704789 0.541528
1.106799 1.704689 0.515995
-1.390722 1.821919 0.790480
-1.381378 1.832777 0.762645
-1.332443 1.846061 0.791897
-1.302278 1.852608 0.772451
-1.287852 1.852903 0.797912
-1.240447 1.855972 0.766010
-1.221314 1.855760 0.799041
-1.172030 1.856375 0.803405
-1.128943 1.856929 0.810553
-1.106551 1.857233 0.787496
-1.078963 1.857352 0.776821
-1.064049 1.857432 0.785303
-1.000013 1.857914 0.762770
-0.990249 1.857925 0.799222
-0.964897 1.858241 0.777581
-0.940616 1.858530 0.780710
-0.898974 1.859310 0.786787
-0.899493 1.859215 0.797216
-0.834490 1.861181 0.780194
-0.799511 1.862756 0.757135
-0.766081 1.863108 0.750123
-0.700705 1.862755 0.806733
-0.681717 1.862925 0.797874
-0.674235 1.862832 0.808954
-0.619769 1.862778 0.787490
-0.577829 1.862612 0.757353
-0.568187 1.862946 0.810643
-0.547798 1.862695 0.765892
-0.534257 1.862810 0.755693
-0.470473 1.863921 0.764904
-0.454303 1.864383 0.793389
-0.382176 1.864747 0.757812
-0.377344 1.864797 0.768583
-0.359937 1.864784 0.758617
-0.342246 1.864844 0.788405
-0.279814 1.864542 0.768786
-0.274402 1.864581 0.786383
-0.237574 1.864374 0.797477
-0.184931 1.863657 0.756546
-1.577989 1.616787 0.815649
-1.566387 1.604140 0.849726
-1.550129 1.645249 0.820778
-1.534810 1.661079 0.819588
-1.502701 1.687128 0.829437
-1.483475 1.707640 0.824680
-1.434492 1.763850 0.822675
-1.469963 1.721940 0.823042
-1.432333 1.769774 0.814187
-1.404297 1.783248 0.862467
-1.403646 1.799617 0.820471
-1.326136 1.840685 0.857248
-1.309625 1.846717 0.843346
-1.275370 1.852580 0.827685
-1.251818 1.854162 0.812980
-1.180460 1.855509 0.864101
-1.194087 1.855548 0.845835
-0.055923 1.864343 1.017516
-0.004006 1.863097 1.002140
0.004541 1.862568 1.046167
0.119897 1.858014 1.056591
0.172259 1.855137 1.007457
0.147325 1.856711 1.055321
0.214935 1.852844 0.996031
0.245080 1.852838 1.036546
0.290637 1.848658 1.005686
0.293532 1.850032 1.028798
0.339778 1.844291 0.998644
0.392629 1.843963 1.034574
0.428949 1.842090 1.032848
0.443230 1.836814 1.003256
0.475475 1.840835 1.031997
0.495078 1.841047 1.034222
0.497300 1.844904 1.055384
0.560018 1.840078 1.027134
0.576689 1.843371 1.044647
0.626264 1.839358 1.008696
0.659786 1.846733 1.046659
0.711288 1.844560 1.048621
0.730904 1.838766 1.002450
0.749127 1.835544 1.010810
0.775507 1.828339 1.038450
1.041692 1.684379 1.021443
0.811843 1.812078 1.045545
0.849020 1.793990 1.014360
0.881154 1.780883 1.032788
0.877929 1.780782 1.003969
0.966881 1.742075 1.050111
0.961773 1.742077 1.017907
1.013125 1.710387 1.049932
1.087850 1.615347 1.027919
1.099488 1.588979 1.028359
1.069411 1.650971 1.006886
1.054067 1.667646 1.049141
-1.469398 1.712375 1.289771
-1.469509 1.719916 1.268185
-1.438541 1.784486 1.268877
-1.421961 1.806621 1.294736
-1.408240 1.819987 1.252856
-1.385296 1.831590 1.273205
-1.342099 1.845492 1.263955
-1.305555 1.850122 1.273904
-1.288816 1.851427 1.257231
-1.231737 1.853741 1.272995
-1.135377 1.855366 1.247603
-1.141000 1.855522 1.290241
-1.099288 1.856393 1.254451
-1.060370 1.857601 1.265909
-1.036041 1.858173 1.255911
-0.960701 1.859368 1.253140
-0.929172 1.859831 1.297262
-0.900126 1.859708 1.252183
-0.879899 1.859851 1.290262
-0.846851 1.859691 1.282164
-0.805812 1.859149 1.257998
-0.796301 1.859214 1.278191
-0.750570 1.859088 1.261064
-0.711508 1.859397 1.276675
-0.696140 1.859539 1.277433
-0.631104 1.860533 1.294274
-0.623159 1.860502 1.254684
-0.563578 1.861112 1.245130
-0.553479 1.861272 1.290595
-0.514619 1.861868 1.287374
-0.521526 1.861682 1.253693
-0.477935 1.862408 1.279560
-0.431976 1.863158 1.282853
-0.420836 1.863317 1.273623
-0.371230 1.863774 1.278119
-0.349736 1.864345 1.244415
-0.309944 1.864071 1.281624
-0.290907 1.864841 1.252396
-0.283758 1.863859 1.294400
-0.214095 1.864983 1.263934
-1.467076 1.647946 1.439091
-1.458560 1.696071 1.443706
-1.117652 1.858200 1.914701
-1.107029 1.858183 1.866855
-1.072737 1.858522 1.911888
-1.008161 1.858253 1.895368
-1.002645 1.858790 1.862247
-0.945254 1.858155 1.886309
-0.918009 1.857636 1.902880
-0.873651 1.857040 1.914796
-0.853495 1.856943 1.910653
-0.811552 1.857179 1.888273
-0.753115 1.857663 1.864700
-0.732078 1.857691 1.883850
-0.716488 1.857409 1.917278
-0.665303 1.857710 1.874021
-0.627070 1.856823 1.877256
-0.569989 1.854146 1.909846
-0.579797 1.855761 1.863354
-0.548975 1.853246 1.916949
-0.532001 1.854299 1.864782
-0.468835 1.853181 1.862849
-0.408787 1.852434 1.882610
-0.388859 1.852490 1.886448
-0.306623 1.853907 1.876322
-0.282982 1.854708 1.870927
-0.253017 1.854182 1.919074
-0.212990 1.855680 1.897144
-0.204756 1.856407 1.866249
-0.793719 1.847226 2.434494
-0.739379 1.847247 2.468167
-0.735659 1.847392 2.451881
-0.687766 1.847624 2.437677
-0.668238 1.847567 2.454539
-0.618650 1.847448 2.451701
-0.601061 1.847346 2.437405
-0.584633 1.847509 2.447625
-0.498012 1.847647 2.425431
-0.430801 1.848053 2.432482
-0.374440 1.848445 2.434163
-0.339949 1.849551 2.460372
-0.311151 1.849257 2.434842
-0.281270 1.849506 2.423880
-0.268724 1.850926 2.470823
-0.182827 1.851658 2.469985
1.109310 1.597007 -2.995616
1.165933 1.631524 -2.947689
1.163442 1.603911 -2.950820
1.138445 1.607480 -2.971796
1.151818 1.662534 -2.957604
1.120731 1.647237 -2.985339
1.092851 1.755241 -2.990929
1.102368 1.706780 -2.995177
1.154928 1.727912 -2.943724
1.137819 1.711319 -2.963423
1.080179 1.789704 -2.980299
1.096036 1.767819 -2.982901
1.132063 1.769693 -2.949534
0.827580 1.867075 -2.976190
0.856154 1.867368 -2.973001
0.873525 1.867871 -2.957052
0.923094 1.860363 -2.994693
0.925345 1.861862 -2.980770
0.958275 1.856254 -2.973524
0.990384 1.853245 -2.966762
1.014576 1.842325 -2.969706
1.022540 1.845752 -2.956775
1.048351 1.839939 -2.956812
1.250094 1.605770 -2.870812
1.255943 1.595040 -2.866214
1.268445 1.682805 -2.848686
1.284571 1.680199 -2.834219
1.261325 1.646911 -2.857529
1.272479 1.739982 -2.837661
1.280561 1.733239 -2.831675
1.203958 1.823913 -2.848816
1.249189 1.775757 -2.844869
1.300210 1.666287 -2.820797
0.802611 1.872296 -2.868448
0.862475 1.871078 -2.860891
0.868384 1.871058 -2.849013
0.904317 1.869649 -2.858386
0.927667 1.868996 -2.858072
0.967964 1.867486 -2.854229
1.027875 1.867473 -2.821487
1.049647 1.862287 -2.868132
1.084125 1.858296 -2.850539
1.120722 1.857790 -2.839586
1.134320 1.842767 -2.874366
1.182367 1.827219 -2.864223
-0.161304 1.862405 -2.270549
-0.128380 1.862139 -2.305335
-0.080495 1.862700 -2.323644
-0.069752 1.862443 -2.301831
-0.002471 1.862469 -2.275552
0.017347 1.863758 -2.310898
0.022538 1.863984 -2.321730
0.076654 1.863396 -2.268636
0.100739 1.864111 -2.312676
0.132579 1.863726 -2.288113
0.186491 1.863658 -2.279954
0.195644 1.864020 -2.291908
0.225070 1.864728 -2.312104
0.279985 1.865261 -2.306820
0.278474 1.864712 -2.277777
0.320331 1.865474 -2.293715
0.352256 1.865787 -2.292931
0.405543 1.865515 -2.272430
0.424347 1.866012 -2.303846
0.455263 1.865752 -2.291995
0.471914 1.866338 -2.322015
0.542300 1.865691 -2.269459
0.549283 1.866131 -2.295037
0.588864 1.866378 -2.285412
0.603459 1.866834 -2.307762
0.640410 1.867398 -2.309697
0.664333 1.867083 -2.273008
0.699456 1.868098 -2.293881
0.711801 1.868597 -2.313525
0.755640 1.869115 -2.285563
0.801491 1.870691 -2.310864
1.712137 1.595736 -2.310709
1.730454 1.627067 -2.272672
1.706162 1.697988 -2.308014
1.709381 1.731867 -2.295826
1.716836 1.723299 -2.283818
1.675025 1.806884 -2.315804
1.671105 1.804806 -2.325852
1.691101 1.774068 -2.313636
0.804486 1.870716 -2.303404
0.860116 1.872531 -2.289086
0.895641 1.873871 -2.299348
0.872698 1.872732 -2.274631
0.955165 1.874087 -2.269317
1.015701 1.875364 -2.316291
1.004018 1.874289 -2.268400
1.074683 1.874595 -2.313202
1.109656 1.874231 -2.316096
1.110215 1.873898 -2.281666
1.141281 1.873651 -2.271646
1.185680 1.873794 -2.310724
1.199917 1.873507 -2.275811
1.267093 1.873285 -2.302765
1.256527 1.873287 -2.267427
1.328793 1.872691 -2.304590
1.310997 1.872853 -2.273079
1.398355 1.871564 -2.327409
1.415324 1.871717 -2.266584
1.454199 1.870491 -2.308476
1.474776 1.870885 -2.266122
1.479051 1.870460 -2.286891
1.486335 1.870533 -2.267408
1.540761 1.867090 -2.319669
1.601319 1.860253 -2.305019
1.647138 1.851051 -2.279082
1.657796 1.833394 -2.310728
1.842760 1.627506 -2.064228
1.850334 1.628432 -2.051669
1.859920 1.697792 -2.023161
1.852332 1.654765 -2.041852
1.839862 1.749229 -2.048776
1.846065 1.753188 -2.036890
1.809337 1.798756 -2.066186
1.815693 1.821392 -2.029032
1.905769 1.632639 -1.952607
1.915189 1.615725 -1.933460
1.922674 1.602334 -1.917323
1.917263 1.702198 -1.915316
1.927608 1.657475 -1.898932
1.897669 1.710854 -1.953227
1.904626 1.716361 -1.936974
1.873259 1.816090 -1.929784
1.883737 1.813551 -1.907119
1.809475 1.850580 -1.929027
1.837630 1.845324 -1.917062
-0.167682 1.861040 -1.686268
-0.123036 1.861279 -1.710305
-0.118753 1.861215 -1.693786
-0.079787 1.861208 -1.671645
-0.020484 1.861022 -1.664382
0.003690 1.860962 -1.674098
0.035237 1.861017 -1.651599
0.102933 1.860945 -1.695574
0.090459 1.861065 -1.664979
0.145948 1.861152 -1.678944
0.194878 1.861452 -1.682959
0.244585 1.862112 -1.696653
0.306131 1.862906 -1.708714
0.305080 1.862276 -1.671046
0.358699 1.862325 -1.657269
0.370978 1.862422 -1.672222
0.396762 1.862526 -1.696632
0.432527 1.862501 -1.690391
0.456351 1.862784 -1.666114
0.477891 1.862700 -1.702432
0.549193 1.864267 -1.652597
0.546299 1.863838 -1.678666
0.567139 1.864166 -1.676130
0.591857 1.864534 -1.663143
0.618763 1.864583 -1.679919
0.670025 1.865118 -1.683486
0.682810 1.865173 -1.682171
0.734280 1.865234 -1.668268
0.748943 1.865060 -1.659784
0.801853 1.864637 -1.662366
0.826106 1.865022 -1.711224
0.847101 1.864628 -1.670454
0.911245 1.864444 -1.655271
0.885701 1.864778 -1.697605
0.985101 1.865354 -1.705253
1.006247 1.865508 -1.685868
1.010150 1.865903 -1.710028
1.077459 1.866381 -1.658509
1.093958 1.866712 -1.673539
1.114900 1.866749 -1.682277
1.168113 1.866916 -1.705759
1.175017 1.866543 -1.657904
1.207562 1.867544 -1.708263
1.255177 1.868186 -1.689464
1.284160 1.868728 -1.694011
1.299673 1.868793 -1.678788
1.344111 1.868866 -1.657588
1.377984 1.869455 -1.697188
1.413015 1.869306 -1.674699
1.519266 1.869420 -1.657924
1.536733 1.869467 -1.668694
1.549104 1.869458 -1.679342
1.577773 1.869568 -1.693346
1.618371 1.870147 -1.671695
1.641740 1.869851 -1.694052
1.694887 1.870152 -1.672860
1.714661 1.870303 -1.661192
1.738310 1.870082 -1.659721
1.773541 1.868640 -1.710137
-1.904101 1.722187 -0.935331
-1.897639 1.745255 -0.912021
-1.799759 1.711087 -0.955999
-1.802810 1.725553 -0.935960
-1.769557 1.705864 -0.967999
-1.774580 1.730780 -0.929845
-1.727261 1.721135 -0.951257
-1.711151 1.725049 -0.944181
-1.685832 1.721464 -0.948771
-1.586745 1.702889 -0.968630
-1.463807 1.692070 -0.958242
-1.447815 1.691916 -0.954489
-1.653382 1.716689 -0.958094
-1.608182 1.710551 -0.956100
-1.595807 1.707025 -0.961264
-1.509388 1.706742 -0.916040
-1.406124 1.693312 -0.935254
-1.390557 1.688622 -0.970517
-1.325719 1.691569 -0.948140
-1.312833 1.692107 -0.946827
-1.269747 1.693466 -0.961050
-1.275934 1.695213 -0.913709
-1.200200 1.699043 -0.945361
-1.177349 1.698574 -0.942160
-1.139539 1.690618 -0.921749
-1.118109 1.695852 -0.970130
-1.074073 1.673549 -0.915347
-1.059382 1.679359 -0.951954
-1.017832 1.664579 -0.928934
-0.987172 1.675028 -0.969259
-0.974977 1.665391 -0.942977
-0.975672 1.654250 -0.913447
-0.873656 1.690078 -0.962032
-0.892723 1.670690 -0.927868
-0.854169 1.691778 -0.951196
-0.841443 1.697555 -0.951430
-0.800926 1.699000 -0.912469
-0.828409 1.713627 -0.972873
-0.768989 1.715542 -0.913807
-0.780538 1.734562 -0.964936
-0.734539 1.747079 -0.940047
-0.692434 1.778653 -0.959416
-0.628007 1.789668 -0.920700
-0.613976 1.808263 -0.945599
-0.608723 1.810256 -0.946463
-0.576566 1.822217 -0.947585
-0.603383 1.797501 -0.915645
-0.521556 1.825382 -0.913893
2.421638 1.633726 -0.778592
2.414330 1.656770 -0.779479
2.422554 1.658907 -0.741867
2.387219 1.730758 -0.731638
2.379157 1.743672 -0.767080
2.392627 1.718144 -0.788565
2.322774 1.794976 -0.751226
2.403071 1.705770 -0.761290
1.825900 1.872403 -0.743324
1.834267 1.872726 -0.767336
1.871608 1.872131 -0.761578
1.865680 1.871749 -0.737307
1.922088 1.871191 -0.741640
1.954911 1.871061 -0.751830
2.015224 1.869287 -0.734683
2.015434 1.870468 -0.783581
2.037590 1.869896 -0.786344
2.078928 1.867686 -0.762786
2.116955 1.865515 -0.756289
2.120121 1.864825 -0.730454
2.209774 1.854532 -0.784112
2.202287 1.854961 -0.728842
2.232856 1.845908 -0.737755
2.230142 1.847789 -0.783092
-1.273231 1.688044 -0.641574
-1.265846 1.685060 -0.655152
-1.186189 1.662360 -0.619313
-1.218014 1.670970 -0.658900
-1.396953 1.724356 -0.628227
-1.353859 1.713849 -0.616366
-2.040942 1.834655 -0.618924
-2.040124 1.828177 -0.663160
-2.026841 1.835654 -0.658823
-1.977114 1.850113 -0.636805
-1.922476 1.850990 -0.659125
-1.922855 1.851824 -0.642027
-1.894534 1.851057 -0.632403
-1.862199 1.848502 -0.632573
-1.817915 1.841333 -0.658694
-1.794758 1.844150 -0.610581
-1.741372 1.828330 -0.664822
-1.728364 1.827719 -0.654047
-1.722915 1.827581 -0.649761
-1.083324 1.637317 -0.634191
-1.047608 1.630821 -0.642030
-1.149485 1.652375 -0.631462
-1.132555 1.648109 -0.630156
-1.028502 1.628057 -0.661194
-1.005776 1.626126 -0.617273
-0.965847 1.621587 -0.653351
-0.937615 1.623795 -0.604773
-0.903487 1.623076 -0.633274
-0.860663 1.623500 -0.655523
-0.834261 1.632143 -0.627807
-0.833992 1.628453 -0.657360
-0.771601 1.646384 -0.634471
-0.745798 1.655036 -0.630503
-0.699363 1.668126 -0.660969
-0.726350 1.665107 -0.604423
-0.652122 1.688954 -0.631784
-0.646562 1.692899 -0.610528
-0.610905 1.704582 -0.633698
-0.552137 1.728992 -0.641163
-0.589943 1.712884 -0.644759
-0.598791 1.708832 -0.655311
-0.545883 1.731519 -0.660191
-0.491597 1.754955 -0.638388
-0.468595 1.766702 -0.654911
-0.451746 1.771072 -0.617196
-0.426675 1.779490 -0.606757
-0.403543 1.790096 -0.612671
-0.330330 1.823982 -0.649125
-0.335976 1.814215 -0.617097
-0.273923 1.826902 -0.608261
-0.294187 1.834519 -0.661895
-0.242282 1.835835 -0.633265
-0.185146 1.838510 -0.611906
0.816772 1.862809 -0.414424
0.855501 1.862873 -0.373675
0.874140 1.862990 -0.384521
0.917868 1.863204 -0.393600
0.947922 1.863079 -0.393614
0.967704 1.862966 -0.382582
1.002459 1.862375 -0.358735
1.025282 1.862394 -0.412857
1.060909 1.861102 -0.391751
1.101473 1.859491 -0.380524
1.134357 1.857114 -0.375179
1.166842 1.856182 -0.387733
1.205003 1.850619 -0.369270
1.218331 1.850459 -0.381352
1.248026 1.845695 -0.362636
1.289282 1.845358 -0.387077
1.311541 1.841266 -0.368054
1.303706 1.849167 -0.419098
1.393922 1.839506 -0.379492
1.374739 1.846351 -0.413000
1.423149 1.841221 -0.386523
1.455914 1.837244 -0.365129
1.480813 1.840615 -0.378092
1.491731 1.847635 -0.406978
1.560539 1.841736 -0.371838
1.589301 1.852211 -0.417281
1.621348 1.844284 -0.380535
1.630470 1.846456 -0.391415
1.689613 1.846272 -0.386490
1.712887 1.849240 -0.396914
1.743589 1.842204 -0.359653
1.734967 1.854156 -0.410774
-0.340642 1.828655 0.046458
-0.257127 1.839704 0.011970
-0.252689 1.840929 0.026158
-0.228893 1.844265 0.039742
-0.200115 1.847427 0.029266
-0.141663 1.851493 0.020127
-0.148781 1.851121 0.058920
-0.110833 1.852983 0.023927
-0.061251 1.854527 0.020909
-0.026940 1.855891 0.067485
-0.024150 1.855848 0.018668
0.015160 1.857288 0.048357
0.042806 1.858052 0.059806
0.065901 1.858633 0.066225
0.076885 1.858750 0.071449
0.130286 1.859486 0.053060
0.156515 1.859532 0.071615
0.187632 1.860258 0.036573
0.245648 1.860481 0.035155
0.260657 1.860463 0.029764
0.306919 1.859798 0.071297
0.315713 1.859995 0.042947
0.343472 1.859981 0.022838
0.381447 1.859563 0.037087
0.412689 1.859563 0.032876
0.445099 1.859613 0.033659
0.461126 1.859403 0.047570
0.510035 1.859103 0.044191
0.539629 1.859095 0.023855
0.577660 1.857059 0.053938
0.607629 1.855956 0.053566
0.632593 1.854527 0.041934
0.636539 1.855308 0.022188
0.685724 1.851268 0.024327
0.739788 1.836562 0.070049
0.768487 1.832333 0.063327
0.773202 1.838235 0.028789
0.901988 1.813115 0.063070
0.912764 1.822246 0.026967
0.944523 1.810616 0.053667
0.951384 1.821359 0.014852
0.994190 1.817388 0.011268
1.046715 1.803192 0.033667
1.059554 1.800188 0.036492
1.089741 1.786797 0.072555
1.110750 1.791727 0.039556
1.147578 1.783551 0.048920
1.277207 1.760205 0.032287
1.281824 1.759854 0.021787
1.201402 1.780642 0.013902
1.232143 1.770946 0.037313
1.236318 1.768468 0.047294
0.811343 1.800565 0.244599
0.851487 1.790795 0.241966
0.866656 1.785949 0.256172
0.911820 1.775533 0.237001
0.982880 1.755720 0.257410
1.025015 1.749409 0.253493
0.926136 1.777020 0.208420
0.951975 1.768691 0.225293
1.057193 1.755559 0.208038
1.099646 1.746410 0.228092
1.123447 1.738802 0.249143
1.161394 1.738902 0.236021
1.176277 1.737141 0.238360
1.223890 1.735841 0.230733
1.236764 1.727190 0.252152
1.277056 1.726210 0.226209
1.413556 1.619988 0.235552
1.350421 1.680499 0.239526
1.369269 1.666396 0.235358
1.408283 1.641560 0.215487
1.432207 1.611120 0.223588
1.423782 1.634827 0.203433
1.297892 1.709472 0.253047
1.322553 1.711837 0.218004
-1.875056 1.640476 0.392406
-1.876061 1.639307 0.391163
-1.856339 1.653655 0.418662
-1.844009 1.702168 0.411828
-1.846344 1.707944 0.399709
-1.831327 1.720634 0.421762
-1.802306 1.782434 0.396825
-1.779537 1.794710 0.425053
-1.752598 1.825243 0.382991
-1.253002 1.822660 0.387078
-1.228967 1.823692 0.397620
-1.167982 1.820749 0.381696
-1.735105 1.828590 0.400090
-1.667458 1.841248 0.422136
-1.711793 1.832362 0.414465
-1.640824 1.847526 0.404356
-1.609897 1.849151 0.405244
-1.589156 1.848232 0.438630
-1.569603 1.850376 0.401334
-1.510163 1.848421 0.385708
-1.487182 1.847592 0.401606
-1.425436 1.845986 0.433935
-1.412574 1.845568 0.437290
-1.394578 1.841874 0.426152
-1.337246 1.833469 0.410212
-1.289771 1.830430 0.416729
-1.209220 1.827926 0.420581
-1.150104 1.824307 0.397822
-1.133549 1.828449 0.417682
-1.109117 1.827860 0.409775
-1.084551 1.826289 0.390723
-1.050019 1.837621 0.439747
-1.043727 1.831807 0.402520
-1.006957 1.838080 0.418013
-0.963713 1.839207 0.400387
-0.931416 1.842819 0.408619
-0.908300 1.840683 0.382588
-0.876657 1.846225 0.420374
-0.858417 1.843201 0.388883
-0.802636 1.844120 0.399990
-0.790044 1.844693 0.404014
-0.753657 1.845134 0.407359
-0.733821 1.844481 0.403282
-0.678067 1.844873 0.396465
-0.646803 1.844222 0.381817
-0.625979 1.851376 0.428395
-0.595058 1.851691 0.419531
-0.593605 1.853382 0.434722
-1.161917 1.836543 0.468922
-1.141064 1.838742 0.477558
-1.081637 1.838554 0.460732
-1.085343 1.843226 0.492831
-1.016647 1.845594 0.475437
-1.028988 1.846589 0.490997
-0.922869 1.852739 0.499308
-0.892616 1.852579 0.494587
-0.854669 1.851344 0.476217
-0.756080 1.854296 0.497710
-0.749305 1.853422 0.484652
-0.701470 1.854199 0.478609
-0.678620 1.851464 0.443689
-0.664666 1.854366 0.469081
-0.621042 1.854255 0.451997
-0.593837 1.855512 0.457525
-0.557522 1.858678 0.489954
-0.519071 1.858904 0.497508
-0.500678 1.857429 0.475568
-0.478270 1.857752 0.480934
-0.458540 1.856995 0.467473
-0.413868 1.856189 0.446388
-0.374850 1.858130 0.483176
-0.358208 1.856843 0.448661
-0.344832 1.858785 0.496025
-0.301789 1.858934 0.493634
-0.273205 1.858901 0.471403
-0.238270 1.860225 0.492051
-0.217275 1.860433 0.477314
0.746774 1.814765 1.174339
0.761671 1.815407 1.143715
-0.154333 1.865645 1.139687
-0.147891 1.865753 1.156343
-0.114837 1.865661 1.172522
-0.103033 1.864834 1.119634
-0.056009 1.864280 1.178972
-0.010009 1.862372 1.155539
0.051546 1.860484 1.129499
0.037738 1.860957 1.159290
-1.139099 1.856810 1.622609
-1.101918 1.858065 1.671208
-1.062286 1.857929 1.637179
-1.023362 1.858699 1.665671
-1.025430 1.857892 1.621415
-0.953899 1.858172 1.616998
-0.926198 1.858979 1.645647
-0.896738 1.859266 1.644170
-0.891911 1.859515 1.668315
-0.849970 1.859672 1.660072
-0.841531 1.859600 1.663377
-0.797390 1.859242 1.658803
-0.698603 1.859654 1.667310
-0.699585 1.860583 1.641335
-0.667344 1.860038 1.649277
-0.649513 1.859356 1.656157
-0.605739 1.858884 1.644873
-0.579842 1.858694 1.641470
-0.514467 1.857746 1.657464
-0.543429 1.859115 1.612827
-0.458659 1.857792 1.632882
-0.473712 1.857349 1.657543
-0.383361 1.857767 1.668427
-0.379510 1.858182 1.622217
-0.332079 1.858488 1.635820
-0.330442 1.858281 1.659131
-0.295543 1.858868 1.617547
-0.265498 1.858742 1.639820
-0.213465 1.859239 1.664659
-1.447824 1.687096 1.721103
-1.449220 1.690485 1.707595
-1.436244 1.755355 1.726956
-1.445626 1.731615 1.687141
-1.427649 1.783810 1.692549
-1.419641 1.797480 1.693158
-1.413272 1.808009 1.699528
-1.381277 1.829395 1.715447
-1.338541 1.845616 1.729128
-1.316851 1.849314 1.685454
-1.266328 1.854399 1.683041
-1.250872 1.855543 1.729154
-1.187908 1.856587 1.674290
-1.187938 1.856839 1.714986
-1.147280 1.857568 1.738746
-1.151841 1.857506 1.786770
-1.060721 1.858769 1.793803
-0.990180 1.859792 1.751545
-0.949474 1.859907 1.759109
-0.938160 1.859791 1.771485
-0.903998 1.859297 1.784320
-0.868338 1.859173 1.747106
-0.845900 1.858644 1.756293
-0.848667 1.858883 1.744295
-0.789217 1.857473 1.780467
-0.737973 1.858533 1.741867
-0.683192 1.858926 1.791674
-0.708483 1.858922 1.739330
-0.660616 1.858947 1.758346
-0.619888 1.858495 1.789958
-0.593452 1.857687 1.783302
-0.561387 1.856821 1.741628
-0.538242 1.856201 1.761057
-0.504368 1.855591 1.771454
-0.472691 1.855229 1.785454
-0.440787 1.855858 1.738711
-0.425531 1.855363 1.774615
-0.367206 1.855682 1.762120
-0.317626 1.855253 1.782305
-0.297077 1.855662 1.773669
-0.265733 1.856786 1.742997
-0.221850 1.857801 1.738281
-0.187530 1.858445 1.757786
0.612428 1.627056 1.973247
0.610397 1.602953 1.978755
0.608447 1.755572 1.932269
0.582207 1.741896 1.978305
0.618378 1.750927 1.920482
0.593423 1.780838 1.927451
0.564916 1.785116 1.969280
-0.180534 1.855510 1.941712
-0.134912 1.856542 1.950849
-0.108155 1.857374 1.932547
-0.059992 1.857823 1.970331
-0.049138 1.858213 1.946963
-0.004728 1.858487 1.964588
0.009490 1.858844 1.937315
0.060738 1.858332 1.968313
0.079263 1.859206 1.926335
0.068607 1.858099 1.980412
0.134784 1.858584 1.958917
0.142868 1.858477 1.964852
0.204139 1.858300 1.962707
0.232281 1.858464 1.935339
0.248643 1.858083 1.951942
0.305573 1.856560 1.947366
0.363263 1.854917 1.974823
0.359776 1.855493 1.940945
0.383359 1.854166 1.973109
0.416241 1.853971 1.926495
0.460388 1.846050 1.967932
0.492715 1.839119 1.976528
0.514454 1.839708 1.924686
-1.163907 1.855612 2.024659
-1.154176 1.855655 2.030974
-1.059889 1.856333 2.026794
-1.069451 1.857076 1.994995
-1.010522 1.855452 2.032616
-0.986423 1.855568 2.009715
-0.951730 1.854387 2.016264
-0.930919 1.853393 2.030529
-0.894207 1.853954 1.998837
-0.810761 1.851289 2.037920
-0.805716 1.851595 2.031118
-0.784580 1.854248 1.980727
-0.757076 1.852216 2.021809
-0.714355 1.853513 2.001880
-0.691766 1.852516 2.018779
-0.639935 1.852356 2.009537
-0.608309 1.852016 2.006932
-0.591679 1.850591 2.025644
-0.534366 1.850707 1.996163
-0.496292 1.850261 1.989842
-0.461930 1.849345 2.010783
-0.446128 1.849107 2.023988
-0.394212 1.849612 2.031168
-0.406703 1.850137 1.995517
-0.341984 1.851167 1.992525
-0.340841 1.850292 2.042126
-0.278372 1.851857 2.025731
-0.272494 1.852632 1.989851
-0.231762 1.853077 2.020350
-0.193137 1.854491 1.998244
0.470123 1.624280 2.335089
0.477748 1.598876 2.347855
0.456562 1.643387 2.344697
0.421975 1.738383 2.312551
0.416406 1.717193 2.340768
0.346928 1.818167 2.312141
0.368681 1.803504 2.313568
0.373568 1.807435 2.301955
0.379247 1.770098 2.348957
0.435459 1.741174 2.288398
-0.182717 1.850748 2.292852
-0.149720 1.851578 2.293196
-0.091275 1.853232 2.296026
-0.092800 1.853089 2.323516
-0.043455 1.854055 2.308956
-0.058354 1.853530 2.349186
0.046699 1.853839 2.292183
0.034644 1.853439 2.324618
0.088696 1.852469 2.341727
0.092013 1.852965 2.309094
0.143770 1.851049 2.348041
0.183043 1.851085 2.288492
0.192005 1.849968 2.306763
0.241712 1.846555 2.312577
0.266110 1.842044 2.334792
0.330454 1.832904 2.291833
-0.790246 1.845943 2.510703
-0.792425 1.846682 2.478346
-0.730033 1.846342 2.525705
-0.686458 1.847548 2.479037
-0.640462 1.847846 2.527051
-0.625429 1.848053 2.520441
-0.595166 1.848077 2.517634
-0.552125 1.847923 2.486704
-0.498717 1.848064 2.473367
-0.524376 1.848247 2.511539
-0.473090 1.848694 2.529854
-0.468841 1.848439 2.485360
-0.421278 1.849171 2.503796
-0.409579 1.849108 2.485374
-0.353574 1.849765 2.479875
-0.323737 1.850976 2.512053
-0.263421 1.851425 2.490710
-0.268131 1.851604 2.509510
-0.215896 1.851631 2.487350
-0.216943 1.851866 2.531040
-0.258256 1.846553 2.840124
-0.257466 1.847474 2.810094
-0.229976 1.846445 2.827381
-0.206977 1.847693 2.789958
-0.315837 1.617756 3.163754
-0.281746 1.622946 3.183047
-0.229177 1.607351 3.210475
-0.281608 1.651611 3.177069
-0.279363 1.694054 3.165055
-0.214310 1.691900 3.179006
-0.223955 1.643365 3.202959
-0.296969 1.708116 3.151840
-0.223916 1.723373 3.159709
1.284045 1.774942 -2.813799
1.274284 1.780844 -2.818070
1.312030 1.641206 -2.810708
1.309223 1.665075 -2.812035
1.327778 1.661147 -2.793816
1.316220 1.648026 -2.806138
1.296840 1.750151 -2.813179
1.350288 1.752106 -2.760004
1.297279 1.715406 -2.819323
1.336620 1.714004 -2.780629
1.359358 1.707171 -2.758673
1.311873 1.769378 -2.791504
0.831956 1.873536 -2.765567
0.840857 1.872957 -2.783076
0.891574 1.871550 -2.788555
0.915948 1.871175 -2.776763
0.955833 1.869767 -2.796112
0.972201 1.869298 -2.800789
1.009506 1.868237 -2.812399
1.022694 1.868698 -2.788783
1.069745 1.866471 -2.811691
1.079102 1.867548 -2.780833
1.122571 1.862289 -2.817589
1.177133 1.862101 -2.765297
1.207020 1.847444 -2.785129
1.243300 1.844570 -2.771923
1.290901 1.829840 -2.762722
-0.580697 1.830336 -2.314504
-0.550475 1.844991 -2.309061
-0.497582 1.855666 -2.300171
-0.467324 1.858502 -2.293773
-0.429113 1.860880 -2.279569
-0.420665 1.861127 -2.279975
-0.404605 1.860872 -2.308544
-0.366530 1.861695 -2.318957
-0.323056 1.862452 -2.308686
-0.297176 1.862887 -2.284521
-0.259441 1.862837 -2.294647
-0.197425 1.862663 -2.276902
-0.213625 1.862390 -2.322370
0.719308 1.864789 -1.530092
0.719930 1.864682 -1.579349
0.762446 1.864533 -1.550266
0.799843 1.864328 -1.586011
0.805709 1.864407 -1.584180
0.852041 1.865020 -1.564839
0.867522 1.865223 -1.559651
0.911091 1.865700 -1.532670
0.925613 1.865554 -1.552929
0.980079 1.865313 -1.534659
1.029080 1.865685 -1.573007
1.020690 1.865291 -1.527676
1.057964 1.865798 -1.570385
1.086577 1.866130 -1.570330
1.127432 1.866454 -1.555310
1.169993 1.866636 -1.573613
1.186531 1.866927 -1.543992
1.228664 1.867534 -1.531646
1.242753 1.867748 -1.554682
1.264686 1.868028 -1.563933
1.295338 1.868352 -1.566028
1.344629 1.868818 -1.581901
1.410224 1.868843 -1.584812
1.372589 1.869255 -1.529705
1.449291 1.869165 -1.561125
1.476065 1.869104 -1.581952
1.480443 1.869124 -1.585143
1.518967 1.869976 -1.588312
1.591475 1.871375 -1.579513
1.653641 1.872920 -1.527542
1.631382 1.871693 -1.580405
1.717102 1.872025 -1.567895
1.741728 1.871757 -1.567887
1.770361 1.871730 -1.549429
-0.830923 1.838860 -1.488542
-0.805304 1.845606 -1.503239
-0.767842 1.849357 -1.485069
-0.761150 1.851090 -1.508276
-0.730238 1.852439 -1.482159
-0.691865 1.854583 -1.505040
-0.674378 1.855226 -1.513415
-0.637392 1.856397 -1.519951
-0.605258 1.857115 -1.516900
-0.594867 1.856376 -1.466615
-0.498075 1.859239 -1.520583
-0.500682 1.858631 -1.491337
-0.454530 1.859093 -1.470783
-0.479867 1.859570 -1.521022
-0.380215 1.859913 -1.467592
-0.382519 1.860132 -1.487652
-0.350290 1.860394 -1.500644
-0.321245 1.860475 -1.520926
-0.267493 1.860173 -1.482630
-0.254951 1.860265 -1.509915
-0.220897 1.859959 -1.489149
-0.205937 1.859868 -1.490424
-0.131922 1.860060 -1.525180
-0.149361 1.859656 -1.478437
-0.102939 1.860228 -1.522621
-0.093389 1.859842 -1.472850
-0.035070 1.860921 -1.509829
-0.024515 1.860756 -1.487119
0.052627 1.860349 -1.473170
0.062114 1.860494 -1.485967
0.089908 1.859968 -1.475256
0.121292 1.860773 -1.505187
0.155507 1.860579 -1.489879
0.167546 1.860694 -1.489934
0.187488 1.860885 -1.491224
0.234717 1.861591 -1.517757
0.264462 1.861802 -1.505764
0.283491 1.861950 -1.517648
0.346857 1.863257 -1.467729
0.368119 1.863584 -1.473016
0.375933 1.863674 -1.470918
0.420508 1.862972 -1.521331
0.438992 1.863583 -1.496683
0.463943 1.864040 -1.487088
0.522085 1.864254 -1.513130
0.545258 1.863913 -1.478121
0.590337 1.864089 -1.480836
0.609498 1.864468 -1.515808
0.622319 1.864528 -1.517557
0.671026 1.864617 -1.489262
0.726261 1.864627 -1.497925
0.742390 1.864748 -1.465858
0.766738 1.864740 -1.519743
-1.858207 1.816740 -0.813422
-1.820471 1.804826 -0.820744
-1.803832 1.799457 -0.824608
-1.737205 1.798920 -0.790288
-1.735674 1.785232 -0.825424
-1.714480 1.789904 -0.801807
-1.682697 1.781681 -0.802477
-1.647351 1.763731 -0.831585
-1.619444 1.752059 -0.847311
-1.595208 1.748677 -0.836338
-1.550878 1.744378 -0.804818
-1.656073 1.765795 -0.832704
-1.490987 1.728523 -0.802825
-1.516273 1.727733 -0.837099
-1.467669 1.719092 -0.827093
-1.431534 1.712132 -0.823006
-1.366674 1.700062 -0.840782
-1.352365 1.699242 -0.822957
-1.312892 1.694528 -0.796798
-1.302985 1.694414 -0.835300
-1.260707 1.687617 -0.802560
-1.233957 1.683805 -0.797622
-1.213546 1.684451 -0.817819
-1.176552 1.677742 -0.813889
-1.406629 1.708533 -0.814329
-1.921281 1.829546 -0.797700
-1.165789 1.681300 -0.836101
-1.149452 1.667303 -0.795135
-1.105789 1.658661 -0.807709
-1.055948 1.652267 -0.848580
-1.087852 1.650849 -0.790867
-1.016197 1.635831 -0.795399
-0.980408 1.633337 -0.818186
-0.948980 1.634438 -0.835973
-0.894535 1.636760 -0.836607
-0.875425 1.635115 -0.822009
-0.799253 1.660734 -0.836951
-0.793458 1.651623 -0.806971
-0.788973 1.670090 -0.850099
-0.767547 1.655152 -0.793358
-0.698766 1.694661 -0.823842
-0.690080 1.684048 -0.793436
-0.643822 1.710632 -0.805514
-0.662450 1.722836 -0.846784
-0.632053 1.710166 -0.793522
-0.612634 1.746350 -0.843878
-0.587286 1.737135 -0.799811
-0.175846 1.853541 -0.706614
-0.131934 1.851395 -0.687228
-0.119390 1.849857 -0.674860
-0.089998 1.854834 -0.707408
-0.014129 1.853985 -0.668289
-0.028167 1.855914 -0.727062
0.034887 1.854776 -0.717945
0.061776 1.854463 -0.691760
0.102351 1.853890 -0.720628
0.087312 1.854446 -0.674381
0.129225 1.854388 -0.686134
0.138346 1.854732 -0.671484
0.196118 1.854552 -0.720789
0.228042 1.855940 -0.691585
0.252383 1.856348 -0.715108
0.305919 1.858505 -0.687348
0.330119 1.859077 -0.694047
0.369240 1.860456 -0.668894
0.375385 1.860345 -0.685277
0.423941 1.860988 -0.691726
0.435418 1.860942 -0.704450
0.489733 1.861505 -0.708281
0.519351 1.862076 -0.697903
0.516094 1.861906 -0.677195
0.594611 1.862757 -0.667954
0.591543 1.863372 -0.725531
0.666736 1.863914 -0.709862
0.687237 1.863955 -0.700931
0.762260 1.864147 -0.668805
0.769405 1.863947 -0.725787
0.803549 1.864229 -0.690953
0.863198 1.864328 -0.686557
0.896839 1.863875 -0.683939
0.919910 1.863147 -0.718937
0.941698 1.863412 -0.676221
0.985386 1.863042 -0.676594
1.008048 1.863082 -0.695829
1.004213 1.862825 -0.715327
1.064039 1.863107 -0.713134
1.052258 1.863789 -0.666022
1.144182 1.863850 -0.723828
1.134626 1.864312 -0.676310
1.218708 1.864995 -0.715931
1.207146 1.864362 -0.679294
1.287873 1.865456 -0.722038
1.288385 1.865044 -0.706987
1.313879 1.864261 -0.675388
1.318646 1.865455 -0.718308
1.370897 1.864927 -0.688199
1.398693 1.865347 -0.697896
1.451791 1.865917 -0.701258
1.518697 1.866364 -0.671332
1.518287 1.867143 -0.726573
1.546805 1.867054 -0.681990
1.599726 1.869221 -0.725838
1.604336 1.868824 -0.676404
1.639568 1.870260 -0.702280
1.665706 1.870985 -0.692399
1.748686 1.872038 -0.698068
1.761665 1.872320 -0.709239
-2.077769 1.614531 -0.120002
-2.061276 1.659939 -0.129433
-2.073524 1.656868 -0.152982
-2.063241 1.676074 -0.146246
1.887496 1.620783 -0.073144
1.898819 1.619705 -0.079673
1.841081 1.695193 -0.078860
1.897778 1.686177 -0.103810
1.887954 1.651783 -0.085118
1.940125 1.596259 -0.097040
1.927079 1.623007 -0.097688
1.840230 1.709229 -0.089225
1.840147 1.727586 -0.102381
1.899182 1.704001 -0.111677
-1.832199 1.634319 0.466143
-1.830017 1.688644 0.447973
-1.813748 1.679684 0.474142
-1.786592 1.710484 0.495652
-1.738202 1.775064 0.501823
-1.769577 1.773253 0.472518
-1.742107 1.790237 0.477481
-1.692854 1.811791 0.484269
-1.675980 1.813643 0.495376
-1.662939 1.837040 0.450561
-1.634404 1.833556 0.473526
-1.629424 1.840971 0.451647
-1.591518 1.844340 0.464420
-1.539254 1.849057 0.449080
-1.535230 1.848322 0.460474
-1.476831 1.849570 0.460572
-1.437643 1.847486 0.465354
-1.433627 1.849157 0.491737
-1.394565 1.845486 0.455852
-1.359706 1.843684 0.462083
-1.347683 1.843573 0.465344
-1.294961 1.846159 0.499512
-1.262604 1.835982 0.452709
-1.248477 1.840389 0.480545
-1.223296 1.839061 0.479031
-1.195850 1.834265 0.455603
-1.125592 1.856197 0.916819
-1.134677 1.856154 0.897394
-1.082366 1.856776 0.932759
-1.067217 1.857127 0.906574
-1.035948 1.857308 0.890609
-0.941351 1.857451 0.887002
-0.947172 1.856650 0.919619
-0.895416 1.857989 0.885356
-0.874421 1.857529 0.915095
-0.813354 1.858457 0.933691
-0.798845 1.860518 0.874794
-0.739023 1.859671 0.934232
-0.781037 1.860504 0.883517
-0.727409 1.860769 0.898124
-0.730317 1.861209 0.877937
-0.666035 1.861460 0.914480
-0.658817 1.862095 0.874532
-0.602986 1.863089 0.904066
-0.565004 1.864283 0.921120
-0.548696 1.864663 0.929075
-0.526592 1.864681 0.924626
-0.489596 1.864491 0.897595
-0.451992 1.864408 0.887877
-0.414177 1.864559 0.873156
-0.405814 1.864632 0.915988
-0.328738 1.865048 0.911902
-0.310548 1.865166 0.919567
-0.301717 1.865240 0.901501
-0.286067 1.865255 0.881177
-0.186524 1.864322 0.875069
-0.211349 1.864985 0.905086
-1.500067 1.615007 1.289327
-1.513682 1.601215 1.255902
-1.496707 1.648286 1.258665
-1.491171 1.667545 1.253622
-1.364930 1.638100 2.264048
-1.367391 1.643821 2.245822
-1.364632 1.657422 2.245605
-1.365439 1.670165 2.233169
-1.355108 1.722873 2.249195
-1.356677 1.755316 2.242258
-1.350379 1.755294 2.266744
-1.342038 1.793357 2.257615
-1.306397 1.837923 2.237229
-1.254269 1.848591 2.264139
-1.239753 1.850415 2.252897
-1.202608 1.851805 2.229846
-1.171528 1.850850 2.238539
-1.149336 1.849414 2.279193
-1.126040 1.850984 2.233705
-1.081378 1.849957 2.268726
-1.068175 1.850183 2.264157
-1.026086 1.850083 2.261719
-0.987532 1.850478 2.236418
-0.960463 1.850189 2.240836
-0.923744 1.849887 2.243570
-0.182270 1.851835 2.549436
-0.147709 1.851636 2.540467
-0.103303 1.851049 2.575035
-0.087843 1.851454 2.534562
-0.026944 1.849621 2.583426
-0.004654 1.850323 2.547508
0.008913 1.849581 2.561040
0.061163 1.848086 2.558346
0.074318 1.846970 2.565296
0.098597 1.846248 2.552292
0.132257 1.841214 2.582461
0.181283 1.830075 2.580305
0.201184 1.826469 2.572433
0.299220 1.629350 2.615387
0.284096 1.603085 2.653154
0.277912 1.659938 2.641547
0.290702 1.687096 2.608557
0.159636 1.825851 2.638581
0.241512 1.743769 2.643986
