-1.504755 1.302777 2.309155
-1.485131 1.272957 2.299987
-1.446141 1.294033 2.304429
-1.477311 1.300429 2.312502
-1.490950 1.323138 2.315966
-1.434641 1.285992 2.293494
-1.424027 1.312379 2.305788
-1.414062 1.310417 2.299898
-1.500164 1.377197 2.316700
-1.390257 1.364373 2.313745
-1.403637 1.350597 2.316428
-1.384192 1.334765 2.292479
-1.462157 1.318414 2.318437
-1.478627 1.352536 2.324875
-1.490756 1.339904 2.318194
-1.446806 1.359490 2.334386
-1.467537 1.340273 2.324699
-1.477785 1.397119 2.332317
-1.458182 1.391355 2.338544
-1.418064 1.346126 2.322646
-1.435204 1.361037 2.333087
-1.411906 1.345232 2.319385
-1.416126 1.385323 2.338047
-1.428202 1.385092 2.340112
-1.397359 1.378858 2.324601
-1.404135 1.368252 2.325057
-1.447913 1.445176 2.351023
-1.418538 1.439794 2.350506
-1.439514 1.452402 2.351958
-1.449360 1.505331 2.350480
-1.448230 1.519931 2.349511
-1.429934 1.483555 2.353257
-1.427820 1.498637 2.352889
-1.433492 1.516843 2.350873
-2.098970 0.763996 -0.841459
-2.090945 0.792782 -0.821940
-2.099173 0.795462 -0.849760
-2.088816 0.818627 -0.822472
-2.095600 0.812643 -0.840606
-2.088613 0.858930 -0.826267
-2.098282 0.857245 -0.850539
-2.092938 0.883860 -0.836079
-2.097689 0.925496 -0.846223
-2.099047 0.920666 -0.848859
-2.087642 0.953682 -0.833243
-2.095478 0.939277 -0.844882
-1.814705 1.480908 -0.629945
-1.761151 1.515785 -0.602208
-1.784428 1.500985 -0.613828
-1.778081 1.496549 -0.605684
-1.776938 1.535598 -0.627434
-1.759922 1.550525 -0.620819
-1.747593 1.547459 -0.606345
-1.756220 1.527029 -0.603400
-1.749945 1.561542 -0.616875
-1.738388 1.599433 -0.626487
-1.711697 1.608914 -0.603300
-1.728254 1.613528 -0.623261
-1.723051 1.637821 -0.625782
-1.979784 0.969978 -0.566218
-1.975898 0.977644 -0.555122
-1.981039 0.996753 -0.564009
-1.978412 1.007034 -0.551640
-1.981912 1.036600 -0.545171
-1.991811 1.083613 -0.565813
-1.983586 1.114681 -0.546446
-1.987380 1.090113 -0.548662
-1.960163 1.175859 -0.539899
-1.974371 1.167457 -0.567992
-1.645805 1.392892 -0.040589
-1.645273 1.389111 -0.039710
-1.648676 1.427569 -0.045287
-1.646008 1.425053 -0.036997
-1.648399 1.450147 -0.046130
-1.648506 1.429739 -0.044493
-1.650372 1.478830 -0.062206
-1.647169 1.460192 -0.043608
-1.327946 1.472474 0.552964
-1.331258 1.473091 0.545376
-1.323821 1.512506 0.533984
-1.320528 1.493742 0.555630
-1.317135 1.500377 0.559042
-1.310746 1.553599 0.531770
-1.298736 1.569365 0.546339
-1.299823 1.577433 0.535644
-1.285147 1.606355 0.548641
-1.273036 1.643501 0.546839
-1.279036 1.624053 0.548890
-1.243248 1.483376 0.876955
-1.244478 1.479791 0.900763
-1.239129 1.495009 0.876408
-1.236121 1.506084 0.898194
-1.227913 1.535936 0.900384
-1.230769 1.524051 0.900675
-1.220523 1.566587 0.882137
-1.216315 1.605570 0.902088
-1.217367 1.601409 0.883302
-1.215764 1.634308 0.905710
-1.218343 1.650999 0.895220
-1.220886 1.565988 0.990925
-1.220902 1.573865 0.970966
-1.210463 1.612630 0.970319
-1.210717 1.603831 0.995855
-1.200840 1.639932 0.991367
-1.206469 1.621064 0.988458
-1.230375 1.471488 1.477248
-1.232128 1.465261 1.498333
-1.225423 1.477241 1.499013
-1.215090 1.499604 1.490834
-1.196429 1.542140 1.471328
-1.192991 1.550770 1.496795
-1.182165 1.581565 1.493088
-1.190523 1.557247 1.484375
-1.171349 1.615615 1.491566
-1.179506 1.590029 1.497836
-1.168836 1.629525 1.498197
-1.167499 1.630526 1.480881
-1.228609 1.468992 1.510566
-1.220356 1.480819 1.529495
-1.214882 1.497825 1.507419
-1.216738 1.492117 1.512843
-1.198722 1.534681 1.510886
-1.199749 1.530977 1.517686
-1.182285 1.581106 1.522686
-1.172035 1.615415 1.508923
-1.180460 1.586409 1.528261
-1.165872 1.647304 1.508222
-1.168438 1.636019 1.528154
-1.165595 1.651312 1.512918
-1.412635 1.248281 1.866141
-1.390903 1.268758 1.848296
-1.352975 1.294497 1.851136
-1.368479 1.283212 1.857713
-1.343160 1.300297 1.869368
-1.302119 1.329265 1.868677
-1.320135 1.315598 1.860860
-1.274181 1.350758 1.871822
-1.279015 1.341353 1.850902
-1.275487 1.343244 1.848528
-1.240616 1.388351 1.864860
-1.250285 1.371894 1.864261
-1.226587 1.407671 1.851353
-1.224182 1.419514 1.853518
-1.217401 1.450127 1.861731
-1.220225 1.441739 1.860436
-1.406866 1.233532 2.063211
-1.411953 1.234220 2.042418
-1.392254 1.254310 2.059363
-1.402332 1.245845 2.045138
-1.363631 1.292971 2.063012
-1.364414 1.294758 2.053056
-1.377273 1.280432 2.043233
-1.369147 1.293078 2.037570
-1.353520 1.312225 2.039667
-1.332270 1.332267 2.053658
-1.341325 1.322794 2.048478
-1.504368 1.399357 2.315262
-1.507538 1.433170 2.312520
-1.378627 1.354363 2.297987
-1.380808 1.344921 2.295056
-1.362779 1.389323 2.299806
-1.377584 1.379088 2.309407
-1.364754 1.374633 2.294520
-1.347547 1.395425 2.287292
-1.357392 1.418204 2.307173
-1.361414 1.408338 2.306973
-1.338622 1.418398 2.288846
-1.331725 1.441010 2.290339
-1.519015 1.467566 2.302351
-1.532296 1.487928 2.289039
-1.514754 1.501834 2.301545
-1.524367 1.504999 2.292683
-1.520197 1.523632 2.292273
-1.514657 1.550684 2.290140
-1.503516 1.480225 2.314314
-1.498465 1.501300 2.316735
-1.490291 1.542693 2.315895
-1.484421 1.562082 2.316185
-1.493075 1.580624 2.301106
-1.337064 1.478488 2.301887
-1.325501 1.465212 2.290290
-1.351638 1.491014 2.316364
-1.336436 1.510173 2.297470
-1.335196 1.514248 2.295345
-1.362066 1.537309 2.312259
-1.339500 1.537010 2.290842
-1.353588 1.569534 2.287901
-1.352507 1.555736 2.294417
-1.374704 1.555707 2.314993
-1.486720 1.600219 2.299940
-1.498855 1.596573 2.289020
-1.471991 1.604607 2.311990
-1.465229 1.638823 2.306505
-1.400762 1.606362 2.310748
-1.394649 1.590712 2.314196
-1.425748 1.631478 2.316069
-1.387240 1.643068 2.299417
-1.396881 1.635915 2.304876
-1.485027 1.649688 2.290484
-1.372879 1.598517 2.294400
-1.378143 1.610192 2.294718
-2.062666 0.987682 -0.796704
-2.068279 0.966953 -0.799098
-2.061886 1.011948 -0.808538
-2.063140 0.989694 -0.798678
-2.053606 1.044644 -0.809485
-2.060799 1.024740 -0.813760
-2.052058 1.054051 -0.811474
-2.046244 1.076642 -0.811093
-2.042813 1.087498 -0.810621
-2.034903 1.097962 -0.799637
-2.036120 1.086565 -0.796261
-2.031152 1.140791 -0.810093
-2.031280 1.123235 -0.802649
-2.026076 1.166472 -0.811705
-1.868538 1.469766 -0.681911
-1.860440 1.472709 -0.675415
-1.837230 1.491009 -0.663050
-1.840067 1.518874 -0.683646
-1.840478 1.496386 -0.670246
-1.832987 1.524621 -0.678912
-1.814994 1.537388 -0.666480
-1.811153 1.564743 -0.676840
-1.796404 1.570199 -0.665962
-2.003424 1.614593 -0.663468
-2.001815 1.608259 -0.670558
-1.999639 1.613092 -0.667440
-1.982673 1.609790 -0.682087
-1.971539 1.606618 -0.693505
-1.983615 1.621248 -0.670728
-1.977860 1.617525 -0.677900
-1.958266 1.638749 -0.672595
-1.940489 1.645808 -0.677514
-1.811601 1.616417 -0.690994
-1.800625 1.604470 -0.680930
-1.785770 1.611741 -0.671228
-1.812302 1.647104 -0.694004
-1.767761 1.642162 -0.663728
-1.788945 1.620318 -0.675868
-1.802645 1.649113 -0.688663
-1.930361 1.238254 -0.553155
-1.941963 1.216933 -0.548066
-1.930242 1.251023 -0.567202
-1.915266 1.264280 -0.558559
-1.897158 1.297654 -0.568443
-1.856244 1.326717 -0.541882
-1.869313 1.320871 -0.553304
-1.870764 1.309809 -0.544018
-1.852717 1.332056 -0.542495
-1.845251 1.340348 -0.539998
-1.849531 1.351097 -0.557332
-1.835277 1.373971 -0.560825
-1.824956 1.375471 -0.546546
-1.826343 1.392559 -0.568156
-1.825840 1.369045 -0.540685
-1.818431 1.391613 -0.552818
-1.801330 1.411014 -0.544597
-1.817505 1.397420 -0.557549
-1.790503 1.420709 -0.538870
-1.792431 1.437280 -0.564069
-1.767624 1.454905 -0.558681
-1.787752 1.439418 -0.561110
-1.758013 1.453130 -0.545277
-2.309206 1.545269 -0.551677
-2.298265 1.542391 -0.560442
-2.300835 1.571024 -0.541548
-2.289871 1.580979 -0.542667
-2.265261 1.584671 -0.557147
-2.265976 1.577316 -0.561273
-2.263721 1.585827 -0.557445
-1.715697 1.490348 -0.389890
-1.704457 1.508024 -0.397730
-1.714519 1.491865 -0.388076
-1.676857 1.551859 -0.392164
-1.687527 1.533453 -0.393855
-1.672037 1.563888 -0.395272
-1.664026 1.576895 -0.382087
-1.653856 1.611735 -0.386487
-1.660515 1.588109 -0.384521
-1.646588 1.645292 -0.393261
-1.656458 1.620544 -0.411264
-1.646574 1.650067 -0.399110
-1.717789 1.473563 -0.326702
-1.724687 1.462213 -0.326504
-1.692002 1.509814 -0.319609
-1.694935 1.509260 -0.341212
-1.674641 1.534884 -0.319140
-1.677631 1.535026 -0.340979
-1.669390 1.550918 -0.348248
-1.647239 1.582487 -0.319563
-1.665611 1.556631 -0.344093
-1.643377 1.599042 -0.336420
-1.629611 1.637956 -0.343437
-1.626075 1.629412 -0.327067
-1.508667 1.647597 0.125919
-1.504078 1.648657 0.135022
-1.551236 1.341204 0.316343
-1.532966 1.365816 0.315810
-1.523818 1.378959 0.317497
-1.511096 1.396173 0.321228
-1.532769 1.367349 0.314395
-1.505519 1.416748 0.312204
-1.491965 1.421493 0.331755
-1.507038 1.398733 0.325593
-1.491847 1.435965 0.319108
-1.486257 1.451443 0.314797
-1.483957 1.433834 0.335139
-1.286113 1.483640 0.655078
-1.283723 1.473846 0.677679
-1.273062 1.517927 0.660861
-1.278058 1.500762 0.663375
-1.255915 1.550188 0.674972
-1.255284 1.571782 0.656518
-1.250737 1.572689 0.667718
-1.249060 1.557911 0.685808
-1.248414 1.585755 0.661563
-1.238203 1.648069 0.656124
-1.239711 1.619349 0.663103
-1.259986 1.469733 0.782871
-1.249903 1.479592 0.808729
-1.254413 1.478066 0.788990
-1.237637 1.515225 0.797194
-1.242166 1.498819 0.807528
-1.220257 1.584018 0.806539
-1.223929 1.564198 0.792074
-1.221324 1.612404 0.794343
-1.220377 1.596856 0.803878
-1.223093 1.646356 0.793620
-1.222804 1.630754 0.786204
-1.228747 1.536266 0.924770
-1.220385 1.582468 0.930471
-1.221540 1.570729 0.909350
-1.219796 1.587301 0.935540
-1.212724 1.631084 0.928577
-1.210454 1.477501 1.605364
-1.214400 1.465239 1.613097
-1.195101 1.516810 1.600940
-1.192461 1.519295 1.609221
-1.194789 1.508442 1.617647
-1.181721 1.553286 1.608460
-1.186473 1.531496 1.619429
-1.175829 1.577438 1.603225
-1.174475 1.573186 1.623836
-1.167097 1.609908 1.610697
-1.168597 1.598335 1.624201
-1.164563 1.626202 1.597547
-1.164411 1.617730 1.622364
-1.420472 1.232929 1.987316
-1.405364 1.250282 1.979304
-1.403476 1.252077 2.002880
-1.365662 1.295642 1.978871
-1.380981 1.278808 1.988500
-1.341537 1.321918 1.979212
-1.329528 1.336095 1.992254
-1.316035 1.347300 1.973575
-1.259656 1.410532 1.986259
-1.268629 1.398162 1.978371
-1.235958 1.439528 1.992371
-1.231910 1.442446 1.973304
-1.225604 1.451257 1.992655
-1.208890 1.477241 2.027894
-1.201859 1.483124 2.007368
-1.217538 1.461993 2.005552
-1.183379 1.513282 2.024818
-1.167883 1.542329 2.013937
-1.170213 1.537890 2.034242
-1.156610 1.565394 2.031476
-1.156422 1.567649 2.018350
-1.134285 1.631742 2.010683
-1.302175 1.364234 2.071324
-1.312991 1.352171 2.067970
-1.291124 1.377872 2.084979
-1.285362 1.385224 2.079935
-1.264237 1.411947 2.067254
-1.235425 1.453824 2.075327
-1.251615 1.432246 2.093316
-1.239430 1.478612 2.173208
-1.242489 1.470890 2.188135
-1.235787 1.513720 2.181320
-1.230525 1.502790 2.164639
-1.225146 1.522148 2.161491
-1.230102 1.533996 2.174156
-1.237161 1.548936 2.190471
-1.234417 1.557661 2.191038
-1.213304 1.559430 2.167704
-1.195447 1.600031 2.186091
-1.178644 1.597111 2.163656
-1.166716 1.644820 2.187840
-1.179880 1.619315 2.185985
-1.163608 1.637159 2.178789
-1.598598 1.522007 2.247531
-1.589115 1.529239 2.249961
-1.584716 1.540747 2.249171
-1.568937 1.567798 2.250939
-1.585163 1.602084 2.236639
-1.583567 1.605525 2.236678
-1.582182 1.629732 2.234272
-1.565791 1.586246 2.248958
-1.561306 1.605697 2.246903
-1.553806 1.634906 2.245769
-1.564326 1.627993 2.241794
-1.261961 1.487305 2.228084
-1.260441 1.480260 2.226978
-1.279375 1.510822 2.239654
-1.272120 1.508291 2.232654
-1.299588 1.546605 2.247941
-1.274875 1.526298 2.231527
-1.304698 1.582268 2.245983
-1.304110 1.558736 2.248934
-1.286060 1.579355 2.233092
-1.279283 1.554996 2.227659
-2.081129 0.981267 -0.830814
-2.083492 0.967168 -0.829738
-2.086104 0.995551 -0.845115
-2.080441 1.040122 -0.850084
-2.077788 1.053757 -0.850095
-2.066686 1.042143 -0.831013
-2.072785 1.040851 -0.840155
-2.054055 1.078236 -0.825095
-2.047083 1.103226 -0.823519
-2.056591 1.090733 -0.832273
-2.056387 1.133230 -0.846577
-2.048599 1.150903 -0.843368
-2.034336 1.166339 -0.828232
-2.029312 1.207492 -0.844729
-2.031123 1.192769 -0.838537
-2.012391 1.232641 -0.823932
-2.021507 1.215208 -0.832477
-2.018956 1.391927 -0.836174
-2.046026 0.862967 -0.730207
-2.056648 0.838181 -0.749361
-2.048495 0.890617 -0.740265
-2.051966 0.871854 -0.744915
-2.043272 0.868231 -0.725528
-2.052339 0.908389 -0.750659
-2.044755 0.902488 -0.735072
-2.044573 0.951667 -0.745506
-1.966939 1.037540 -0.489249
-1.965181 1.021789 -0.492390
-1.979475 1.073397 -0.504113
-1.975113 1.078850 -0.495548
-1.971675 1.067963 -0.490165
-1.959266 1.097601 -0.478284
-1.969552 1.093820 -0.489834
-1.978542 1.087711 -0.502774
-1.969025 1.120942 -0.505502
-1.938801 1.134748 -0.481669
-1.940616 1.132910 -0.481911
-1.951607 1.150149 -0.503639
-1.925039 1.165121 -0.488187
-1.938871 1.166453 -0.501468
-1.934011 1.179739 -0.504995
-1.889602 1.207030 -0.481247
-1.896411 1.202744 -0.485091
-1.890837 1.238288 -0.504223
-1.882957 1.214482 -0.479259
-1.867046 1.236127 -0.474760
-1.858216 1.267637 -0.484950
-1.869245 1.267765 -0.500547
-1.868957 1.253844 -0.489962
-1.836345 1.302983 -0.482645
-1.849066 1.286093 -0.487377
-1.825893 1.320686 -0.485005
-1.834041 1.307583 -0.483694
-1.804087 1.361205 -0.488465
-1.816605 1.336836 -0.486851
-1.820465 1.342803 -0.501466
-1.797902 1.382456 -0.498915
-1.778680 1.402057 -0.481973
-1.746703 1.449204 -0.492350
-1.745482 1.452208 -0.503668
-1.729161 1.472154 -0.419223
-1.721935 1.486372 -0.421556
-1.728058 1.478598 -0.440883
-1.708902 1.505859 -0.413874
-1.712199 1.504262 -0.430226
-1.688623 1.539270 -0.415764
-1.696090 1.526287 -0.417195
-1.669004 1.583816 -0.423928
-1.681810 1.556792 -0.430921
-1.663769 1.597651 -0.421093
-1.658510 1.621608 -0.434901
-1.684529 1.483828 -0.189703
-1.693692 1.460213 -0.188832
-1.667870 1.513264 -0.174954
-1.650820 1.544741 -0.175592
-1.657045 1.534487 -0.178192
-1.639525 1.566150 -0.186105
-1.640181 1.559483 -0.166341
-1.623407 1.581007 -0.160939
-1.603129 1.606809 -0.168876
-1.619786 1.585882 -0.161462
-1.599882 1.609751 -0.167762
-1.578191 1.632297 -0.171933
-1.584683 1.625021 -0.168160
-1.638148 1.525029 -0.067068
-1.612233 1.570261 -0.078321
-1.607191 1.579341 -0.088785
-1.576510 1.616318 -0.070337
-1.595581 1.594640 -0.093945
-1.562349 1.634429 -0.076151
-1.567001 1.629211 -0.093519
-1.581743 1.470120 0.135102
-1.577305 1.461951 0.149014
-1.580851 1.506994 0.123057
-1.573788 1.513572 0.134128
-1.570201 1.520568 0.138079
-1.559932 1.552726 0.135351
-1.568938 1.540961 0.129037
-1.561926 1.558827 0.127942
-1.551230 1.558957 0.143673
-1.541750 1.586071 0.135235
-1.518836 1.616726 0.144702
-1.520629 1.612306 0.146410
-1.521003 1.621528 0.135318
-3.787729 -0.806216 0.475009
-3.794330 -0.799565 0.488117
-1.265284 1.473648 0.756577
-1.247446 1.497538 0.779365
-1.255050 1.496886 0.749885
-1.235823 1.525275 0.778542
-1.238106 1.533796 0.750370
-1.228606 1.561591 0.750528
-1.224875 1.574443 0.764125
-1.224063 1.595166 0.754265
-1.225668 1.642738 0.749935
-1.224103 1.639665 0.772799
-1.332798 1.297273 1.221193
-1.344049 1.276147 1.227941
-1.326107 1.311351 1.227919
-1.320350 1.322824 1.223033
-1.300087 1.365665 1.246338
-1.312000 1.342386 1.242048
-1.291045 1.382120 1.248784
-1.297788 1.366694 1.221784
-1.282898 1.396011 1.236177
-1.269609 1.424978 1.226159
-1.275867 1.410601 1.225546
-1.262631 1.441450 1.224735
-1.256528 1.451882 1.249305
-1.257292 1.452852 1.237743
-1.396060 1.231117 1.512836
-1.399621 1.223620 1.507651
-1.390868 1.242446 1.521670
-1.367030 1.270006 1.514260
-1.376657 1.262332 1.525924
-1.359682 1.279845 1.516253
-1.339207 1.302745 1.514555
-1.322667 1.322436 1.512582
-1.317583 1.330576 1.516840
-1.294227 1.364792 1.518577
-1.312830 1.338617 1.518480
-1.291239 1.368740 1.515164
-1.277741 1.388157 1.527657
-1.283248 1.381759 1.517655
-1.265147 1.409443 1.508187
-1.239126 1.451127 1.508928
-1.233340 1.456023 1.531209
-1.421990 1.267064 1.675519
-1.417498 1.268464 1.663713
-1.387569 1.285230 1.663638
-1.369070 1.298625 1.670747
-1.356903 1.309192 1.688863
-1.347015 1.316234 1.686715
-1.348275 1.314946 1.681456
-1.188392 1.487093 1.747062
-1.184149 1.496948 1.725876
-1.185112 1.503327 1.749282
-1.180469 1.547962 1.745946
-1.182222 1.524841 1.751185
-1.179786 1.557974 1.744040
-1.176103 1.598298 1.746738
-1.173730 1.603881 1.730493
-1.166099 1.640462 1.741589
-1.163932 1.639920 1.721980
-1.422829 1.234638 1.898258
-1.420467 1.235697 1.908452
-1.389816 1.264925 1.889339
-1.400341 1.255116 1.892480
-1.367795 1.282721 1.895854
-1.379575 1.274047 1.891838
-1.331965 1.312317 1.903040
-1.313439 1.324541 1.889344
-1.310223 1.332435 1.908343
-1.294475 1.345054 1.902944
-1.274748 1.364054 1.901198
-1.287288 1.347272 1.891198
-1.267169 1.374254 1.902822
-1.252908 1.380273 1.881152
-1.242555 1.413064 1.900470
-1.248621 1.402313 1.902170
-1.219976 1.454660 1.902585
-1.224768 1.445464 1.901322
-2.081664 1.446361 -0.779930
-2.008025 1.168943 -0.765438
-2.003085 1.197660 -0.768421
-2.006923 1.179651 -0.767879
-2.004590 1.214589 -0.785916
-2.000920 1.210539 -0.770961
-1.990317 1.242963 -0.761050
-1.980109 1.294050 -0.761191
-1.989143 1.274752 -0.783101
-1.976930 1.319099 -0.777687
-1.960928 1.360332 -0.760349
-1.973693 1.340634 -0.786538
-1.960173 1.381189 -0.770937
-1.963442 1.371077 -0.775173
-1.957765 1.406570 -0.780117
-1.955702 1.428548 -0.781763
-1.950618 1.429116 -0.774174
-2.020724 0.877001 -0.666913
-2.028985 0.873311 -0.691258
-2.013829 0.915762 -0.665650
-2.025719 0.899099 -0.693091
-2.011425 0.937046 -0.669442
-1.746608 1.373066 -0.350651
-1.743985 1.403108 -0.361878
-1.732685 1.451028 -0.369734
-1.618403 1.473072 0.047345
-1.624341 1.469024 0.031158
-1.618208 1.504121 0.029828
-1.616906 1.497336 0.038130
-1.593994 1.579041 0.029996
-1.592134 1.569970 0.050483
-1.572313 1.609613 0.045714
-1.571471 1.613282 0.041101
-1.549529 1.643284 0.035942
-1.560738 1.625180 0.045765
-1.568206 1.622867 0.028565
-1.608862 1.358500 0.130638
-1.607430 1.368302 0.134309
-1.594489 1.421397 0.140512
-1.578055 1.458683 0.149722
-1.594167 1.441169 0.127172
-1.586309 1.358484 0.214222
-1.581642 1.394207 0.194349
-1.589165 1.374204 0.191374
-1.572709 1.424073 0.187919
-1.563917 1.425213 0.203792
-1.554615 1.447791 0.202586
-1.562238 1.431364 0.201783
-1.446425 1.537593 0.320316
-1.442814 1.552036 0.318576
-1.427570 1.574710 0.335770
-1.437960 1.572098 0.318065
-1.432784 1.595177 0.316320
-1.423255 1.590486 0.335130
-1.420838 1.624030 0.325601
-1.416010 1.636870 0.329106
-1.548998 1.318980 0.359163
-1.534449 1.330917 0.363243
-1.513620 1.364341 0.349301
-1.523473 1.347088 0.357256
-1.511701 1.370536 0.345389
-1.480685 1.393611 0.370824
-1.489707 1.383527 0.366697
-1.507604 1.375759 0.346286
-1.490893 1.410598 0.342828
-1.466478 1.425453 0.369953
-1.460533 1.439975 0.369573
-1.474821 1.439685 0.345978
-1.470662 1.432092 0.358414
-1.509023 1.306659 0.450355
-1.502333 1.314851 0.443457
-1.446945 1.359557 0.454479
-1.467241 1.338049 0.455621
-1.462717 1.351147 0.443760
-1.421513 1.396628 0.449267
-1.425589 1.390485 0.449823
-1.417494 1.402126 0.451147
-1.399045 1.416660 0.466344
-1.414587 1.417282 0.446154
-1.394120 1.457841 0.455554
-1.412622 1.439268 0.438316
-1.352398 1.473003 0.505102
-1.348635 1.467882 0.514610
-1.339103 1.474900 0.528018
-1.333108 1.519405 0.510416
-1.329206 1.514844 0.521951
-1.335076 1.500199 0.520345
-1.324675 1.545423 0.507178
-1.312703 1.552373 0.528091
-1.305339 1.572719 0.526885
-1.297115 1.616918 0.507880
-1.301408 1.612322 0.501488
-1.298710 1.617585 0.503399
-1.288612 1.647390 0.500589
-1.451251 1.285477 0.562626
-1.433169 1.293521 0.571339
-1.431633 1.298045 0.566948
-1.436200 1.282459 0.583574
-1.398132 1.332027 0.566259
-1.403834 1.310688 0.584541
-1.382136 1.329946 0.592043
-1.392926 1.342493 0.561444
-1.377787 1.351935 0.574072
-1.352180 1.392934 0.572943
-1.362650 1.383130 0.564378
-1.369937 1.366329 0.570141
-1.337045 1.408135 0.590241
-1.342234 1.420583 0.563760
-1.322139 1.452692 0.581121
-1.333293 1.429682 0.574944
-1.263390 1.489649 0.732113
-1.276426 1.467342 0.724468
-1.261452 1.492580 0.733718
-1.255410 1.500148 0.743072
-1.235013 1.553561 0.733283
-1.237687 1.541656 0.740945
-1.236971 1.559469 0.720106
-1.229276 1.565195 0.744432
-1.226317 1.575636 0.746534
-1.225882 1.611916 0.725030
-1.225880 1.643098 0.746533
-1.410616 1.224090 0.829131
-1.388922 1.250104 0.830146
-1.386163 1.249871 0.841488
-1.363666 1.287562 0.840965
-1.352429 1.308657 0.839731
-1.343707 1.324232 0.836716
-1.339053 1.340215 0.816968
-1.321821 1.364768 0.815974
-1.311436 1.376299 0.825460
-1.310047 1.371459 0.841896
-1.297945 1.398836 0.819574
-1.285231 1.409847 0.837624
-1.281622 1.424604 0.813622
-1.262528 1.448948 0.828692
-1.240673 1.487293 1.139357
-1.249156 1.467059 1.131566
-1.227127 1.514988 1.153706
-1.237688 1.492412 1.135273
-1.204963 1.553973 1.142668
-1.217523 1.532077 1.130592
-1.196224 1.570107 1.141674
-1.170669 1.611487 1.140207
-1.188502 1.587814 1.130396
-1.162593 1.635399 1.129219
-1.158052 1.631684 1.153776
-1.157753 1.651042 1.128368
-1.242841 1.485934 1.210216
-1.254495 1.463597 1.213657
-1.238672 1.496331 1.194308
-1.238057 1.494085 1.209777
-1.215195 1.523310 1.216769
-1.203511 1.545143 1.189449
-1.172960 1.576318 1.215316
-1.186940 1.560751 1.204855
-1.165717 1.591754 1.200927
-1.164608 1.587960 1.217389
-1.150864 1.636120 1.191348
-1.152387 1.621698 1.210367
-1.385796 1.205993 1.350247
-1.266211 1.400351 1.547147
-1.252878 1.419058 1.550604
-1.255660 1.414334 1.553231
-1.240375 1.435945 1.560230
-1.237516 1.446784 1.539152
-1.384704 1.279141 1.597059
-1.381807 1.281672 1.598352
-1.334069 1.325485 1.626378
-1.350120 1.311668 1.612254
-1.307048 1.348601 1.609323
-1.306107 1.351263 1.597010
-1.312544 1.344320 1.606650
-1.258569 1.389742 1.627428
-1.283401 1.369180 1.614535
-1.250337 1.399415 1.626250
-1.246535 1.407998 1.616929
-1.232724 1.435622 1.597989
-1.232733 1.429078 1.613463
-1.219281 1.460109 1.600315
-1.195260 1.480341 1.788126
-1.192949 1.498029 1.795474
-1.189660 1.533769 1.805802
-1.189302 1.530584 1.801386
-1.181506 1.578012 1.802459
-1.177059 1.599641 1.805240
-1.178240 1.593604 1.806102
-1.173649 1.620624 1.784723
-1.407259 1.220343 2.094386
-1.386321 1.253140 2.080182
-1.378814 1.258962 2.089919
-1.381778 1.263206 2.072322
-1.356279 1.289581 2.096467
-1.363494 1.284493 2.083749
-1.356232 1.298357 2.077779
-1.328754 1.330902 2.086819
-1.337597 1.318658 2.091862
-1.249618 1.481906 2.207492
-1.245978 1.461652 2.197552
-1.242883 1.494937 2.196068
-1.240035 1.550668 2.195096
-1.249111 1.567095 2.207117
-1.224987 1.580160 2.194844
-1.239293 1.610100 2.222419
-1.253666 1.593487 2.219046
-1.201217 1.614017 2.201908
-1.210065 1.596627 2.195460
-1.206327 1.637303 2.221570
-1.222514 1.620007 2.220325
-1.177482 1.633341 2.192828
-1.185856 1.651012 2.212874
-2.043836 0.850318 -0.721546
-2.036564 0.862502 -0.707071
-2.039616 0.886958 -0.721768
-2.037512 0.873474 -0.712664
-2.033425 0.919769 -0.714441
-2.032196 0.898093 -0.707309
-2.027274 0.947516 -0.710431
-2.033710 0.934898 -0.719245
-1.856310 1.123026 -0.407784
-1.843985 1.137593 -0.398361
-1.848330 1.129675 -0.400831
-1.846863 1.162666 -0.411534
-1.824782 1.183777 -0.393743
-1.825505 1.212474 -0.408546
-1.809766 1.238082 -0.398876
-1.815594 1.219930 -0.399768
-1.813918 1.216814 -0.396123
-1.796365 1.268364 -0.387288
-1.793399 1.259278 -0.380570
-1.799932 1.274582 -0.395784
-1.806280 1.283866 -0.411403
-1.786814 1.302396 -0.383175
-1.794325 1.308589 -0.402514
-1.782691 1.333574 -0.397486
-1.785998 1.315970 -0.390276
-1.783615 1.315156 -0.384784
-1.776108 1.354275 -0.403827
-1.777260 1.344908 -0.395662
-1.760696 1.388336 -0.404878
-1.700051 1.383234 -0.187056
-1.695656 1.359937 -0.186582
-1.692582 1.356806 -0.181609
-1.699799 1.398147 -0.181289
-1.696173 1.428409 -0.174646
-1.692066 1.402397 -0.162997
-1.692628 1.456239 -0.181021
-1.697021 1.430424 -0.177944
-1.687881 1.452336 -0.163911
-3.228983 -1.056847 -0.040908
-1.508402 1.606569 0.173421
-1.495103 1.629142 0.178927
-1.499850 1.636431 0.159716
-1.507289 1.626742 0.156102
-1.489481 1.290236 0.509079
-1.490481 1.294908 0.499311
-1.473336 1.300258 0.511887
-1.450744 1.313426 0.520605
-1.460595 1.316439 0.502153
-1.442800 1.318247 0.523939
-1.420665 1.348402 0.510030
-1.399273 1.365922 0.518157
-1.394709 1.379607 0.507411
-1.381513 1.393898 0.510970
-1.368653 1.409971 0.519252
-1.360762 1.424176 0.520754
-1.355840 1.432747 0.522957
-1.360139 1.448455 0.505689
-1.350332 1.459991 0.516071
-3.821700 -0.808735 0.557312
-1.376046 1.260712 0.859459
-1.382105 1.253756 0.848748
-1.352858 1.291347 0.871081
-1.334086 1.324648 0.864474
-1.348013 1.308013 0.854217
-1.332458 1.336404 0.848058
-1.312580 1.362391 0.852885
-1.318435 1.352460 0.855701
-1.291950 1.390059 0.861037
-1.310145 1.368938 0.847125
-1.273076 1.421275 0.861017
-1.259102 1.446091 0.864568
-1.390162 1.216307 1.454292
-1.374802 1.238221 1.451701
-1.377186 1.239031 1.468866
-1.360922 1.260102 1.462043
-1.359689 1.257558 1.439907
-1.331320 1.297913 1.457607
-1.349198 1.274375 1.451647
-1.344409 1.283161 1.469851
-1.325597 1.306354 1.468759
-1.325726 1.304447 1.450062
-1.307984 1.333127 1.456283
-1.300641 1.348670 1.441704
-1.283135 1.387467 1.447495
-1.277157 1.398041 1.455310
-1.260392 1.426102 1.450166
-1.245450 1.449970 1.453691
-1.205669 1.472890 1.636532
-1.206830 1.472268 1.632940
-1.185448 1.515574 1.645771
-1.193503 1.502534 1.633449
-1.188931 1.501873 1.652843
-1.182790 1.534593 1.635266
-1.180846 1.536740 1.643172
-1.170188 1.584864 1.655029
-1.173456 1.563164 1.652429
-1.166382 1.606364 1.632668
-1.158524 1.636233 1.648471
-1.155158 1.649229 1.654946
-1.603107 1.358852 2.263865
-1.591089 1.362996 2.268229
-1.606350 1.390599 2.259730
-1.609864 1.393968 2.258204
-1.582665 1.394974 2.269489
-1.597883 1.367277 2.264835
-1.562000 1.340840 2.283367
-1.570511 1.375900 2.276195
-1.556724 1.386173 2.282622
-1.603935 1.410209 2.259498
-1.612518 1.411264 2.256364
-1.574522 1.424236 2.271090
-1.598335 1.414042 2.261602
-1.606050 1.432331 2.257664
-1.571680 1.438622 2.271120
-1.578034 1.457297 2.266809
-1.557543 1.413134 2.280565
-1.558538 1.427677 2.279046
-1.567752 1.454252 2.271720
-1.545002 1.446532 2.284832
-1.426756 1.241445 2.256281
-1.422646 1.245811 2.256948
-1.385686 1.284627 2.256605
-1.384628 1.309880 2.276105
-1.362463 1.312803 2.255321
-1.378676 1.316975 2.275133
-1.358114 1.359993 2.280656
-1.364657 1.342962 2.278017
-1.344240 1.356032 2.264125
-1.349995 1.335651 2.258860
-1.353246 1.380582 2.286013
-1.348115 1.387354 2.284142
-1.332286 1.399197 2.274090
-1.297031 1.425598 2.255630
-1.296361 1.449067 2.262258
-1.309645 1.448952 2.273380
-1.479980 1.418596 2.333056
-1.493264 1.414884 2.322779
-1.471586 1.425164 2.338373
-1.496272 1.454291 2.321586
-1.498767 1.440322 2.319726
-1.472453 1.430302 2.338712
-1.472655 1.458923 2.340373
-1.425308 1.406090 2.344646
-1.429436 1.398787 2.343640
-1.384257 1.425391 2.333391
-1.400157 1.425613 2.341427
-1.405237 1.430691 2.344954
-1.379081 1.424413 2.329016
-1.363158 1.455613 2.323368
-1.374073 1.431027 2.326881
-1.495564 1.464129 2.322362
-1.491388 1.477556 2.325369
-1.458755 1.463379 2.348016
-1.469557 1.487553 2.341504
-1.484699 1.499218 2.329386
-1.488106 1.511679 2.324533
-1.466279 1.492054 2.343343
-1.458076 1.516438 2.344430
-1.399750 1.515538 2.345620
-1.480051 1.548418 2.324066
-1.452269 1.531068 2.344749
-1.460443 1.545709 2.336719
-1.454595 1.567117 2.333662
-1.468467 1.575057 2.323485
-1.436952 1.551524 2.342934
-1.424141 1.535803 2.346747
-1.397443 1.526961 2.341492
-1.385921 1.550030 2.326290
-1.396882 1.550023 2.332493
-1.418184 1.583773 2.329053
-1.433558 1.571491 2.336189
-1.401381 1.568504 2.327247
-1.366159 1.483219 2.327779
-1.382416 1.488969 2.340805
-1.371239 1.503874 2.329809
-1.381845 1.496422 2.339580
-1.381801 1.552878 2.322429
-1.458818 1.591096 2.323990
-1.454165 1.621881 2.318047
-1.437960 1.613987 2.320983
-1.423552 1.592642 2.326025
-2.059299 1.148806 -0.855289
-2.052439 1.181501 -0.860406
-2.039123 1.194673 -0.853302
-2.033005 1.229617 -0.862230
-2.025959 1.248941 -0.861739
-2.016109 1.324522 -0.859644
-2.015980 1.352833 -0.851529
-2.075744 0.800326 -0.785712
-2.074476 0.805038 -0.784283
-2.063771 0.823938 -0.763596
-2.065254 0.818128 -0.765553
-2.059368 0.860678 -0.759047
-2.072154 0.844400 -0.786944
-2.060010 0.881927 -0.762371
-2.062154 0.868301 -0.765717
-2.066056 0.924715 -0.780100
-2.059682 0.898632 -0.763554
-2.054707 0.927744 -0.758374
-2.011243 0.977462 -0.689480
-1.659750 1.422012 -0.079950
-1.663015 1.407186 -0.092989
-1.655529 1.448454 -0.068017
-1.651184 1.489627 -0.070601
-1.660521 1.464017 -0.085424
-1.642167 1.518124 -0.071455
-1.634465 1.392205 0.029779
-1.632156 1.425218 0.029675
-1.629081 1.404123 0.052573
-1.623182 1.455950 0.042420
-1.628846 1.436880 0.035423
-1.517226 1.482565 0.236706
-1.525636 1.466072 0.236791
-1.514044 1.506920 0.225193
-1.496940 1.513707 0.246867
-1.303366 1.482797 0.605160
-1.299871 1.510047 0.593598
-1.285796 1.529814 0.615976
-1.267027 1.585278 0.616070
-1.279017 1.557814 0.610865
-1.259400 1.603836 0.618751
-1.264693 1.586034 0.621121
-1.263511 1.617827 0.596528
-1.256693 1.627389 0.607161
-1.357472 1.338058 0.637429
-1.349108 1.348980 0.644955
-1.334922 1.370192 0.652616
-1.333434 1.378711 0.642229
-1.317559 1.410667 0.644846
-1.304667 1.442679 0.643681
-1.306941 1.438535 0.641226
-1.420847 1.236376 0.754910
-1.415656 1.242787 0.752667
-1.393233 1.268416 0.765203
-1.389621 1.269514 0.780094
-1.391839 1.274339 0.749293
-1.390677 1.273083 0.760929
-1.361313 1.317695 0.773412
-1.368565 1.307325 0.767827
-1.358121 1.325561 0.751199
-1.383404 1.208809 1.135505
-1.370185 1.230700 1.137126
-1.379441 1.214245 1.146738
-1.357575 1.251431 1.132693
-1.351581 1.260778 1.155733
-1.328342 1.301894 1.148411
-1.341906 1.277453 1.141570
-1.325514 1.307326 1.150163
-1.313380 1.329654 1.134587
-1.299527 1.356317 1.138967
-1.267242 1.427395 1.141043
-1.279547 1.397535 1.141666
-1.265482 1.433810 1.151484
-1.264569 1.432481 1.136092
-1.256090 1.451944 1.132765
-1.237484 1.483142 1.265363
-1.251253 1.461207 1.266319
-1.231502 1.493195 1.252441
-1.224819 1.502068 1.253109
-1.202103 1.528956 1.266877
-1.190669 1.542057 1.272450
-1.168072 1.575888 1.272232
-1.179867 1.556993 1.263000
-1.151936 1.616385 1.264905
-1.158083 1.599088 1.278622
-1.147230 1.642046 1.264723
-1.150579 1.620995 1.253596
-1.381090 1.213252 1.346635
-1.382123 1.214671 1.365565
-1.352247 1.263084 1.369687
-1.364537 1.243415 1.371611
-1.349106 1.267463 1.356469
-1.336408 1.291553 1.360313
-1.345147 1.274767 1.355734
-1.324320 1.316195 1.350669
-1.314031 1.333982 1.372295
-1.319367 1.327005 1.352174
-1.314860 1.337958 1.346916
-1.312034 1.342674 1.353830
-1.292907 1.385726 1.347633
-1.294895 1.376988 1.370389
-1.271994 1.425053 1.371518
-1.280668 1.411566 1.347461
-1.265985 1.436019 1.371630
-1.252175 1.459643 1.365132
-1.257338 1.451089 1.369791
-1.415218 1.262970 1.796172
-1.431941 1.247795 1.805345
-1.408937 1.264295 1.808575
-1.387448 1.281063 1.795651
-1.396577 1.273737 1.804762
-1.371800 1.287542 1.806672
-1.368817 1.292124 1.790566
-1.329026 1.312536 1.801665
-1.340211 1.305053 1.813742
-1.298010 1.328157 1.807878
-1.308908 1.323398 1.796194
-1.260649 1.347385 1.801200
-1.251342 1.352940 1.809722
-1.247567 1.358712 1.789817
-1.232509 1.371860 1.802170
-1.215853 1.423527 1.795444
-1.220162 1.405139 1.804475
-1.209075 1.449497 1.814971
-1.328062 1.335932 2.061630
-1.305905 1.360892 2.054533
-1.310504 1.355896 2.049440
-1.297030 1.371670 2.042831
-1.278277 1.393833 2.043770
-1.261229 1.414664 2.043913
-1.268831 1.405431 2.051063
-1.241449 1.440629 2.053437
-2.133855 1.447995 -0.737673
-2.122622 1.449021 -0.745252
-2.118037 1.443780 -0.755627
-2.094846 1.458778 -0.754582
-2.007560 1.141420 -0.749234
-2.010156 1.128209 -0.751876
-2.003209 1.177099 -0.753931
-2.003845 1.160812 -0.746706
-1.996693 1.181847 -0.734734
-1.990650 1.233705 -0.755041
-1.995658 1.211443 -0.754405
-1.983221 1.256118 -0.742970
-1.983648 1.270395 -0.755840
-1.983009 1.245218 -0.735033
-1.977039 1.271286 -0.728711
-1.980207 1.274945 -0.744830
-1.968022 1.330174 -0.751206
-1.972401 1.314827 -0.750950
-1.957723 1.358722 -0.748605
-1.966308 1.337335 -0.753481
-1.952101 1.366184 -0.741747
-1.947092 1.364232 -0.726261
-1.937274 1.396684 -0.730827
-1.734068 1.471280 -0.489011
-1.727678 1.484505 -0.481518
-1.726679 1.487826 -0.497019
-1.711012 1.514935 -0.476687
-1.723291 1.494225 -0.492364
-1.707084 1.524415 -0.486601
-1.693000 1.550911 -0.486163
-1.680471 1.576144 -0.484272
-1.688799 1.559111 -0.485800
-1.677552 1.587147 -0.501726
-1.658088 1.642957 -0.489678
-1.391775 1.234033 0.891832
-1.365418 1.234600 1.297819
-1.367413 1.230254 1.286636
-1.353721 1.256752 1.291287
-1.346765 1.270970 1.300415
-1.338191 1.290007 1.312437
-1.343058 1.279262 1.305078
-1.326226 1.316769 1.290780
-1.318942 1.332965 1.285529
-1.305878 1.361081 1.303869
-1.289317 1.394175 1.297913
-1.291751 1.387710 1.283027
-1.272844 1.425661 1.296861
-1.281509 1.409557 1.298224
-1.259087 1.450493 1.303740
-1.269452 1.430379 1.287530
-1.401061 1.216272 1.496158
-1.363629 1.262909 1.484090
-1.377955 1.242692 1.481969
-1.372892 1.256279 1.500412
-1.336694 1.298681 1.492566
-1.350276 1.283240 1.494239
-1.321828 1.318411 1.496134
-1.329154 1.305765 1.484211
-1.317269 1.318949 1.472662
-1.316009 1.325460 1.490431
-1.306572 1.343601 1.497549
-1.308797 1.337552 1.489201
-1.278578 1.390657 1.494465
-1.280585 1.389204 1.474876
-1.272140 1.403591 1.473986
-1.270814 1.404026 1.485598
-1.249352 1.439517 1.478469
-1.245636 1.442938 1.494812
-1.418940 1.228869 2.033166
-1.387222 1.270213 2.026202
-1.392754 1.262927 2.029263
-1.382226 1.275994 2.032492
-1.357035 1.308958 2.021306
-1.356606 1.309451 2.006033
-1.351378 1.315314 2.004637
-1.340169 1.326782 2.028128
-1.309669 1.357959 2.016597
-1.319263 1.348078 2.016278
-1.294760 1.373709 2.022215
-1.297505 1.370703 2.024287
-1.284191 1.385252 2.008160
-1.262710 1.410924 2.016273
-1.269253 1.403126 2.015668
-1.254158 1.421802 2.023127
-1.232445 1.447098 2.024323
-1.242234 1.434839 2.019523
-1.226209 1.456243 2.033711
-2.074787 1.438402 -0.794366
-2.059019 1.447935 -0.792102
-2.043634 1.448701 -0.797422
-2.018810 1.456947 -0.797606
-2.036479 1.430307 -0.815216
-2.010403 1.195167 -0.789384
-2.006799 1.233091 -0.807523
-2.005085 1.219984 -0.791729
-1.993062 1.271529 -0.796920
-2.000314 1.240961 -0.793644
-1.989527 1.291280 -0.803356
-1.985244 1.297569 -0.791279
-1.986715 1.307665 -0.811909
-1.984599 1.322722 -0.814861
-1.976913 1.332402 -0.792317
-1.976216 1.354487 -0.799856
-1.984772 1.376688 -0.819297
-1.971145 1.374802 -0.793469
-1.990908 1.427631 -0.810359
-1.989523 1.410919 -0.815383
-1.970605 1.416059 -0.796381
-1.978267 1.399861 -0.808362
-2.005338 1.449030 -0.802172
-1.981442 1.446702 -0.800308
-1.967588 1.451769 -0.793598
-1.989950 1.464202 -0.794744
-2.004915 0.965359 -0.658535
-2.000665 0.961611 -0.635530
-2.000945 1.016606 -0.648384
-2.001547 1.000460 -0.649374
-2.000293 1.051460 -0.643288
-1.999388 1.027307 -0.632794
-1.999294 1.082850 -0.657783
-2.000769 1.052307 -0.652007
-1.997377 1.093612 -0.635742
-1.997259 1.098315 -0.651690
-1.992117 1.130589 -0.646300
-1.992869 1.126601 -0.646764
-1.984475 1.165160 -0.633799
-1.984478 1.169822 -0.659460
-1.979563 1.190138 -0.653826
-1.975614 1.198304 -0.633733
-1.968511 1.230754 -0.651042
-1.954143 1.263051 -0.639756
-1.963564 1.251555 -0.659122
-1.950417 1.288897 -0.657373
-1.947687 1.295018 -0.656243
-1.918504 1.331855 -0.636340
-1.931111 1.328002 -0.655221
-1.937191 1.309392 -0.649329
-1.925609 1.335302 -0.652320
-1.909403 1.347232 -0.635209
-1.896208 1.397375 -0.657892
-1.896748 1.388065 -0.650576
-1.909564 1.368192 -0.654092
-1.886811 1.408881 -0.654207
-1.881069 1.394334 -0.635167
-1.557965 1.342439 0.302649
-1.561492 1.339786 0.299031
-1.529472 1.393070 0.293426
-1.509976 1.426048 0.296405
-1.520854 1.408170 0.294152
-1.524391 1.399781 0.295758
-1.491684 1.454621 0.302540
-1.493441 1.300744 0.483957
-1.491266 1.310545 0.468635
-1.460285 1.328759 0.480611
-1.451249 1.339871 0.476214
-1.430655 1.362670 0.473629
-1.434698 1.360816 0.470334
-1.434436 1.342919 0.497186
-1.407454 1.392291 0.472216
-1.396240 1.391877 0.489323
-1.404721 1.390376 0.478177
-1.399252 1.407324 0.471972
-1.400285 1.410311 0.468640
-1.384793 1.434801 0.475732
-1.383489 1.440357 0.475445
-1.379340 1.420803 0.491311
-1.372634 1.448095 0.487784
-1.245243 1.473258 1.121329
-1.245797 1.468143 1.094698
-1.233711 1.497159 1.115054
-1.217366 1.532847 1.123550
-1.218149 1.535196 1.104034
-1.207448 1.558512 1.110561
-1.192329 1.584037 1.125461
-1.185639 1.602723 1.113349
-1.166007 1.640424 1.113035
-1.171210 1.621385 1.123433
-1.384288 1.220145 1.436236
-1.391215 1.209659 1.435240
-1.378123 1.226376 1.412158
-1.358303 1.258071 1.423373
-1.357564 1.257740 1.410846
-1.329938 1.297915 1.436683
-1.340152 1.283876 1.414768
-1.320779 1.311759 1.423493
-1.309233 1.330989 1.434527
-1.303074 1.348388 1.411857
-1.303395 1.343288 1.434046
-1.281315 1.396537 1.416813
-1.287476 1.382646 1.418666
-1.261334 1.426788 1.438164
-1.269156 1.419167 1.416766
-1.260725 1.430357 1.428166
-1.253001 1.440377 1.438645
-1.289304 1.355193 1.684825
-1.318879 1.334827 1.687051
-1.278181 1.363276 1.690300
-1.258650 1.383683 1.660103
-1.243602 1.396101 1.685853
-1.240426 1.399338 1.689166
-1.222312 1.427776 1.669750
-1.208653 1.449984 1.678979
-1.216537 1.435244 1.680539
-1.138187 1.613780 2.077378
-1.141156 1.607501 2.075110
-1.236449 1.470825 2.134506
-1.234295 1.482895 2.152692
-1.230941 1.494905 2.158863
-1.219715 1.521004 2.145953
-1.202740 1.541327 2.133554
-1.199978 1.544953 2.132794
-1.214482 1.533469 2.146880
-1.197965 1.562513 2.150081
-1.191790 1.563972 2.141774
-1.186288 1.564102 2.133012
-1.171814 1.598339 2.154445
-1.154584 1.613068 2.140746
-1.141033 1.646474 2.145937
-1.134589 1.648388 2.133704
-1.148447 1.630397 2.146136
-1.260114 1.496258 2.222829
-1.271971 1.552089 2.222162
-1.265039 1.527600 2.221656
-1.266926 1.555991 2.217926
-1.930730 1.420584 -0.731327
-1.940353 1.418470 -0.750570
-1.919199 1.450487 -0.730635
-1.931230 1.429059 -0.737582
-2.110574 1.468733 -0.730685
-2.097495 1.461738 -0.748907
-2.096325 1.473983 -0.735829
-2.083637 1.467809 -0.752540
-2.078214 1.492515 -0.728314
-2.060584 1.484481 -0.749790
-2.045604 1.517138 -0.725778
-2.042863 1.510681 -0.734326
-2.032499 1.506709 -0.745453
-2.024411 1.520032 -0.737574
-2.018980 1.527683 -0.734415
-1.922367 1.465603 -0.747907
-1.902668 1.480829 -0.730981
-1.910927 1.460239 -0.726412
-1.892912 1.518304 -0.736053
-1.904717 1.497458 -0.743272
-2.009441 1.524754 -0.743692
-1.986479 1.535985 -0.748115
-1.966044 1.546899 -0.747603
-1.982860 1.556965 -0.732419
-1.977649 1.554698 -0.737118
-1.950559 1.561113 -0.742542
-1.921341 1.554042 -0.748001
-1.925832 1.533969 -0.754877
-1.910491 1.537773 -0.747150
-1.887420 1.549878 -0.734832
-1.926375 1.576189 -0.738235
-1.939833 1.558099 -0.746490
-1.913030 1.555444 -0.745695
-1.911289 1.571232 -0.737990
-1.901499 1.570984 -0.734018
-1.878359 1.543093 -0.728175
-1.877101 1.576579 -0.727906
-2.335610 1.574395 -0.515292
-2.324921 1.567617 -0.527004
-2.319158 1.560652 -0.535647
-2.309597 1.608431 -0.507449
-2.302132 1.616381 -0.506222
-2.307770 1.599740 -0.515780
-2.279359 1.613406 -0.525066
-2.271869 1.620035 -0.525029
-2.258410 1.622557 -0.532603
-1.671033 1.396625 -0.117113
-1.664243 1.390694 -0.103827
-1.668850 1.414952 -0.106327
-1.665663 1.407355 -0.100484
-1.672831 1.441479 -0.115851
-1.580929 1.361741 0.226763
-1.585573 1.343484 0.235676
-1.571978 1.373998 0.235350
-1.567848 1.391015 0.227021
-1.545239 1.417018 0.245749
-1.569271 1.399399 0.216696
-1.540738 1.433508 0.239220
-1.537478 1.452109 0.228525
-1.518500 1.461286 0.252478
-1.502249 1.472219 0.269479
-1.488696 1.512874 0.260269
-1.491541 1.492585 0.269164
-1.361169 1.349481 0.608216
-1.370187 1.341971 0.599470
-1.367989 1.348889 0.594849
-1.332141 1.397087 0.616087
-1.331322 1.416323 0.595219
-1.319702 1.438533 0.600795
-1.318972 1.431561 0.610491
-1.300998 1.467697 0.624197
-1.288485 1.509132 0.624433
-1.280792 1.502305 0.652283
-1.273250 1.547793 0.633799
-1.282734 1.527797 0.625600
-1.267202 1.572016 0.627376
-1.252046 1.585042 0.652745
-1.254535 1.598425 0.636364
-1.241325 1.642316 0.648736
-1.245813 1.620241 0.643750
-3.614295 1.969502 0.669241
-1.391698 1.220438 1.008429
-1.395448 1.212064 1.031020
-1.370755 1.240065 1.030523
-1.366356 1.245341 1.029060
-1.349442 1.265328 1.030490
-1.350730 1.265126 1.017045
-1.336975 1.285514 1.001723
-1.343276 1.274953 1.019169
-1.310375 1.321066 1.030401
-1.317018 1.313084 1.001134
-1.290702 1.354247 1.022627
-1.271396 1.396771 1.026212
-1.281436 1.372987 1.020408
-1.267161 1.408544 1.006323
-1.270651 1.398104 1.005605
-1.259749 1.432926 1.030353
-1.251375 1.457309 1.022597
-1.391994 1.226267 2.187501
-1.401609 1.213663 2.181232
-1.364794 1.262539 2.186029
-1.376080 1.246836 2.188579
-1.373502 1.249280 2.181898
-1.356618 1.275180 2.189989
-1.347372 1.285801 2.168638
-1.347029 1.288171 2.179957
-1.322312 1.327200 2.170894
-1.330671 1.313936 2.171560
-1.302241 1.357423 2.164523
-1.309440 1.347735 2.182117
-1.292420 1.373800 2.184418
-1.283087 1.386470 2.177381
-1.273574 1.400550 2.171803
-1.243569 1.459349 2.182393
-1.289378 1.596729 2.239667
-1.311674 1.593878 2.251474
-1.280332 1.607845 2.239025
-1.277489 1.627287 2.249150
-1.283256 1.631900 2.253081
-1.257468 1.600218 2.224686
-1.246873 1.646363 2.249584
-1.236168 1.618987 2.226685
-1.217179 1.647394 2.235825
-1.198656 1.649534 2.224703
-1.549908 1.488147 0.181762
-1.550587 1.505041 0.173685
-1.560940 1.499428 0.159774
-1.553084 1.528431 0.159370
-1.541183 1.534752 0.172129
-1.534442 1.536478 0.180490
-1.526343 1.575880 0.167020
-1.517295 1.593589 0.169347
-1.525268 1.586864 0.161529
-1.459072 1.484966 0.335733
-1.453787 1.522473 0.314062
-1.452758 1.513239 0.323748
-1.455287 1.504738 0.325815
-1.384210 1.234978 0.955513
-1.399092 1.218714 0.957481
-1.380385 1.241035 0.938730
-1.362836 1.261137 0.943412
-1.331091 1.300305 0.950109
-1.341766 1.288204 0.939178
-1.347618 1.276579 0.962403
-1.325105 1.309202 0.944776
-1.307056 1.333785 0.954242
-1.317756 1.320341 0.940672
-1.289214 1.363283 0.960671
-1.297348 1.351911 0.947294
-1.275681 1.391891 0.953961
-1.281170 1.378123 0.966976
-1.268448 1.409865 0.943706
-1.269665 1.404443 0.959686
-1.259524 1.428987 0.957217
-1.252033 1.451948 0.961397
-1.252947 1.449498 0.946706
-1.234030 1.472139 2.124423
-1.235932 1.462272 2.109256
-1.203669 1.517512 2.101343
-1.225434 1.495204 2.129468
-1.200997 1.535759 2.122151
-1.192661 1.543225 2.114776
-1.184698 1.562991 2.128343
-1.166161 1.582346 2.120214
-1.149002 1.602201 2.105595
-1.156621 1.599967 2.126001
-1.134297 1.630631 2.104546
-1.130225 1.640446 2.105973
-1.088731 1.741412 2.105612
-2.102478 0.765127 -0.859317
-2.101625 0.793309 -0.861177
-1.991189 0.922057 -0.590690
-1.994113 0.916291 -0.596261
-1.991506 0.943698 -0.596684
-1.988062 0.935478 -0.585819
-1.975740 1.032408 -0.521111
-1.980976 1.074343 -0.513533
-1.984194 1.066702 -0.534879
-1.981660 1.090801 -0.519082
-1.981694 1.106753 -0.533800
-1.972005 1.116168 -0.506070
-1.973196 1.121237 -0.514705
-1.959525 1.167489 -0.531632
-1.941499 1.173846 -0.508916
-1.921501 1.200750 -0.507476
-1.917346 1.205130 -0.506215
-1.930624 1.209216 -0.525194
-1.909278 1.235593 -0.522284
-1.917385 1.241896 -0.536848
-1.885876 1.262198 -0.518345
-1.888413 1.248753 -0.509448
-1.863731 1.299022 -0.522457
-1.871834 1.298137 -0.533672
-1.851851 1.310365 -0.516684
-1.827381 1.352606 -0.524898
-1.805562 1.397278 -0.532761
-1.811931 1.376767 -0.522716
-1.814160 1.385268 -0.536880
-1.795535 1.399485 -0.514391
-1.787116 1.405188 -0.506972
-1.788946 1.412410 -0.522927
-1.766737 1.434741 -0.522928
-1.750340 1.449947 -0.518111
-1.863996 1.225323 -0.463962
-1.880082 1.211011 -0.473872
-1.848415 1.235174 -0.451101
-1.861536 1.240583 -0.470998
-1.844331 1.265460 -0.463454
-1.842649 1.252044 -0.453503
-1.844595 1.274136 -0.469862
-1.831645 1.274565 -0.451347
-1.806965 1.319823 -0.445211
-1.801120 1.347593 -0.465473
-1.797059 1.360574 -0.472314
-1.793103 1.347059 -0.445210
-1.785204 1.381616 -0.469022
-1.774894 1.386770 -0.447571
-1.761010 1.424875 -0.474291
-1.771297 1.401016 -0.456817
-1.754103 1.427945 -0.448876
-1.753006 1.437073 -0.467816
-1.753742 1.429252 -0.450302
-2.388190 1.623674 -0.448165
-2.372975 1.610193 -0.466883
-2.378916 1.629933 -0.448602
-2.359134 1.623751 -0.465019
-2.346902 1.638981 -0.460467
-2.348002 1.621072 -0.473713
-1.753736 1.397317 -0.392831
-1.749140 1.417128 -0.400875
-1.744697 1.421218 -0.386116
-1.733975 1.456577 -0.397160
-1.739426 1.440162 -0.392692
-1.668082 1.465689 -0.111105
-1.663473 1.488555 -0.112958
-1.656065 1.507590 -0.111771
-1.660981 1.496327 -0.113251
-1.650608 1.528056 -0.126188
-1.639007 1.536992 -0.098707
-1.617195 1.569903 -0.102552
-1.621653 1.569603 -0.121573
-1.583533 1.609789 -0.099538
-1.597181 1.596875 -0.113773
-1.564645 1.632559 -0.101238
-1.564311 1.635998 -0.124677
-1.640807 1.465778 -0.025227
-1.639112 1.491809 -0.031971
-1.630188 1.511573 -0.018538
-1.622854 1.538948 -0.028873
-1.625153 1.528260 -0.018763
-1.604818 1.570832 -0.009638
-1.601648 1.576125 -0.009104
-1.586027 1.603150 -0.024994
-1.592209 1.593982 -0.023711
-1.570811 1.624835 -0.033205
-1.619350 1.385925 0.089639
-1.621288 1.414292 0.073900
-1.626588 1.399740 0.063798
-1.608490 1.460101 0.080339
-1.621264 1.428823 0.066023
-1.376121 1.226558 1.384803
-1.370716 1.236676 1.403647
-1.361859 1.250443 1.403470
-1.338318 1.286624 1.401176
-1.343186 1.279254 1.396598
-1.324596 1.310549 1.380344
-1.325743 1.305956 1.396852
-1.316222 1.321781 1.407730
-1.312333 1.336645 1.376936
-1.302010 1.352516 1.404529
-1.291736 1.380771 1.384721
-1.294771 1.370948 1.396667
-1.285157 1.394071 1.390584
-1.267929 1.424140 1.403909
-1.278014 1.408562 1.391756
-1.252030 1.452755 1.398754
-1.254379 1.452363 1.385602
-1.259191 1.398553 1.592571
-1.247314 1.420909 1.574221
-1.249038 1.419064 1.572062
-1.237860 1.438546 1.566222
-1.422555 1.259860 1.634954
-1.419821 1.266575 1.659016
-1.411111 1.267556 1.634242
-1.423611 1.251124 1.817724
-1.430007 1.242038 1.833118
-1.408998 1.256138 1.840388
-1.408747 1.260486 1.824047
-1.352447 1.295092 1.846672
-1.359973 1.291994 1.824007
-1.342785 1.302237 1.831123
-1.351775 1.296447 1.835856
-1.295814 1.329754 1.841671
-1.317625 1.316773 1.830326
-1.270609 1.345222 1.843072
-1.279235 1.338338 1.837051
-1.251265 1.352027 1.815979
-1.253638 1.358312 1.847052
-1.234478 1.383293 1.844276
-1.222878 1.392244 1.821662
-1.222510 1.419173 1.846541
-1.225295 1.403760 1.842681
-1.213329 1.441116 1.825662
-1.216542 1.439586 1.842347
-1.416980 1.238697 1.910856
-1.404087 1.250974 1.925231
-1.384692 1.270306 1.927854
-1.391902 1.262631 1.911317
-1.356969 1.293570 1.914136
-1.366481 1.285640 1.919005
-1.338975 1.315818 1.938697
-1.330830 1.321197 1.931576
-1.330593 1.316066 1.914257
-1.307863 1.345274 1.936616
-1.289712 1.359990 1.928185
-1.304381 1.339983 1.914256
-1.288483 1.364599 1.936479
-1.266410 1.390663 1.936149
-1.262893 1.390123 1.922883
-1.275041 1.371000 1.915034
-1.261987 1.389209 1.918150
-1.244342 1.419550 1.929569
-1.229289 1.441882 1.915656
-1.221973 1.453728 1.913654
-1.223290 1.452565 1.931475
-1.422098 1.228808 2.239990
-1.414633 1.232209 2.237199
-1.402994 1.251850 2.243187
-1.384516 1.263675 2.233864
-1.375610 1.271403 2.229270
-1.356428 1.298479 2.231056
-1.345466 1.330024 2.247642
-1.343725 1.316905 2.231162
-1.320698 1.359407 2.236873
-1.339287 1.336140 2.244139
-1.315175 1.365095 2.233428
-1.305811 1.397096 2.246236
-1.310385 1.383238 2.241482
-1.314331 1.371220 2.236402
-1.294565 1.400501 2.236154
-1.281191 1.408121 2.226727
-1.283512 1.455267 2.251122
-1.259079 1.449519 2.224901
-1.278060 1.431769 2.239941
-1.578416 1.467102 2.265471
-1.601765 1.465832 2.256473
-1.593332 1.480337 2.257679
-1.575805 1.495469 2.262032
-1.542822 1.482204 2.282225
-1.560205 1.465518 2.274640
-1.545589 1.507019 2.276533
-1.564180 1.505082 2.266029
-1.540106 1.499483 2.281178
-1.537066 1.518433 2.279916
-1.551464 1.544525 2.265779
