-5.962613 1.919063 5.502083
-5.983060 1.773546 5.564452
-5.968701 1.802820 5.573319
-5.944624 1.802015 5.593380
-7.565523 1.747411 3.176607
-7.567457 1.762210 3.171629
-7.553854 1.819516 3.192726
-7.547222 1.809346 3.206648
-7.548518 1.855166 3.189220
-7.539467 1.888093 3.184059
-7.512556 1.926867 3.184725
-7.347192 1.762519 3.387209
-7.343925 1.799187 3.386123
-7.300337 1.757702 3.421711
-7.319170 1.784229 3.405800
-7.296845 1.827498 3.414246
-7.316189 1.811689 3.403579
-7.278075 1.823785 3.428517
-7.292024 1.867739 3.402630
-7.273175 1.869972 3.414804
-7.266017 1.900967 3.399536
-7.280619 1.904244 3.388485
-7.219910 1.921639 3.419536
-6.977999 1.754207 3.681325
-7.000288 1.777145 3.657079
-6.979891 1.806929 3.675049
-6.968029 1.802147 3.687472
-6.955901 1.906753 3.668587
-6.925474 1.928967 3.692590
-6.848693 1.895207 3.792321
-6.804511 1.920282 3.817364
-6.832987 1.908404 3.797509
-6.779829 1.758417 3.943126
-6.781610 1.809138 3.933436
-6.779622 1.814422 3.935008
-6.774707 1.848063 3.926551
-6.748981 1.875037 3.940645
-6.731545 1.893479 3.942282
-6.424161 1.913765 4.327270
-6.410358 1.925399 4.336552
-6.410014 1.901219 4.355277
-6.406398 1.897247 4.364685
-6.394598 1.894108 4.382334
-6.388244 1.913424 4.374506
-6.354661 1.788110 4.480256
-6.368751 1.811099 4.451939
-6.359255 1.867049 4.451136
-6.339355 1.883664 4.477878
-6.093018 1.769073 5.163594
-6.094532 1.763984 5.158831
-6.089680 1.779138 5.174243
-6.085375 1.778198 5.192217
-6.083607 1.864208 5.156133
-6.075036 1.878289 5.187076
-6.060812 1.919104 5.161906
-3.686127 0.237028 0.505588
-3.637998 0.210029 0.506046
-3.687953 0.289102 0.505930
-3.707685 -0.019196 0.549092
-3.667485 0.021815 0.538907
-3.681437 -0.021022 0.549738
-3.652030 0.021935 0.541110
-3.718323 0.058311 0.541349
-3.699781 0.099495 0.527709
-3.733511 0.099012 0.548082
-3.693208 0.054126 0.531668
-3.668769 0.041654 0.533477
-3.650419 0.047392 0.535300
-3.669520 0.104480 0.522569
-3.660484 0.104972 0.521226
-3.628474 0.078810 0.539292
-3.640838 0.092404 0.529534
-3.616222 0.072276 0.548172
-3.699784 0.133553 0.524781
-3.724241 0.163561 0.538642
-3.702806 0.192109 0.519638
-3.666278 0.136937 0.516808
-3.647168 0.114862 0.522843
-3.623618 0.139218 0.527647
-3.677340 0.164033 0.515404
-3.643122 0.192624 0.506927
-3.620821 0.183608 0.518004
-3.714893 0.225433 0.525899
-3.702958 0.282938 0.516427
-3.696733 0.203237 0.514179
-3.621340 0.219768 0.513223
-3.613160 0.224106 0.518648
-3.619180 0.276246 0.520185
-3.611552 0.285700 0.527520
-3.603242 0.006798 0.588559
-3.589297 0.040461 0.589356
-3.599681 0.026376 0.583294
-3.596097 0.077131 0.566282
-3.590524 0.130069 0.552547
-3.578138 0.168002 0.555652
-3.567516 0.187990 0.565216
-3.554032 0.199249 0.580998
-3.561215 0.157850 0.577019
-3.557821 0.203342 0.576475
-3.583224 0.307024 0.563132
-3.582349 0.301869 0.562986
-3.568388 0.373629 0.594576
-3.588156 0.346966 0.566947
-3.572898 0.357268 0.585900
-3.606314 0.407262 0.563235
-3.576385 0.384747 0.588375
-3.592514 0.447844 0.581225
-3.578982 0.455264 0.594265
-3.635209 0.501290 0.558664
-3.617391 0.491906 0.566816
-3.682699 0.540481 0.558262
-3.645469 0.518580 0.558089
-3.719302 0.560225 0.570586
-3.725334 0.626787 0.581993
-3.681150 0.565258 0.565190
-3.645178 0.567625 0.571036
-3.650848 0.610840 0.578286
-3.613586 0.608387 0.591840
-3.728418 0.644229 0.585535
-3.718299 0.670364 0.584280
-3.726566 0.718349 0.587256
-3.682709 0.674010 0.582525
-3.679294 0.656283 0.581385
-3.647088 0.658274 0.585750
-3.634030 0.644586 0.589077
-3.675106 0.731068 0.586325
-3.658680 0.727323 0.587842
-3.637030 0.726179 0.593186
-3.708838 0.805681 0.587398
-3.737080 -0.480069 0.633134
-3.712441 -0.427116 0.632113
-3.718904 -0.450517 0.633582
-3.696852 -0.423186 0.634318
-3.727030 -0.394662 0.628095
-3.706946 -0.388392 0.629702
-3.717376 -0.336492 0.624909
-3.674396 -0.388454 0.637530
-3.697122 -0.413248 0.633058
-3.665423 -0.333186 0.636716
-3.669569 -0.357564 0.636839
-3.738031 -0.271610 0.614320
-3.707865 -0.261788 0.616998
-3.657785 -0.302652 0.637501
-3.696262 -0.320824 0.626326
-3.643418 -0.243621 0.636616
-3.752688 -0.633772 0.682966
-3.732639 -0.520718 0.651575
-3.724389 -0.497796 0.645196
-3.692224 -0.503361 0.670826
-3.695168 -0.449235 0.641992
-3.628213 -0.441381 0.675346
-3.665437 -0.405556 0.642605
-3.623533 -0.341513 0.653367
-3.619209 -0.370117 0.655625
-3.651928 -0.300239 0.639716
-3.612919 -0.305148 0.657002
-3.745687 -0.739436 0.724087
-3.743461 -0.740279 0.725947
-3.755609 -0.710873 0.707187
-3.723505 -0.689444 0.726572
-3.731792 -0.710956 0.725827
-3.743894 -0.658543 0.698424
-3.725530 -0.676051 0.721586
-3.711422 -0.604462 0.716138
-3.720685 -0.636667 0.716878
-3.663455 -0.655239 0.789076
-3.650150 -0.643888 0.802926
-3.659203 -0.629782 0.785373
-3.650847 -0.622829 0.794035
-3.652774 -0.583556 0.774375
-3.752989 -0.957732 0.854121
-3.717790 -0.928433 0.853077
-3.737920 -0.925065 0.826062
-3.686515 -0.867894 0.856044
-3.689831 -0.838106 0.835680
-3.677695 -0.810422 0.838071
-3.762717 -0.973386 0.878688
-3.767115 -0.977083 0.884603
-3.729479 -0.970171 0.896100
-2.660654 1.293409 1.396629
-2.646679 1.286179 1.426308
-2.646557 1.319429 1.418353
-2.641457 1.375530 1.417762
-2.661661 1.433837 1.396706
-2.660281 1.425335 1.395604
-2.666821 1.460032 1.411041
-2.662700 1.445252 1.403563
-2.704823 1.523714 1.430457
-2.698785 1.503629 1.396936
-2.729166 1.546518 1.427122
-3.588743 1.921013 0.772377
-3.563406 1.906515 0.792565
-3.541945 1.907034 0.815913
-3.540485 1.921242 0.823278
-3.496079 1.893205 0.858292
-2.737493 1.524792 1.333154
-2.688390 1.397891 1.344802
-2.703535 1.453362 1.343987
-2.743594 1.535457 1.326715
-2.768166 1.598894 1.320972
-2.792188 1.674295 1.308359
-2.803162 1.709812 1.317424
-2.724670 1.539320 1.414691
-2.712499 1.529438 1.422867
-2.637248 -0.920739 1.905435
-3.587043 1.272187 0.598992
-3.597083 1.284222 0.600241
-3.568748 1.277432 0.616781
-3.599260 1.307483 0.615512
-3.581608 -0.430562 0.702755
-3.591510 -0.452000 0.715550
-2.829722 1.834626 1.225317
-2.850083 1.864745 1.240224
-2.519503 0.530815 1.778945
-2.510888 0.514471 1.788451
-2.537338 0.577142 1.746874
-2.508783 0.608162 1.767754
-2.501377 0.614093 1.784529
-2.509733 0.684837 1.779324
-2.504956 0.658912 1.774746
-2.521484 0.724326 1.776565
-2.516113 0.713107 1.763140
-2.531605 0.754068 1.772134
-2.526793 0.742673 1.768264
-2.565465 0.821813 1.761543
-3.746159 -0.851523 0.770366
-3.743180 -0.825636 0.764650
-3.714238 -0.774736 0.771921
-3.710654 -0.721699 0.752555
-3.693005 -0.697305 0.764532
-3.709198 -0.652576 0.733780
-3.687701 -0.663277 0.761312
-3.695832 -0.668934 0.753187
-3.672731 -0.608506 0.761505
-3.510649 1.763985 0.843651
-3.520380 1.811541 0.832356
-3.761906 -0.904175 0.790024
-3.721480 -0.869487 0.806791
-3.717623 -0.873293 0.813639
-3.722824 -0.853609 0.797529
-3.701483 -0.798611 0.799301
-3.691316 -0.780248 0.802701
-3.684759 -0.739347 0.791065
-3.678109 -0.688741 0.780252
-3.675189 -0.704317 0.789927
-2.655913 1.068797 1.566589
-2.646770 1.125753 1.549000
-2.650841 1.098848 1.531652
-2.643519 1.144231 1.567266
-2.646043 1.129830 1.555440
-2.637418 1.184574 1.541337
-2.489642 0.504118 1.811492
-2.478569 0.484896 1.825015
-2.476428 0.550210 1.830819
-2.491277 0.513814 1.808524
-2.480519 0.574863 1.832373
-2.497052 0.588069 1.792991
-2.498803 0.637010 1.817114
-2.508969 0.662759 1.828922
-2.508426 0.679127 1.793630
-2.502579 0.653219 1.803563
-2.518023 0.694980 1.811123
-3.706500 -0.213645 0.606991
-3.723168 -0.177061 0.596746
-3.666397 -0.230049 0.623789
-3.630090 -0.199321 0.632123
-3.688993 -0.175719 0.600176
-3.645879 -0.158878 0.613000
-3.640709 -0.176907 0.620853
-3.617393 -0.189829 0.637373
-3.646555 -0.141945 0.609509
-3.627223 -0.140082 0.621792
-3.650731 -0.109734 0.599514
-3.611869 -0.105987 0.625415
-3.613817 -0.029074 0.594925
-3.614048 1.362304 0.640621
-3.659691 1.424994 0.641162
-3.635786 1.432402 0.663576
-3.644377 1.403423 0.642981
-3.649960 1.466874 0.665001
-3.648767 1.442277 0.657615
-3.666405 1.521368 0.664841
-3.689960 1.503434 0.644730
-3.642989 1.493899 0.677585
-3.566308 -0.397725 0.692003
-3.561125 -0.238227 0.684433
-3.482902 1.926663 0.885550
-3.445404 1.901688 0.896750
-3.046903 1.912845 1.090057
-3.032535 1.900041 1.087137
-3.066458 1.927109 1.092857
-2.982221 1.894318 1.123614
-2.529282 0.419239 1.789822
-2.523241 0.464269 1.785844
-2.548249 -0.560066 1.832162
-2.530719 -0.514347 1.801881
-2.528579 -0.481877 1.827385
-2.512071 -0.447119 1.821270
-2.500316 -0.380111 1.834612
-2.485518 -0.394285 1.801954
-2.491867 -0.335216 1.832165
-2.490608 -0.318148 1.833668
-2.472081 -0.331492 1.796640
-2.472146 -0.278855 1.798360
-2.472348 -0.279208 1.799181
-2.481174 -0.201793 1.809495
-2.477504 -0.233356 1.804122
-2.481792 -0.191089 1.810775
-2.493059 -0.146203 1.807005
-2.541036 -0.080931 1.801569
-2.539580 -0.086553 1.798420
-2.517642 -0.101897 1.806828
-2.532159 -0.036743 1.822519
-2.546019 -0.057305 1.801019
-2.534680 0.010900 1.818351
-2.534799 0.054495 1.808582
-2.533059 0.048609 1.812958
-2.540797 0.035562 1.803747
-2.536504 0.103009 1.795130
-2.538358 0.070551 1.797010
-2.619264 -0.864891 1.903651
-2.632877 -0.888795 1.887444
-2.615024 -0.842649 1.886233
-2.597360 -0.774522 1.906675
-2.604055 -0.804031 1.896739
-2.594172 -0.760264 1.902258
-2.587935 -0.734975 1.894994
-2.578773 -0.699139 1.888066
-2.568144 -0.662031 1.879358
-2.565881 -0.636489 1.888216
-2.573429 -0.567186 1.908288
-2.565383 -0.578594 1.889707
-2.554099 -0.489857 1.879971
-2.562960 -0.500559 1.891990
-2.546721 -0.444108 1.887300
-2.548038 -0.418668 1.900290
-2.534083 -0.355966 1.899333
-2.507667 -0.253269 1.880698
-2.515218 -0.177198 1.899479
-2.517995 -0.077468 1.891337
-2.517381 -0.106440 1.898736
-3.582166 0.480113 0.593372
-3.600164 0.541427 0.586775
-3.609031 0.566799 0.586059
-3.584047 1.022300 0.581730
-3.543580 1.033002 0.590584
-3.601578 1.060511 0.568292
-3.570740 1.048715 0.577543
-3.549475 1.082812 0.578043
-3.544816 1.058837 0.584335
-3.587304 1.114756 0.564162
-3.560661 1.125510 0.571311
-3.552464 1.096781 0.577126
-3.532684 1.156260 0.591237
-3.584413 1.176340 0.568829
-3.558540 1.213892 0.590286
-3.557680 1.206001 0.588243
-3.580554 1.248572 0.591258
-3.577102 1.221450 0.582566
-3.597596 1.275718 0.594336
-3.573417 0.476224 0.599781
-3.554032 0.508390 0.614153
-3.570786 0.531339 0.605549
-3.558648 0.537313 0.613976
-3.552628 0.581446 0.621804
-3.578336 0.629762 0.612235
-3.551159 0.613964 0.625833
-3.589287 0.678255 0.610358
-3.571274 0.659893 0.618303
-3.579146 0.725272 0.620492
-3.577646 0.687515 0.617037
-3.573298 0.772334 0.629727
-3.604561 0.805336 0.620818
-3.609038 0.839652 0.618740
-3.596774 0.862076 0.619314
-3.601547 0.889846 0.611930
-3.552681 0.906059 0.621763
-3.575720 0.916647 0.611415
-3.544308 0.945019 0.613932
-3.596704 0.961317 0.595100
-3.758024 -0.985085 0.904911
-2.945765 1.746407 1.116158
-2.974247 1.762931 1.098147
-2.957777 1.778237 1.108620
-3.008139 1.846136 1.083796
-3.001365 1.841935 1.087837
-2.986475 1.812480 1.094296
-2.973414 1.800537 1.100620
-2.983574 1.881556 1.113620
-2.950876 1.848400 1.124436
-2.878304 1.748036 1.149669
-2.897622 1.784557 1.139628
-2.871046 1.763654 1.153100
-2.847751 1.774392 1.165977
-2.882559 1.837405 1.159541
-2.866556 1.816630 1.162337
-2.871069 1.802996 1.155342
-2.849198 1.801517 1.169186
-2.649546 1.216390 1.445734
-2.645862 1.185965 1.476807
-2.644592 1.225371 1.455322
-2.638398 1.220906 1.478057
-2.634911 1.241868 1.476521
-2.632668 1.289025 1.463489
-2.634034 1.345797 1.436780
-2.631900 1.324035 1.452621
-2.635803 1.317819 1.442908
-2.618104 1.371529 1.475097
-2.651131 1.471501 1.464223
-2.685523 1.510775 1.461138
-2.676685 1.498553 1.442424
-3.256690 1.798052 0.938224
-3.410585 1.923807 0.926095
-3.424927 1.905096 0.905675
-3.352152 1.908659 0.935253
-3.373282 1.904390 0.926538
-3.322267 1.902399 0.937701
-3.315937 1.897784 0.935441
-3.271866 1.888108 0.946002
-2.634120 1.237019 1.486482
-2.625566 1.267615 1.521392
-2.629181 1.269188 1.485034
-2.618386 1.346700 1.481565
-2.614775 1.340132 1.522229
-2.616208 1.362865 1.489820
-2.614047 1.363144 1.510048
-2.617074 1.415855 1.520987
-2.650424 1.476854 1.481888
-2.660390 1.489515 1.481756
-2.521542 -0.022057 1.861222
-2.518347 -0.050557 1.860179
-2.520158 0.003840 1.860601
-2.515741 0.025154 1.877645
-2.513972 0.095277 1.860275
-2.515850 0.073081 1.841885
-2.514931 0.133167 1.836103
-2.507713 0.160253 1.878770
-2.502457 0.213300 1.871258
-2.504040 0.285402 1.847737
-2.499383 0.278739 1.876283
-2.501011 0.324825 1.854343
-2.501250 0.293218 1.863621
-2.498720 0.373049 1.838915
-2.493562 0.361965 1.862175
-2.481062 0.406515 1.860620
-2.488870 0.378126 1.866456
-3.603107 -0.086512 0.627907
-3.597593 -0.049858 0.623631
-3.584332 -0.052791 0.636085
-3.575818 0.020965 0.617508
-3.585461 0.010815 0.608980
-3.557717 0.048681 0.628018
-3.553679 0.044135 0.635835
-3.549163 0.110018 0.609917
-3.546430 0.090588 0.623275
-3.557314 0.077730 0.613123
-3.526603 0.154457 0.625594
-3.541542 0.143386 0.607637
-3.530590 0.126098 0.630479
-3.530097 0.163590 0.618992
-3.545043 0.225611 0.595331
-3.533119 0.206055 0.609618
-3.541787 0.266198 0.604109
-3.540161 0.303028 0.609278
-3.546425 0.347301 0.610301
-3.548246 0.388774 0.614157
-3.546115 0.408232 0.617684
-3.567001 0.435446 0.602880
-3.566368 0.427414 0.603035
-3.557592 0.458358 0.610802
-2.723518 1.543142 1.437183
-2.585940 0.792568 1.636007
-2.507965 -0.473769 1.781574
-2.501849 -0.459880 1.772432
-2.484838 -0.415601 1.778906
-2.472468 -0.368944 1.771495
-2.467979 -0.325888 1.755097
-2.475913 -0.251345 1.781294
-2.471801 -0.279922 1.779539
-2.484519 -0.228935 1.781726
-2.507669 -0.166037 1.773571
-2.500737 -0.163897 1.778873
-2.492798 -0.187103 1.780241
-3.673885 1.545904 0.662903
-3.664079 1.542302 0.669332
-3.689311 1.608239 0.659546
-3.680305 1.583063 0.662553
-3.704699 1.665383 0.652973
-3.712046 1.690334 0.647557
-3.666453 1.648717 0.681222
-3.683735 1.637721 0.665904
-3.672767 1.668358 0.678303
-3.695583 1.725061 0.658389
-3.629125 1.784898 0.729541
-3.612452 1.796534 0.741773
-3.618730 1.855380 0.729783
-2.937328 1.923714 1.198319
-2.922797 1.903850 1.181190
-2.945990 1.928865 1.199717
-2.472775 -0.304209 1.745588
-3.633948 0.764920 0.600551
-3.646713 0.778804 0.597980
-3.640323 0.816125 0.607142
-3.636093 1.545802 0.688750
-3.647526 1.625320 0.691859
-3.665656 1.684106 0.688164
-3.657161 1.664542 0.692322
-3.661449 1.706081 0.696541
-3.648944 1.835382 0.700265
-3.643800 1.805570 0.710375
-3.630321 1.852388 0.718631
-3.235487 1.914109 1.007596
-3.210124 1.908655 1.009468
-3.188774 1.905257 1.011861
-3.156274 1.899561 1.022491
-3.053857 1.744486 1.044600
-3.047997 1.777601 1.048719
-3.041389 1.755540 1.053284
-3.013496 1.787356 1.072705
-3.024062 1.750173 1.065018
-3.054566 1.834474 1.048755
-3.043649 1.802274 1.052581
-3.006678 1.827443 1.081352
-3.018857 1.810482 1.070404
-3.063024 1.846267 1.046131
-3.036133 1.854394 1.065127
-3.032243 1.879844 1.075438
-3.027895 1.838510 1.066505
-2.909570 1.753532 1.134543
-2.957293 1.873918 1.130149
-2.932029 1.872305 1.145633
-2.921697 1.921714 1.216982
-2.883884 1.898448 1.243107
-2.883574 1.897226 1.234692
-2.597531 0.827843 1.629862
-2.661507 0.975652 1.644427
-2.669303 1.025674 1.646263
-2.668003 1.001288 1.627110
-2.664740 1.051962 1.621233
-2.569529 -0.675879 1.818530
-2.550705 -0.613844 1.819189
-3.726905 -0.590804 0.691558
-3.702089 -0.568878 0.706068
-3.674219 -0.551441 0.726110
-3.657268 -0.497491 0.698995
-3.648539 -0.502925 0.712264
-3.634753 -0.473080 0.696614
-3.650713 -0.494959 0.702609
-3.612551 -0.461221 0.705242
-3.389189 1.745169 0.919681
-3.414216 1.764835 0.908547
-3.359160 1.757147 0.924948
-3.350213 1.771558 0.923130
-3.278453 1.749538 0.943353
-3.345348 1.754833 0.927880
-3.262470 1.774847 0.941616
-3.417005 1.798889 0.904912
-3.379785 1.829900 0.910658
-3.392130 1.865459 0.908835
-3.365204 1.869647 0.912824
-3.347488 1.855660 0.912342
-3.339436 1.834464 0.911742
-3.271570 1.811785 0.931728
-3.310777 1.875515 0.921818
-3.316679 1.848218 0.915266
-3.267038 1.855422 0.933390
-3.292427 1.841853 0.918800
-3.241240 1.790820 0.945007
-3.156939 1.918573 1.045712
-3.140471 1.918097 1.052225
-3.106179 1.923062 1.071830
-3.111123 1.893755 1.039984
-3.078365 1.911103 1.071888
-3.039718 1.893499 1.078529
-2.658505 1.067739 1.590575
-2.658921 1.054238 1.570805
-2.650486 1.100817 1.571200
-2.641213 1.161451 1.579796
-2.637343 1.190746 1.576318
-2.550494 0.658740 1.690976
-2.554063 0.765693 1.680962
-2.571373 0.793088 1.664172
-2.537194 0.708628 1.692106
-2.542859 0.696493 1.685300
-2.544297 0.733582 1.684358
-2.597299 0.855022 1.679526
-2.629510 0.907464 1.667176
-2.649613 0.944855 1.664100
-2.641581 0.931813 1.678729
-2.519250 -0.047446 1.888540
-2.514400 0.055239 1.885795
-2.510008 0.151076 1.887348
-2.514841 0.124269 1.902681
-2.506835 0.179089 1.891988
-2.508026 0.158247 1.879595
-2.502437 0.209757 1.886955
-2.499736 0.277455 1.885945
-2.501154 0.292940 1.902063
-2.491743 0.342957 1.882227
-2.486763 0.378740 1.893794
-2.466226 0.452359 1.904247
-3.729783 0.293920 0.538211
-3.708348 0.323579 0.524800
-3.710377 0.340414 0.528403
-3.730960 0.366756 0.545027
-3.669032 0.307838 0.507147
-3.618794 0.322641 0.532053
-3.680409 0.360671 0.520705
-3.631649 0.371341 0.537714
-3.636544 0.334973 0.523932
-3.633855 0.410176 0.542648
-3.632223 0.382838 0.539482
-3.683595 0.445076 0.534851
-3.671681 0.426152 0.532938
-3.643149 0.455389 0.543983
-3.601739 0.128718 0.542944
-3.586946 0.188101 0.544607
-3.596716 0.160895 0.539501
-3.580580 0.206381 0.548758
-3.593643 0.215922 0.536303
-3.698377 0.467856 0.536005
-3.684494 0.511057 0.549045
-3.590852 -0.415469 0.681913
-3.596587 -0.419574 0.679575
-3.574315 -0.336263 0.676910
-3.606019 -0.320213 0.660807
-3.595235 -0.330264 0.666240
-3.603962 -0.243982 0.657224
-3.582896 -0.261788 0.673053
-3.586001 -0.280002 0.672548
-3.576938 -0.207835 0.668555
-3.569625 -0.240762 0.678878
-3.599210 -0.160021 0.643418
-3.582214 -0.197267 0.662706
-3.585567 -0.165567 0.653995
-3.596272 -0.129445 0.640516
-3.585090 -0.103590 0.644437
-3.553092 -0.066329 0.669310
-3.568776 -0.065865 0.653351
-3.566249 -0.034349 0.650082
-3.557597 -0.059494 0.664219
-3.569289 -0.011147 0.640148
-3.566628 -0.013611 0.644362
-3.539230 0.063183 0.645795
-3.228617 1.751234 0.955910
-3.215265 1.782356 0.955079
-3.197773 1.766804 0.964296
-3.174073 1.768331 0.972403
-3.156442 1.783297 0.980825
-3.139137 1.773281 0.990868
-3.192455 1.823722 0.964057
-3.223323 1.854616 0.957094
-3.182738 1.857338 0.977725
-3.185080 1.848594 0.972601
-3.137257 1.806756 0.992951
-3.165556 1.819585 0.975978
-2.725387 1.527488 1.373106
-2.679314 1.369032 1.355776
-2.676333 1.356090 1.359574
-2.694087 1.431018 1.347854
-2.673831 1.422564 1.374502
-2.708503 1.476673 1.350060
-2.710276 1.508374 1.378302
-2.721744 1.509950 1.358500
-2.737752 1.544022 1.359248
-2.734107 1.544613 1.387871
-2.772916 1.609465 1.354416
-2.756302 1.574446 1.349548
-2.762803 1.583921 1.386051
-2.782148 1.621545 1.367515
-2.636103 1.197890 1.539940
-2.630531 1.243338 1.547850
-2.631445 1.240229 1.557357
-2.627193 1.273123 1.555985
-2.617764 1.329818 1.534284
-2.621917 1.314718 1.558916
-2.461658 0.468240 1.900710
-2.463056 0.520907 1.896808
-2.463776 0.530922 1.888298
-2.459444 0.505935 1.896246
-3.583360 1.775966 0.768310
-3.604876 1.815893 0.746079
-3.579250 1.795630 0.771028
-3.600309 1.861838 0.747268
-3.623069 1.891352 0.730995
-3.608673 1.887351 0.740942
-2.826448 1.782084 1.189362
-2.824345 1.763454 1.186629
-2.813355 1.778581 1.201240
-2.841188 1.833400 1.200402
-2.839957 1.795823 1.176499
-2.873563 1.873751 1.200099
-3.725219 -0.117205 0.581763
-3.715489 -0.070773 0.567898
-3.708975 -0.075645 0.567497
-3.692751 -0.145293 0.590211
-3.693652 -0.077741 0.569436
-3.728432 0.003866 0.555203
-3.673970 -0.035716 0.557699
-3.648439 -0.026565 0.565437
-3.646863 -0.049253 0.577752
-3.637342 0.000249 0.561377
-3.642674 -0.012980 0.563780
-3.615323 0.058015 0.552783
-3.678802 -0.565789 0.730292
-3.651642 -0.555468 0.757634
-3.652442 -0.524208 0.728207
-3.615493 -0.486358 0.731595
-3.576908 1.788666 0.773240
-3.563307 1.781631 0.787021
-3.546993 1.763603 0.804390
-3.569704 1.814129 0.779279
-3.539549 1.812716 0.812409
-3.560108 1.800317 0.790760
-3.542078 1.878091 0.806423
-3.553442 1.843906 0.795037
-2.795775 1.733291 1.276821
-2.557724 0.805022 1.772388
-3.645006 1.908185 0.722236
-2.976513 1.913451 1.147729
-2.929594 1.900652 1.169312
-2.982872 1.928542 1.160853
-2.649883 1.126101 1.508506
-2.652946 1.102343 1.513247
-2.643219 1.173425 1.503745
-2.637763 1.205836 1.496832
-2.549553 0.791684 1.713485
-2.539125 0.616529 1.728310
-2.529222 0.665655 1.721874
-2.526293 0.729160 1.723090
-2.535296 0.759447 1.718368
-2.526377 0.737230 1.729713
-2.595044 0.862707 1.731466
-2.587256 0.850506 1.717413
-2.569125 0.822029 1.702887
-2.598075 0.865854 1.717914
-2.467659 0.475981 1.839175
-2.460456 0.473255 1.857292
-2.459970 0.522202 1.875254
-2.461088 0.511228 1.853344
-2.482063 0.584732 1.857866
-2.481726 0.584039 1.840944
-2.492842 0.604389 1.865754
-2.509490 0.658027 1.841131
-3.659302 0.850971 0.600594
-3.621939 0.834176 0.615568
-3.676407 0.899523 0.596337
-3.668303 0.873693 0.598620
-3.652694 0.864285 0.603267
-3.646966 0.905906 0.600650
-3.627340 0.938090 0.597051
-3.674521 1.349663 0.599243
-3.637264 1.314324 0.597285
-3.633469 1.319841 0.602343
-3.625502 1.323760 0.608826
-3.712118 1.383690 0.597558
-3.718092 1.427895 0.610866
-3.705727 1.406920 0.605707
-3.659841 1.368810 0.615800
-3.649049 1.367103 0.621448
-3.658358 1.417303 0.638882
-3.702351 1.505512 0.637030
-3.696501 1.458997 0.627330
-3.682230 1.440449 0.631048
-3.310934 1.915402 0.954094
-3.281086 1.917417 0.979872
-3.269955 1.911629 0.977551
-3.255711 1.893464 0.964766
-3.105331 1.749027 1.010991
-3.117243 1.751469 1.003258
-3.129715 1.797578 0.997506
-3.129869 1.874601 1.015259
-3.077912 1.757419 1.029074
-2.517744 0.155264 1.827361
-2.536548 0.198759 1.792610
-2.523092 0.163192 1.817543
-2.533039 0.223036 1.799098
-2.518592 0.221520 1.820656
-2.542068 0.276155 1.790764
-2.509958 0.387062 1.818525
-2.494007 0.409459 1.825924
-2.521886 0.425984 1.794104
-2.487150 0.452599 1.820438
-2.500135 0.442744 1.808681
-3.671160 0.741781 0.588019
-3.669196 0.802240 0.593786
-3.708845 0.827080 0.589095
-3.688739 0.854863 0.593692
-3.715672 0.925550 0.592803
-3.721286 0.980510 0.588319
-3.697669 0.947344 0.590185
-3.682376 0.955914 0.589676
-3.671103 0.969313 0.587305
-3.615011 0.984657 0.586338
-3.633752 0.955715 0.592620
-3.715830 1.020020 0.578235
-3.715805 1.043229 0.574746
-3.668944 1.001926 0.578433
-3.696029 1.076379 0.563830
-3.692866 1.047220 0.568077
-3.629178 1.081476 0.560591
-3.717826 1.114566 0.567987
-3.706974 1.103090 0.564451
-3.685321 1.114148 0.559192
-3.693488 1.127959 0.559121
-3.629293 1.095160 0.559129
-3.683650 1.137970 0.558101
-3.649630 1.164251 0.557052
-3.718487 1.190068 0.568388
-3.719741 1.259435 0.576277
-3.684502 1.195046 0.560171
-3.651594 1.184009 0.558116
-3.643624 1.178080 0.558456
-3.695890 1.252859 0.567674
-3.663240 1.226470 0.560908
-3.622242 1.254089 0.575743
-3.710537 1.290944 0.580301
-3.686150 1.276927 0.575197
-3.664574 1.264057 0.568888
-3.615217 1.276121 0.586491
-3.661376 1.320572 0.593207
-3.641801 1.310783 0.593942
-3.701610 1.361596 0.593702
-3.481737 1.752997 0.870136
-3.434626 1.793689 0.898060
-3.440835 1.781731 0.894957
-3.470103 1.798941 0.874639
-3.459001 1.861944 0.880716
-3.434632 1.849039 0.895093
-3.409967 1.835541 0.904777
-3.432687 1.822327 0.897535
-3.413002 1.867910 0.902741
-2.627338 -0.869201 1.876179
-2.611276 -0.819988 1.872738
-2.600308 -0.782471 1.867600
-2.600134 -0.770531 1.858913
-2.585105 -0.733557 1.876321
-2.572803 -0.689235 1.859956
-2.579813 -0.711297 1.879011
-2.555034 -0.611837 1.847154
-2.560083 -0.632250 1.864393
-2.550943 -0.556302 1.840709
-2.558686 -0.530448 1.874532
-2.557875 -0.547017 1.865780
-2.548018 -0.528994 1.842320
-2.529376 -0.472362 1.839019
-2.533007 -0.437356 1.865948
-2.510823 -0.403559 1.844635
-2.519368 -0.361545 1.872847
-2.505430 -0.361783 1.848501
-2.498293 -0.347694 1.840258
-2.506271 -0.331388 1.859282
-2.494362 -0.309767 1.843170
-2.496742 -0.221246 1.864226
-2.487866 -0.156702 1.847012
-2.495148 -0.182853 1.863581
-2.505830 -0.110657 1.872202
-2.489212 -0.138276 1.836867
-5.916982 -0.974224 5.425115
-5.955671 -0.934742 5.450661
-5.918333 -0.911760 5.473459
-5.918019 -0.871179 5.482013
-5.957576 -0.882381 5.479391
-5.961937 -0.849852 5.483208
-5.918025 -0.843803 5.484141
-5.938628 -0.843405 5.485451
-5.969517 -0.810628 5.483230
-5.999287 -0.777325 5.475276
-5.914190 -0.794668 5.482224
-5.947091 -0.799123 5.487229
-5.912941 -0.785565 5.481251
-5.958573 -0.769028 5.487993
-5.999574 -0.752341 5.474787
-5.928755 -0.739226 5.478887
-5.982473 -0.713622 5.475033
-6.000480 -0.726363 5.473475
-5.931241 -0.716488 5.475984
-5.980867 -0.683526 5.470980
-5.945437 -0.679664 5.472368
-5.939882 -0.653325 5.468693
-5.909658 -0.761917 5.477785
-5.911067 -0.713179 5.470951
-5.961070 0.922365 5.560650
-5.940279 0.918828 5.557883
-5.962328 0.994536 5.576513
-6.001803 0.980961 5.555163
-5.951191 0.965307 5.573093
-5.970636 1.050181 5.572419
-5.987838 1.092119 5.559581
-5.950862 1.107964 5.575311
-5.958666 1.169866 5.569612
-4.885755 1.834678 5.198538
-4.898460 1.862875 5.191968
-4.696578 1.782944 5.179253
-4.703464 1.777969 5.182724
-4.792660 1.803599 5.198702
-4.816613 1.866986 5.184139
-4.848032 1.841314 5.195000
-4.767452 1.861718 5.176025
-4.801627 1.858044 5.186114
-4.737513 1.835840 5.176402
-4.747705 1.819865 5.186547
-4.690687 1.802827 5.170095
-4.706988 1.842547 5.158764
-3.837824 -0.336773 5.202670
-3.876031 -0.361641 5.212513
-3.964055 -0.309497 5.227798
-3.878559 -0.287464 5.222669
-3.932195 -0.278710 5.227902
-3.899855 -0.252000 5.225828
-3.846972 -0.328870 5.207894
-3.859379 -0.311912 5.215776
-3.822393 -0.288690 5.207945
-3.861583 -0.281011 5.219688
-3.869993 -0.260309 5.222708
-3.822196 -0.262078 5.212247
-5.967192 -0.442602 5.472744
-5.982726 -0.444002 5.473600
-5.925221 -0.451221 5.467185
-5.946132 -0.458223 5.468558
-6.016587 -0.407923 5.468756
-5.971614 -0.394367 5.480045
-5.984327 -0.407354 5.477391
-5.929556 -0.401500 5.475351
-5.951874 -0.395179 5.480119
-5.997416 -0.335895 5.490429
-6.001587 -0.349568 5.487266
-5.941596 -0.353917 5.485754
-6.007413 -0.321496 5.486704
-6.020708 -0.311636 5.474927
-6.010839 -0.244422 5.485648
-5.960614 -0.310053 5.496245
-5.990573 -0.320242 5.492620
-5.925594 -0.301228 5.484066
-5.997814 -0.257016 5.494236
-5.921762 -0.283488 5.483514
-5.957557 -0.258694 5.498535
-5.934739 -0.111875 5.513766
-5.969032 -0.099898 5.516848
-5.997617 -0.093468 5.510920
-5.999507 -0.082667 5.511560
-5.921643 -0.078769 5.519658
-5.973899 -0.037063 5.517123
-5.933995 -0.039605 5.521585
-5.979197 -0.007647 5.511564
-5.955459 0.039407 5.512288
-3.952384 0.981916 5.111610
-5.086947 1.925561 5.238431
-5.065480 1.898702 5.238654
-5.072807 1.928676 5.232821
-5.063034 1.928635 5.230238
-4.017337 0.295131 5.333745
-4.022391 0.413038 5.345352
-5.932194 0.508138 5.360359
-5.942161 0.469321 5.369385
-5.975276 0.515414 5.377099
-5.939849 0.519167 5.364967
-5.733652 1.761732 5.606229
-5.724850 1.804422 5.600753
-4.267236 1.879739 5.105905
-4.189416 1.881713 5.110063
-4.032599 1.760969 5.111636
-4.086472 1.834788 5.111025
-4.080076 1.853680 5.102127
-4.690114 1.914694 5.109336
-4.674603 1.927560 5.096076
-4.644650 1.907400 5.103940
-4.608515 1.918174 5.090001
-4.613653 1.895384 5.107181
-4.583689 1.897900 5.102346
-4.530875 1.923538 5.077014
-4.519093 1.900886 5.095752
-4.537459 1.927135 5.074779
-4.476670 1.919580 5.076750
-4.453472 1.917649 5.079133
-4.409565 1.895844 5.111797
-4.412289 1.903750 5.100103
-4.390724 1.895172 5.111631
-4.388975 1.916616 5.080168
-4.349855 1.912572 5.087068
-4.332198 1.901418 5.097980
-4.278914 1.924214 5.072194
-4.304875 1.889153 5.105420
-4.250974 1.912194 5.082890
-4.273503 1.906725 5.085797
-3.855355 -0.572063 5.138381
-3.839043 -0.562416 5.123410
-3.830234 -0.558539 5.114226
-3.832689 -0.537813 5.120198
-3.846799 -0.547799 5.132156
-3.828862 -0.547004 5.113875
-3.835135 -0.497453 5.129899
-3.843565 -0.463712 5.149143
-3.793720 -0.422747 5.131677
-3.827448 -0.448106 5.145993
-3.796706 -0.408314 5.145225
-3.778203 -0.391245 5.140661
-3.758087 -0.344114 5.154240
-3.729789 -0.290873 5.155151
-3.733883 -0.322989 5.143153
-3.714532 -0.263106 5.150920
-5.208245 1.787047 5.304006
-5.243235 1.750971 5.329140
-5.273208 1.835197 5.327731
-5.219031 1.826633 5.300701
-5.246070 1.824652 5.314125
-5.275686 1.873652 5.328144
-5.281919 1.871048 5.331789
-5.225196 1.860132 5.297857
-5.222784 1.875950 5.294133
-5.170044 1.762267 5.299824
-5.303810 1.790233 5.347026
-5.320473 1.763801 5.367766
-5.280445 1.788735 5.333229
-5.291373 1.763397 5.348330
-5.293993 1.835263 5.339108
-5.328373 1.819612 5.363182
-5.300855 1.871558 5.343556
-3.693093 -0.158664 5.151336
-3.689656 -0.146851 5.145830
-3.715384 -0.011349 5.155085
-3.729084 0.050620 5.144680
-3.743550 0.082102 5.148961
-3.811888 0.215546 5.123327
-3.838190 0.259260 5.146647
-3.832317 0.268202 5.127014
-3.768303 0.131225 5.142128
-3.783243 0.158598 5.135356
-3.839914 0.375420 5.124538
-3.850257 0.333053 5.146132
-3.842322 0.386361 5.130519
-3.842259 0.452397 5.139809
-3.847663 0.426535 5.147508
-3.977975 -0.224482 5.230906
-3.974200 -0.176240 5.231480
-3.998557 -0.174195 5.231863
-3.999372 -0.138195 5.231937
-3.976311 -0.045336 5.242969
-3.955007 -0.238386 5.228939
-3.900774 -0.215088 5.227314
-3.941843 -0.181649 5.231412
-3.881580 -0.181302 5.227924
-3.868598 -0.222385 5.224246
-3.817799 -0.203800 5.216221
-3.858884 -0.166646 5.225652
-3.852239 -0.183429 5.223868
-3.815544 -0.187188 5.216266
-3.801204 -0.166613 5.213393
-3.940398 -0.125868 5.232338
-3.952012 -0.154527 5.231653
-3.915307 -0.113420 5.232774
-3.930224 -0.108210 5.233020
-3.937438 -0.067385 5.236213
-3.878583 -0.097008 5.230794
-3.897228 -0.098332 5.232350
-3.866396 -0.114235 5.228274
-3.802861 -0.127244 5.214781
-3.832007 -0.140963 5.221465
-3.852438 -0.076433 5.226465
-3.836039 -0.109907 5.222812
-3.803371 -0.108378 5.215249
-3.774918 -0.217345 5.202227
-3.782541 -0.227403 5.204519
-3.762177 -0.173714 5.200394
-3.765713 -0.135592 5.203134
-3.936563 -0.041629 5.241952
-3.883885 -0.046650 5.236541
-3.845174 -0.033039 5.229669
-3.861576 -0.061653 5.229261
-3.795304 -0.057698 5.214458
-3.799747 -0.056540 5.215729
-3.834530 -0.006298 5.231551
-3.800802 0.037188 5.220586
-3.826545 0.103362 5.243954
-3.758966 -0.054312 5.200462
-3.785038 -0.042179 5.210856
-3.880575 0.174987 5.268229
-3.838592 0.135294 5.247434
-3.919263 0.238618 5.279461
-3.917146 0.218895 5.284121
-3.921107 0.245670 5.279696
-3.911774 0.248146 5.266418
-3.912812 0.330361 5.252340
-3.927034 0.354686 5.283484
-3.912750 0.374001 5.259616
-3.919245 0.405575 5.271763
-4.019727 0.502558 5.343029
-5.009446 1.763095 5.252188
-5.969153 0.389839 5.398110
-5.988604 0.398221 5.393497
-5.947187 0.398082 5.395353
-5.988691 0.441794 5.384297
-5.965786 0.445083 5.379562
-5.478257 1.781316 5.466064
-5.464320 1.792501 5.457191
-5.407333 1.789283 5.422686
-5.423781 1.757526 5.436541
-5.474979 1.872531 5.455955
-5.435296 1.817175 5.437259
-5.443276 1.802675 5.443584
-5.420826 1.802543 5.429186
-5.447675 1.840798 5.443203
-4.665569 1.772558 5.173098
-4.585400 1.761174 5.161252
-4.576838 1.758114 5.161026
-4.455395 1.792676 5.163071
-4.421767 1.784714 5.165095
-4.442730 1.776739 5.164198
-4.383061 1.775614 5.162948
-4.358456 1.759147 5.158582
-4.394867 1.799443 5.163153
-4.368245 1.799372 5.160246
-4.019131 1.319904 5.167970
-3.999341 1.350077 5.167842
-4.007201 1.315210 5.166860
-4.015804 1.386431 5.177434
-3.968397 1.382061 5.160645
-4.004826 1.371850 5.174252
-4.009614 1.430104 5.184320
-3.968779 1.400623 5.169143
-3.982218 1.432545 5.181352
-3.967789 1.451587 5.176931
-3.974096 1.444548 5.180534
-4.019358 1.527690 5.156869
-3.952855 1.453949 5.165542
-5.009778 1.906642 5.219853
-4.972176 1.894962 5.207198
-4.982658 1.769428 5.240569
-4.965337 1.754166 5.243137
-4.945565 1.780941 5.227306
-4.889462 1.748194 5.229840
-4.896585 1.776140 5.219947
-4.937782 1.782369 5.225078
-4.857443 1.772854 5.214886
-4.870899 1.790833 5.210345
-4.996727 1.830732 5.222685
-5.027633 1.805538 5.240190
-4.940460 1.827091 5.209101
-4.965154 1.794115 5.225837
-4.998555 1.876295 5.220385
-5.004601 1.851699 5.223243
-4.957877 1.864091 5.206481
-4.940861 1.850943 5.203006
-4.882269 1.813510 5.204198
-4.813699 1.750262 5.214703
-4.826456 1.785998 5.206876
-4.788692 1.780955 5.202898
-4.824392 1.798943 5.202722
-5.260943 1.889928 5.315041
-5.268610 1.915434 5.308430
-5.222113 1.890732 5.289460
-3.709679 -0.225356 5.158662
-3.718349 -0.237772 5.162908
-3.739973 -0.184321 5.188027
-3.702651 -0.115175 5.159607
-3.720321 -0.140927 5.176149
-3.722610 -0.106653 5.175975
-3.728455 -0.069294 5.178701
-3.745132 -0.037609 5.190961
-3.748811 -0.058929 5.195527
-3.733918 -0.037377 5.179663
-3.727660 0.015561 5.160940
-3.760490 0.064585 5.180606
-3.772196 0.104330 5.174716
-3.767816 0.076200 5.182601
-3.801114 0.140943 5.188091
-3.822435 0.190153 5.171838
-3.818250 0.190169 5.164423
-3.838047 0.210229 5.180349
-3.864410 0.259927 5.193871
-3.850636 0.267007 5.167510
-3.857157 0.289236 5.169132
-3.859752 0.325195 5.164718
-3.864279 0.371453 5.171179
-3.864633 0.336122 5.170846
-3.871276 0.418492 5.188918
-3.866655 0.393931 5.177593
-3.860177 0.454565 5.171306
-3.864286 0.425071 5.177064
-5.212481 1.926566 5.273117
-5.206631 1.890086 5.281402
-5.164774 1.902335 5.260633
-5.122050 1.900087 5.249424
-5.148438 1.907140 5.254802
-5.650777 1.746426 5.581491
-5.657666 1.785897 5.585311
-5.680493 1.772862 5.594036
-5.616147 1.754467 5.555074
-5.639317 1.778692 5.574292
-5.699136 1.803968 5.598699
-5.673552 1.804518 5.591638
-5.712704 1.881576 5.588732
-5.675999 1.868323 5.582921
-5.611195 1.802584 5.555988
-5.641101 1.801707 5.576848
-5.641823 1.850426 5.575672
-5.834734 1.896179 5.589854
-5.830619 1.886285 5.594928
-5.794054 1.918165 5.588239
-5.799990 1.896330 5.595184
-5.758255 1.918259 5.585183
-5.710175 1.911918 5.576724
-5.724108 1.911291 5.580747
-5.648517 1.888518 5.568415
-5.662280 1.885116 5.574114
-5.679204 1.916495 5.565295
-5.639369 1.907259 5.555883
-4.004882 -0.958838 5.107829
-3.999032 -0.988746 5.086818
-3.975281 -0.924247 5.104596
-3.942771 -0.919628 5.081609
-3.958585 -0.894926 5.107377
-3.925818 -0.850689 5.102578
-3.918321 -0.822129 5.108625
-4.002342 -0.663464 5.200483
-4.009821 -0.635927 5.207589
-3.986637 -0.609745 5.206634
-3.966625 -0.579984 5.205461
-4.007219 -0.554826 5.214771
-4.001898 -0.545218 5.214668
-4.021057 -0.475762 5.224804
-3.987054 -0.474164 5.219765
-3.980594 -0.450175 5.221056
-3.992266 -0.446310 5.223090
-4.009719 -0.411253 5.227251
-3.972413 -0.384102 5.222892
-4.007013 -0.379522 5.227462
-3.985475 -0.366968 5.225584
-3.971190 -0.297837 5.229102
-3.984282 -0.299714 5.229784
-3.979855 -0.282390 5.230252
-3.958278 -0.510132 5.209064
-3.964460 -0.522170 5.210059
-3.956029 -0.473740 5.213123
-3.950772 -0.495021 5.208313
-3.928403 -0.435785 5.211244
-3.955535 -0.435823 5.217773
-3.946614 -0.411898 5.218027
-3.948725 -0.400683 5.219484
-3.912496 -0.376784 5.215455
-3.917100 -0.405654 5.212280
-3.927508 -0.366482 5.219258
-3.945381 -0.339463 5.224560
-3.911475 -0.375545 5.215615
-3.909715 -0.346476 5.220187
-3.998488 0.509048 5.331131
-3.969897 0.522309 5.303948
-5.582073 1.821291 5.537218
-5.593536 1.799293 5.543130
-5.574197 1.869631 5.530602
-5.556825 1.843340 5.520254
-5.626101 1.919712 5.545635
-5.606614 1.911016 5.540842
-5.567400 1.925286 5.510959
-5.602544 1.898745 5.542727
-5.942235 1.289424 5.604558
-5.947132 1.339171 5.606759
-5.941524 1.370201 5.610190
-5.960377 1.435360 5.599442
-5.953508 1.423304 5.603960
-5.942965 1.454255 5.606275
-3.779496 0.027105 5.205506
-3.843361 0.149342 5.244388
-3.829177 0.139846 5.231278
-3.815792 0.142986 5.209178
-3.822586 0.122468 5.234520
-3.854033 0.199623 5.213828
-3.839063 0.177458 5.212053
-3.891305 0.237845 5.244540
-3.879344 0.261130 5.216493
-3.899138 0.264875 5.244370
-3.862655 0.211733 5.218758
-3.898350 0.360385 5.229323
-3.897365 0.346894 5.225208
-3.888706 0.432456 5.219247
-3.967217 0.109657 5.294845
-3.937373 0.098726 5.290749
-3.901995 0.109754 5.289368
-3.970763 0.127268 5.298822
-4.000238 0.137415 5.298639
-4.011814 0.179645 5.307552
-3.990463 0.159191 5.304057
-5.962013 0.645301 5.433638
-5.976570 0.691347 5.453349
-5.859913 1.753640 5.614091
-5.783665 1.792700 5.606200
-5.769061 1.757472 5.609400
-5.756544 1.775223 5.606532
-5.874159 1.820370 5.604473
-5.875521 1.794091 5.608253
-5.838901 1.825762 5.604802
-5.829963 1.855475 5.601297
-5.785190 1.798861 5.605744
-5.791213 1.874363 5.599634
-5.818655 1.869794 5.599344
-5.808872 1.842567 5.602682
-5.769762 1.848633 5.600448
-5.497167 1.906003 5.459651
-5.483059 1.894211 5.454292
-5.474998 1.927893 5.431375
-5.464589 1.902096 5.437921
-5.465110 1.906279 5.436263
-3.980878 -0.917957 5.111900
-4.018470 -0.863883 5.146523
-3.994551 -0.899008 5.126111
-3.977453 -0.864857 5.128696
-3.970001 -0.827887 5.135990
-3.997580 -0.824309 5.148535
-3.960522 -0.883370 5.113787
-3.942656 -0.828279 5.121091
-3.958751 -0.854162 5.122570
-3.947587 -0.814147 5.129010
-3.961731 -0.785148 5.149526
-3.895650 -0.776724 5.115641
-3.891201 -0.767533 5.116397
-3.912100 -0.759475 5.133888
-3.884434 -0.714189 5.131168
-3.873230 -0.702335 5.125352
-3.894714 -0.672070 5.151153
-3.860546 -0.645767 5.128085
-3.839001 -0.601427 5.117317
-3.867034 -0.625887 5.139677
-3.975985 0.814425 5.195061
-3.863125 0.481739 5.174273
-3.856820 0.517188 5.157145
-3.880355 0.563127 5.179371
-3.901032 0.675126 5.172275
-3.900740 0.652342 5.179132
-3.914814 0.689415 5.187502
-3.937234 0.768856 5.184287
-3.924899 0.744771 5.181216
-3.945950 0.797412 5.180155
-3.934323 0.807861 5.168276
-3.972341 0.853797 5.174470
-4.018582 0.897196 5.184936
-3.986054 0.891053 5.166459
-3.978666 1.009792 5.119993
-4.017383 1.096324 5.129768
-3.998842 1.142735 5.116601
-3.942274 0.855738 5.152710
-3.913974 0.832974 5.140162
-3.941676 0.864660 5.147558
-3.913542 0.867735 5.121770
-3.963092 0.911690 5.143428
-3.961039 0.975238 5.120288
-4.015860 -0.803677 5.163108
-4.001072 -0.803340 5.157751
-3.966304 -0.765029 5.160091
-4.000094 -0.759466 5.173921
-4.013974 -0.701962 5.194909
-4.018388 -0.722937 5.191456
-4.006829 -0.692093 5.195320
-4.001578 -0.678796 5.196755
-3.963055 -0.763014 5.159541
-3.923691 -0.713873 5.159307
-3.935340 -0.724466 5.161686
-3.960750 -0.713176 5.175965
-3.940612 -0.657438 5.180751
-3.962359 -0.681610 5.184910
-3.940275 -0.600393 5.192771
-3.912818 -0.615335 5.175443
-3.984113 0.564112 5.303412
-3.999666 0.575621 5.313834
-3.997333 0.619277 5.295567
-3.963278 0.521139 5.298022
-5.346718 1.890255 5.370875
-5.326001 1.925734 5.343234
-5.305561 1.907302 5.338926
-5.378783 1.928434 5.374223
-5.973693 0.540621 5.380416
-6.009500 0.578448 5.394718
-6.018194 0.612834 5.404558
-5.961784 0.575153 5.393086
-5.953940 0.584457 5.396312
-5.995481 0.623489 5.421555
-5.943780 0.628322 5.421362
-5.981579 0.636891 5.428570
-5.984490 0.628910 5.424359
-5.958617 0.819084 5.515458
-5.964459 0.842223 5.525316
-5.971951 0.906532 5.552824
-5.940502 0.903181 5.553571
-5.994904 0.943783 5.554162
-5.973457 1.180482 5.562177
-5.940659 1.199484 5.579677
-5.972534 1.262010 5.581372
-5.952154 1.232877 5.587769
-5.966078 1.297179 5.592600
-4.692257 1.866297 5.139795
-3.978162 0.615507 5.279074
-4.010143 0.671525 5.284662
-3.975879 0.645042 5.265099
-4.018954 0.716252 5.270570
-3.942801 0.485337 5.285721
-3.951525 0.531742 5.281524
-3.940265 0.563084 5.258976
-3.956194 0.589992 5.266736
-3.943280 0.607377 5.249309
-3.964547 0.664995 5.247019
-5.377822 1.745675 5.409895
-5.348536 1.774219 5.384258
-5.366913 1.754658 5.400519
-5.372542 1.797956 5.397372
-5.356549 1.872486 5.381034
-5.373395 1.857449 5.393157
-5.422448 1.922824 5.403349
-5.401093 1.903834 5.398664
-6.033742 -0.201227 5.461208
-6.033005 -0.165772 5.465065
-6.036777 -0.111335 5.459131
-6.038878 -0.067041 5.455321
-6.035463 -0.031876 5.462057
-6.034251 0.006870 5.461449
-6.031751 0.104290 5.457016
-6.003444 0.172912 5.466004
-6.026026 0.170971 5.438486
-6.004837 0.189232 5.457590
-6.004106 0.212765 5.450164
-6.003036 0.265836 5.436777
-5.978263 0.203247 5.462086
-5.987615 0.225949 5.452564
-6.005076 0.294958 5.427395
-5.958599 0.305109 5.435113
-5.953166 0.313767 5.432262
-5.953418 0.721430 5.469539
-5.978116 0.749241 5.476855
-5.952621 0.740715 5.478544
-5.964299 0.807125 5.507825
-5.955395 0.791031 5.501344
-4.189383 1.919030 5.087292
-4.203141 1.895709 5.099530
-4.156941 1.923722 5.081893
-4.167430 1.898728 5.099661
-4.099364 1.885473 5.095246
-4.105777 1.893563 5.090977
-4.141939 1.905739 5.092682
-3.846992 0.488894 5.148511
-3.836312 0.490087 5.131814
-3.831825 0.477839 5.123792
-3.839845 0.545987 5.124669
-3.873940 0.591363 5.155620
-3.863472 0.622431 5.124308
-3.885050 0.658673 5.149613
-3.894964 0.709690 5.151114
-3.898531 0.743907 5.147721
-3.886011 0.761204 5.123057
-3.912582 0.801157 5.151601
-3.888136 0.809557 5.119838
-3.991191 0.929066 5.153834
-3.969288 0.923404 5.143358
-3.968506 0.954445 5.131537
-4.000382 0.986603 5.138908
-4.948784 1.926805 5.188219
-4.891051 1.885426 5.183908
-4.843642 1.900691 5.167137
-4.802840 1.898748 5.161585
-5.089657 1.748967 5.285902
-5.098714 1.782363 5.269550
-5.096134 1.754590 5.284785
-5.046065 1.793458 5.249483
-5.047880 1.754324 5.269512
-5.172701 1.829052 5.276069
-5.131449 1.795060 5.271624
-5.202301 1.877804 5.282279
-5.164011 1.861601 5.265748
-5.116964 1.843577 5.249737
-5.157480 1.859682 5.263426
-5.075872 1.828718 5.246566
-5.080455 1.807759 5.254412
-5.115227 1.836435 5.250008
-5.083097 1.841908 5.245076
-6.025327 -0.225847 5.472012
-6.017370 -0.169361 5.482125
-5.994010 -0.240795 5.494925
-5.942390 -0.200046 5.494882
-5.926616 -0.235655 5.487088
-5.960350 -0.154929 5.507006
-5.978108 -0.178924 5.500371
-5.936075 -0.184670 5.495888
-5.949909 -0.178929 5.501641
-6.016820 -0.137664 5.484170
-6.012440 -0.094124 5.496447
-6.018672 -0.069284 5.489396
-5.918228 -0.153891 5.495911
-6.012508 -0.061866 5.497910
-6.019145 -0.038884 5.486958
-6.004659 -0.043606 5.506581
-5.998777 0.016136 5.499629
-6.018971 0.030969 5.479313
-6.028018 0.039549 5.469758
-6.008390 0.071983 5.488099
-5.988273 0.048656 5.501173
-5.945845 0.108582 5.503354
-6.023072 0.113511 5.469026
-5.960603 0.163530 5.480609
-5.995398 0.159956 5.473169
-3.964485 1.023998 5.107330
-4.010180 1.563251 5.138615
-3.990127 1.537487 5.128339
-4.008829 1.569850 5.134239
-4.009071 1.650280 5.134233
-4.243473 1.791137 5.128580
-4.272450 1.760052 5.133565
-4.189453 1.765100 5.125823
-4.227592 1.785404 5.125972
-4.179764 1.754110 5.126572
-4.312350 1.828562 5.137400
-4.252370 1.827770 5.122479
-4.316082 1.838739 5.135736
-4.208319 1.805552 5.122738
-4.144068 1.825835 5.121073
-4.180294 1.812866 5.122062
-4.192264 1.844028 5.117160
-4.199656 1.869133 5.112007
-4.164964 1.847962 5.117116
-4.153947 1.864805 5.113522
-4.090315 1.772971 5.127742
-4.016624 1.734160 5.112647
-4.113629 1.831815 5.117014
-4.123615 1.795015 5.124972
-4.119956 1.847366 5.114221
-4.866845 1.925437 5.153811
-4.812035 1.926328 5.132828
-4.813411 1.922674 5.137728
-4.802691 1.909725 5.150317
-4.850351 1.928674 5.143078
-4.755583 1.913209 5.130072
-4.738540 1.906530 5.128582
-4.701934 1.892971 5.126420
-4.479737 1.889607 5.112617
-4.428939 1.889804 5.117002
-3.944636 0.833490 5.165264
-5.033717 1.825685 5.235884
-5.059163 1.839824 5.239657
-5.067116 1.857206 5.242145
-4.365765 1.893724 5.111933
-4.327458 1.885981 5.112791
-3.890811 -0.566570 5.168635
-3.894666 -0.587573 5.169063
-3.930397 -0.532479 5.195975
-3.896772 -0.522923 5.175314
-3.919381 -0.525029 5.191334
-3.883055 -0.499608 5.167340
-3.875587 -0.468086 5.170292
-3.873475 -0.496959 5.160858
-3.853296 -0.424408 5.179255
-3.835709 -0.416286 5.172094
-3.804165 -0.378050 5.168798
-3.805990 -0.405412 5.156322
-3.831789 -0.414263 5.170617
-3.835754 -0.360863 5.195321
-3.828027 -0.343187 5.196702
-3.809432 -0.375901 5.173582
-3.803772 -0.326268 5.190206
-3.763673 -0.346008 5.157434
-3.777121 -0.304865 5.183407
-3.774888 -0.271772 5.192484
-3.732037 -0.279506 5.161053
-3.971522 -0.034220 5.245073
-3.995351 -0.025969 5.249084
-3.975963 -0.015981 5.250811
-4.002266 0.000707 5.256970
-4.021012 0.033215 5.267786
-3.975298 0.035959 5.268046
-3.962033 -0.021988 5.247959
-3.923355 -0.004622 5.253330
-3.960649 0.003880 5.257092
-3.893312 0.022032 5.258912
-3.872899 0.011057 5.250513
-3.938854 0.044790 5.272021
-3.935606 0.025023 5.264542
-3.884402 0.033216 5.261788
-3.896336 0.048552 5.269659
-3.935026 0.087634 5.287224
-3.889054 0.104882 5.285077
-3.896449 0.100284 5.285865
-3.905192 0.078928 5.281750
-3.847677 0.054779 5.254332
-3.850643 0.030685 5.247694
-3.859885 0.103874 5.270161
-5.548617 1.743075 5.505155
-5.548497 1.782323 5.509567
-5.528714 1.771728 5.495589
-5.485292 1.767031 5.470591
-5.499731 1.785584 5.478981
-5.512850 1.806458 5.487891
-5.536006 1.866402 5.502677
-5.534883 1.859739 5.502446
-5.545488 1.919079 5.494391
-5.852674 1.875489 5.596144
-5.746998 1.846011 5.598367
-4.483638 1.927234 5.067052
-4.344179 1.927341 5.067249
-4.566849 1.783568 5.153757
-4.530799 1.781254 5.155009
-4.616458 1.797009 5.154599
-4.588865 1.825328 5.139337
-4.632805 1.855741 5.129264
-4.636811 1.875828 5.120745
-4.600638 1.853921 5.127577
-4.620546 1.868556 5.122041
-4.544879 1.814978 5.143445
-4.538241 1.825634 5.140072
-4.558637 1.851607 5.127879
-4.551853 1.881776 5.113765
-4.516726 1.838712 5.138484
-4.538786 1.853970 5.127473
-4.332755 1.775488 5.151850
-4.328815 1.769740 5.150536
-4.490931 1.802440 5.155108
-4.454605 1.855578 5.139988
-4.489295 1.864389 5.128075
-4.447843 1.848808 5.145002
-4.405787 1.840824 5.152879
-4.337337 1.859981 5.130621
-4.360586 1.882015 5.121761
-3.992076 1.217347 5.127782
-3.971672 1.260782 5.114255
-3.993000 1.227160 5.130268
-3.984921 1.285640 5.141268
-3.966778 1.324751 5.128043
-3.970544 1.523538 5.118788
-3.947078 1.381317 5.128330
-3.930717 1.435785 5.147428
-3.931894 1.418830 5.135970
-3.952060 1.486190 5.145548
-3.987234 0.745402 5.230748
-3.984110 0.762972 5.221421
-4.022112 0.800709 5.231192
-4.001032 0.781242 5.225984
-3.983862 0.776200 5.216363
-3.902124 0.486364 5.231308
-3.880765 0.482837 5.201049
-3.923192 0.553107 5.243702
-3.914229 0.549054 5.232852
-3.913702 0.539596 5.234375
-3.916295 0.519678 5.242643
-3.893572 0.555706 5.203353
-3.913121 0.576644 5.223761
-3.912047 0.621357 5.208546
-3.914107 0.633466 5.207211
-3.924514 0.668423 5.207286
-3.957700 0.689097 5.231266
-3.961595 0.710347 5.226089
-3.977767 0.225917 5.313838
-3.993053 0.226007 5.317060
-3.970333 0.284872 5.318760
-4.008693 0.280777 5.329824
-4.006355 0.301565 5.332944
-3.995518 0.293969 5.328253
-3.966759 0.410728 5.322026
-3.971186 0.443587 5.320983
-3.925486 0.139768 5.299127
-3.944176 0.119632 5.296572
-3.943423 0.190661 5.303815
-3.944667 0.168871 5.305106
-3.937869 0.222727 5.297383
-3.939054 0.210095 5.297693
-3.946432 0.325718 5.303685
-3.961353 0.317892 5.317307
-3.934857 0.364880 5.293999
-3.957308 0.386354 5.315482
-3.935108 0.416940 5.292244
-3.944370 0.424890 5.300020
-3.963583 0.442512 5.315669
-5.399570 1.807627 5.415452
-5.384244 1.816669 5.404118
-5.393084 1.858081 5.405538
-5.998892 -0.637612 5.458601
-5.941015 -0.615837 5.463459
-5.992380 -0.595223 5.454314
-5.996514 -0.554124 5.456110
-5.935837 -0.558004 5.461046
-5.972269 -0.526054 5.464784
-5.923011 -0.508900 5.462638
-5.949806 -0.541541 5.462918
-6.025134 -0.403351 5.460080
-3.861008 -0.835944 0.721406
-3.872760 -0.803764 0.716743
-3.836644 -0.804499 0.708138
-3.829941 -0.815227 0.710638
-3.838451 -0.956625 0.853839
-3.987942 -0.914595 0.830092
-3.999052 -0.919942 0.841210
-4.038148 -0.905723 0.853256
-4.029711 -0.879561 0.843491
-4.022339 -0.853991 0.835480
-4.026941 -0.822723 0.838450
-4.032067 -0.809539 0.842502
-4.015913 -0.794626 0.827925
-4.004897 -0.807631 0.819094
-3.927015 -0.930202 0.829150
-3.948377 -0.930788 0.840218
-3.885963 -0.939885 0.834683
-3.912087 -0.944111 0.857895
-3.864581 -0.949960 0.851631
