-3.226294 -1.043579 5.318271
-4.485494 -1.127292 5.331712
-4.433358 -1.130499 5.354270
-4.442928 -1.129691 5.347708
-4.383749 -1.130875 5.349787
-4.322805 -1.130277 5.334599
-4.309122 -1.130108 5.330793
-4.312624 -1.131185 5.342554
-4.278852 -1.132035 5.344967
-4.248919 -1.132937 5.348294
-4.256412 -1.131717 5.336928
-4.212684 -1.133173 5.346611
-4.223430 -1.133733 5.353453
-4.211264 -1.133720 5.352173
-4.177690 -1.132462 5.333941
-4.130611 -1.134690 5.345983
-4.140970 -1.133719 5.338910
-4.126389 -1.135332 5.351946
-4.076646 -1.134833 5.345999
-4.070216 -1.134554 5.343245
-4.024872 -1.134369 5.338733
-4.044171 -1.134934 5.346416
-4.001991 -1.133648 5.329918
-4.014088 -1.135511 5.349099
-3.991000 -1.134747 5.340368
-3.948898 -1.135278 5.341888
-3.965707 -1.134839 5.340314
-3.927437 -1.134937 5.333678
-3.892915 -1.137395 5.350469
-3.898354 -1.136285 5.340454
-5.005142 -1.128449 5.438949
-4.992502 -1.126335 5.413674
-4.932428 -1.128757 5.426911
-4.905841 -1.128404 5.416277
-4.912973 -1.128830 5.422771
-4.846220 -1.130462 5.423418
-4.829503 -1.130569 5.421772
-4.813976 -1.131259 5.426768
-4.761583 -1.131451 5.423993
-4.779268 -1.131518 5.426159
-4.735197 -1.132354 5.429634
-4.750673 -1.132177 5.430184
-4.712977 -1.131925 5.419131
-4.723996 -1.132843 5.432171
-4.703673 -1.133966 5.438884
-4.704698 -1.132259 5.420533
-4.650385 -1.134886 5.433167
-4.672715 -1.133920 5.429241
-4.623425 -1.134255 5.421788
-4.648055 -1.134133 5.425267
-4.611911 -1.135746 5.433990
-4.137738 -1.145992 5.460303
-4.115067 -1.144991 5.444685
-4.081106 -1.146024 5.453812
-4.101156 -1.146982 5.464698
-4.060899 -1.146230 5.456801
-4.027096 -1.145740 5.451846
-3.996689 -1.146651 5.462307
-4.012631 -1.146668 5.462182
-3.984852 -1.146322 5.456865
-3.940099 -1.145684 5.441408
-3.939047 -1.147466 5.460310
-3.911455 -1.146045 5.445977
-3.880081 -1.147016 5.465094
-3.868541 -1.145338 5.444802
-3.836880 -1.146116 5.464266
-3.809029 -1.144228 5.442191
-3.787794 -1.144361 5.459235
-3.769258 -1.143199 5.461928
-3.773770 -1.143410 5.456899
-3.704695 -1.134859 5.460970
-3.719123 -1.136953 5.463819
-3.688330 -1.133521 5.447472
-3.622548 -1.117590 5.459285
-3.618603 -1.120757 5.441954
-3.561919 -1.099084 5.454109
-3.552006 -1.096883 5.450167
-3.516895 -1.087693 5.442232
-3.502213 -1.076834 5.462460
-3.484886 -1.071852 5.464118
-3.455777 -1.067488 5.457407
-3.423975 -1.061948 5.458555
-3.401245 -1.060815 5.450064
-3.378987 -1.059613 5.459230
-3.363510 -1.059881 5.445931
-3.355486 -1.055806 5.461026
-5.007970 -1.131895 5.475715
-5.010444 -1.131318 5.470498
-4.982625 -1.133509 5.486402
-4.971259 -1.133853 5.487567
-4.916055 -1.134184 5.480145
-4.877322 -1.134179 5.471826
-4.862090 -1.135333 5.482648
-4.825294 -1.136068 5.485112
-4.775651 -1.136906 5.485716
-4.739686 -1.137590 5.489966
-4.723986 -1.137988 5.491701
-4.712815 -1.136443 5.470676
-4.662358 -1.139095 5.483929
-4.671187 -1.139109 5.487113
-4.626198 -1.139753 5.478272
-4.648138 -1.140082 5.490812
-4.606052 -1.141439 5.490196
-4.610518 -1.139935 5.475445
-3.388381 -1.056256 5.513737
-3.342017 -1.005447 5.509350
-3.343240 -1.016906 5.502317
-3.347855 -1.022382 5.503258
-3.341649 -0.995611 5.513902
-3.324728 -0.992971 5.498104
-3.332335 -0.994863 5.504612
-3.319320 -0.962980 5.503602
-3.331686 -0.962751 5.515278
-5.454473 -1.141938 5.744263
-5.421155 -1.145058 5.753417
-5.418046 -1.144700 5.740791
-5.390335 -1.147230 5.755082
-5.363291 -1.149799 5.767309
-5.332376 -1.149572 5.744545
-5.298497 -1.151051 5.750251
-5.272905 -1.150809 5.741217
-5.251496 -1.153190 5.767234
-5.172551 -1.155451 5.762318
-5.174860 -1.153827 5.744077
-5.123446 -1.155251 5.750041
-5.110610 -1.155836 5.755923
-5.074589 -1.156321 5.759065
-5.034229 -1.157101 5.759027
-4.005651 -1.158335 5.815609
-4.016713 -1.160949 5.817344
-3.966867 -1.149602 5.801807
-3.985317 -1.154348 5.801153
-3.960632 -1.147737 5.800565
-3.946357 -1.142227 5.808619
-3.887879 -1.122952 5.801636
-3.889059 -1.124588 5.796773
-3.860934 -1.111520 5.803737
-3.883350 -1.121604 5.799768
-3.848191 -1.101822 5.821771
-3.818818 -1.095325 5.805939
-3.799810 -1.088616 5.808516
-3.777843 -1.082932 5.811621
-3.748473 -1.080169 5.810600
-3.771476 -1.083104 5.803477
-3.695150 -1.089342 5.821282
-3.682550 -1.086324 5.797935
-3.688601 -1.086540 5.805772
-3.640785 -1.058607 5.810665
-3.627099 -1.029371 5.807476
-3.625901 -1.021015 5.808092
-3.619666 -0.995149 5.807211
-3.616088 -0.967729 5.809299
-3.610029 -0.988207 5.797928
-3.602489 -0.963531 5.795928
-4.895379 -1.166107 5.836222
-4.843158 -1.167094 5.833272
-4.816366 -1.167763 5.834712
-4.808025 -1.168185 5.837970
-4.765090 -1.168428 5.832531
-4.786411 -1.167417 5.825206
-4.748503 -1.170426 5.849483
-4.710362 -1.168598 5.824184
-4.712897 -1.170969 5.849371
-4.686707 -1.170163 5.836667
-4.654401 -1.170711 5.835723
-4.653846 -1.171958 5.849425
-4.635184 -1.170034 5.822275
-4.642591 -1.171089 5.836717
-4.613614 -1.172343 5.842339
-4.988183 -1.164753 5.834547
-4.902312 -1.165658 5.832502
-4.901500 -1.170759 5.891764
-4.921827 -1.169897 5.885753
-4.871333 -1.170652 5.883377
-4.892981 -1.170495 5.886648
-4.825856 -1.172001 5.886671
-4.790697 -1.172136 5.879656
-4.807228 -1.172586 5.889205
-4.766365 -1.173965 5.897500
-4.710525 -1.174390 5.889344
-4.693209 -1.173959 5.879900
-4.660318 -1.174925 5.884704
-4.630905 -1.176195 5.892023
-5.206287 -1.166488 5.926897
-5.144570 -1.168427 5.921776
-5.166635 -1.167725 5.921253
-5.100866 -1.169134 5.919781
-5.072968 -1.169425 5.916790
-5.082006 -1.168832 5.910670
-5.038026 -1.169556 5.907053
-5.460115 -1.138885 5.908445
-5.456157 -1.138667 5.918597
-5.455870 -1.136953 5.930151
-5.405070 -1.150326 5.911908
-5.381045 -1.153517 5.926727
-5.346376 -1.157706 5.913110
-5.289892 -1.162660 5.925921
-5.292265 -1.161968 5.912041
-5.263437 -1.163955 5.925511
-5.230156 -1.165338 5.923842
-5.243914 -1.163901 5.907639
-5.019366 -1.171420 5.925676
-5.031426 -1.170436 5.916790
-5.000967 -1.171983 5.926471
-4.962438 -1.172363 5.921463
-4.933828 -1.172305 5.915934
-4.582852 -1.191391 6.036942
-4.583551 -1.189471 6.017486
-4.513533 -1.191329 6.026387
-4.535653 -1.191600 6.031374
-4.511499 -1.191248 6.025549
-4.462328 -1.192961 6.040478
-4.456633 -1.192657 6.037276
-4.398237 -1.193333 6.040463
-4.428199 -1.193049 6.039510
-4.395471 -1.192936 6.036367
-4.366096 -1.193245 6.040380
-4.351528 -1.191411 6.020120
-4.336411 -1.192519 6.034918
-4.337393 -1.191681 6.024255
-4.319827 -1.192405 6.036654
-4.289153 -1.191048 6.025315
-4.262858 -1.191126 6.036471
-4.213235 -1.187249 6.038029
-4.192538 -1.184168 6.025274
-4.209580 -1.186359 6.022613
-4.183665 -1.182775 6.019394
-4.144162 -1.173617 6.039574
-4.156121 -1.177178 6.032856
-4.118704 -1.167743 6.024928
-4.075900 -1.150712 6.030408
-4.091707 -1.159515 6.018261
-4.053522 -1.140128 6.033199
-4.055506 -1.143095 6.023940
-5.241405 -1.167478 6.080201
-5.228944 -1.168694 6.094731
-5.205116 -1.171782 6.094344
-5.219248 -1.170529 6.079935
-5.193762 -1.173051 6.087858
-5.158867 -1.175570 6.073475
-5.091661 -1.181091 6.094526
-5.097912 -1.179171 6.071372
-5.081251 -1.179966 6.069567
-5.034412 -1.183323 6.085692
-5.059330 -1.182167 6.084653
-5.408150 -1.112936 6.083412
-5.377913 -1.124103 6.089451
-5.387807 -1.118086 6.094471
-5.459032 -1.089426 6.082564
-5.441510 -1.100188 6.076430
-5.347645 -1.141126 6.076735
-5.322309 -1.145740 6.093797
-5.333916 -1.146144 6.076708
-5.298164 -1.153283 6.095451
-5.296459 -1.157851 6.069248
-5.273396 -1.159940 6.093084
-5.018828 -1.184281 6.089683
-5.228403 -1.141338 6.225074
-5.220311 -1.143273 6.228498
-5.210453 -1.150445 6.217028
-5.243636 -1.135367 6.225448
-5.189721 -1.160616 6.207709
-5.160503 -1.165145 6.226946
-5.030967 -1.189253 6.227803
-4.998644 -1.192554 6.218437
-4.976887 -1.194012 6.220274
-4.932253 -1.196817 6.223351
-4.939732 -1.196108 6.218478
-4.909730 -1.197385 6.211742
-4.879357 -1.198567 6.207709
-4.822311 -1.201273 6.216846
-4.831330 -1.200949 6.216638
-4.792757 -1.202190 6.216030
-4.811658 -1.202363 6.225897
-4.750351 -1.204582 6.230061
-4.691529 -1.206298 6.226711
-4.704282 -1.205603 6.223322
-4.652617 -1.206549 6.214663
-4.631653 -1.207393 6.219398
-4.633517 -1.206946 6.214749
-4.604632 -1.208283 6.221935
-4.611890 -1.206773 6.207066
-5.218823 -1.136122 6.251440
-5.181327 -1.148718 6.258297
-5.189541 -1.154141 6.232845
-5.146203 -1.164872 6.244879
-4.995319 -1.192473 6.255616
-4.964945 -1.195338 6.251923
-4.928375 -1.198502 6.259367
-4.938043 -1.197081 6.236719
-4.901896 -1.199366 6.242712
-4.885314 -1.200980 6.257638
-4.893644 -1.200153 6.249938
-4.853992 -1.202566 6.256577
-4.841381 -1.201899 6.235488
-4.811810 -1.202944 6.233602
-4.758155 -1.206577 6.257764
-4.689024 -1.207371 6.239264
-4.686594 -1.208827 6.257237
-4.609766 -1.209993 6.243313
-4.621481 -1.209154 6.236983
-4.545960 -1.193251 6.657195
-4.553282 -1.197327 6.643809
-4.573571 -1.188893 6.658513
-4.589715 -1.184317 6.664774
-4.592918 -1.187073 6.654925
-4.568090 -1.186145 6.668909
-4.539326 -1.195022 6.655192
-4.494073 -1.195214 6.667562
-4.425481 -1.059684 4.695702
-4.376777 -1.059903 4.688181
-4.569367 -1.049237 4.697578
-4.585404 -1.042777 4.689696
-4.543005 -1.049144 4.691593
-4.515429 -1.051803 4.691810
-4.486646 -1.055414 4.695001
-4.482421 -1.056238 4.696424
-4.440001 -1.054846 4.678861
-4.299782 -1.063032 4.690341
-4.319978 -1.063474 4.697181
-4.252644 -1.065589 4.693347
-4.236855 -1.065213 4.687356
-4.188884 -1.066263 4.687307
-4.114816 -1.069357 4.700401
-4.092156 -1.068441 4.691549
-4.096964 -1.066329 4.676468
-4.061758 -1.068912 4.692306
-4.060878 -1.067277 4.680612
-4.045094 -1.067363 4.679860
-4.017974 -1.068650 4.685788
-3.978195 -1.069189 4.685722
-3.990294 -1.070011 4.691863
-3.957856 -1.071715 4.700597
-3.931089 -1.070325 4.689847
-3.897707 -1.069006 4.680430
-3.902405 -1.071215 4.695038
-3.874485 -1.067985 4.674718
-3.812290 -1.071186 4.696757
-3.791276 -1.067808 4.676421
-3.786755 -1.070315 4.692150
-3.768843 -1.067193 4.675826
-3.761894 -1.069427 4.689741
-3.730409 -1.065692 4.675656
-3.740514 -1.067251 4.681640
-3.700667 -1.079329 4.765779
-3.709073 -1.081129 4.775576
-3.678334 -1.077420 4.759696
-3.646882 -1.075280 4.757547
-3.660780 -1.079941 4.779710
-3.615788 -1.075231 4.771027
-3.603532 -1.069872 4.759073
-3.598266 -1.074983 4.780653
-3.567584 -1.066164 4.779757
-3.571361 -1.065016 4.774962
-3.560865 -1.051749 4.757645
-4.586424 -1.088537 4.946960
-4.581653 -1.090400 4.963824
-4.551238 -1.089186 4.953199
-4.521833 -1.089304 4.950272
-4.487920 -1.093083 4.972180
-4.492041 -1.092704 4.970308
-4.480114 -1.092795 4.967771
-4.436665 -1.094397 4.971133
-4.450253 -1.091606 4.948370
-4.410929 -1.093373 4.955250
-4.415484 -1.094575 4.967731
-4.570029 -1.103869 5.095197
-4.591131 -1.104602 5.106181
-4.561315 -1.102959 5.083734
-4.520529 -1.105181 5.103690
-4.493340 -1.104683 5.092063
-4.504925 -1.105096 5.099762
-4.464177 -1.106172 5.104747
-4.463093 -1.106368 5.107073
-4.432984 -1.105634 5.090095
-4.440826 -1.105259 5.087203
-4.404845 -1.106926 5.099905
-4.379133 -1.106974 5.095501
-4.359848 -1.106346 5.083637
-4.371972 -1.107828 5.103811
-4.339866 -1.107635 5.094209
-4.299804 -1.109608 5.108844
-4.283496 -1.109477 5.104704
-4.283081 -1.108032 5.088632
-4.159722 -1.111466 5.103980
-4.211310 -1.110753 5.104510
-4.196543 -1.110365 5.097730
-4.179132 -1.109712 5.088213
-4.178240 -1.110927 5.100532
-4.114051 -1.112307 5.109231
-4.049479 -1.111418 5.091875
-4.057681 -1.112713 5.106433
-4.110796 -1.110032 5.086281
-4.076298 -1.110751 5.089664
-4.040302 -1.112172 5.097751
-4.011525 -1.112938 5.102109
-3.969504 -1.111814 5.088591
-3.960034 -1.112566 5.095984
-3.924320 -1.113418 5.102130
-3.927983 -1.112870 5.097338
-3.899430 -1.114211 5.106760
-3.883434 -1.114698 5.109255
-4.384699 -1.109251 5.122093
-4.400442 -1.109870 5.131550
-4.352625 -1.109996 5.123832
-4.372511 -1.109076 5.117877
-4.275980 -1.110781 5.117612
-4.261624 -1.111108 5.118482
-4.261306 -1.112121 5.128655
-4.213075 -1.112295 5.120927
-4.237641 -1.111254 5.114955
-4.203119 -1.112250 5.118515
-4.211399 -1.112952 5.127666
-4.166428 -1.113684 5.128223
-4.182675 -1.113286 5.125764
-4.116830 -1.113899 5.125508
-4.090175 -1.113605 5.119117
-4.099679 -1.113976 5.123794
-4.075511 -1.115295 5.134185
-4.040471 -1.113714 5.114417
-4.041121 -1.115424 5.132856
-3.996832 -1.116073 5.135374
-3.940521 -1.115031 5.119109
-3.937808 -1.114694 5.115548
-3.885894 -1.115146 5.113883
-3.850332 -1.115598 5.111501
-3.855308 -1.117443 5.130663
-3.804778 -1.118632 5.131717
-3.826010 -1.116588 5.115551
-3.777353 -1.118611 5.126476
-3.792661 -1.118867 5.132078
-3.748324 -1.119367 5.130254
-3.770256 -1.119112 5.130741
-3.731541 -1.119637 5.132359
-3.698037 -1.119726 5.132841
-3.643353 -1.119024 5.122173
-3.662940 -1.119137 5.124903
-3.616467 -1.118826 5.119554
-3.605522 -1.119775 5.129884
-3.532080 -1.118008 5.127872
-3.525096 -1.118038 5.130353
-5.434817 -1.097755 5.195613
-5.403955 -1.100412 5.216110
-5.409923 -1.098298 5.194318
-5.380754 -1.100943 5.217422
-5.378791 -1.099427 5.200856
-5.307453 -1.101358 5.209591
-5.302020 -1.101656 5.210866
-5.253846 -1.103058 5.209734
-5.268023 -1.101276 5.196316
-4.566092 -1.115844 5.232204
-4.519810 -1.116351 5.225914
-4.527867 -1.116955 5.234766
-4.511351 -1.117150 5.232173
-4.465723 -1.117616 5.225708
-4.443245 -1.118780 5.233529
-4.420066 -1.120627 5.247231
-4.391626 -1.120930 5.245986
-4.358665 -1.119323 5.226004
-4.372511 -1.120063 5.235225
-4.348022 -1.121053 5.242238
-4.304509 -1.120582 5.230169
-4.279070 -1.120179 5.223416
-4.284123 -1.121063 5.233403
-4.266181 -1.120736 5.228655
-4.216798 -1.123037 5.247034
-4.221084 -1.120751 5.222440
-4.201810 -1.122843 5.241500
-4.180216 -1.123181 5.239781
-4.147156 -1.122205 5.221247
-4.141461 -1.124319 5.244137
-4.099546 -1.124938 5.245459
-4.100446 -1.124552 5.241276
-4.070647 -1.125271 5.245704
-4.072010 -1.123284 5.224489
-4.043622 -1.125482 5.244675
-4.037956 -1.123542 5.223497
-4.008410 -1.123925 5.222929
-4.011455 -1.125101 5.235535
-3.969799 -1.126871 5.247361
-3.946503 -1.125469 5.228703
-3.960877 -1.125334 5.229930
-3.916009 -1.127049 5.241506
-3.924940 -1.126660 5.238505
-3.892383 -1.126060 5.225328
-3.909235 -1.127560 5.246243
-3.856254 -1.126020 5.220789
-3.813509 -1.128074 5.240109
-3.826129 -1.127470 5.234900
-3.788351 -1.126949 5.223845
-3.783740 -1.128801 5.243773
-3.760997 -1.127527 5.226625
-3.768004 -1.129154 5.245744
-3.732990 -1.128373 5.234169
-3.740143 -1.128227 5.232712
-5.463776 -1.111698 5.361425
-5.438725 -1.114186 5.383311
-5.414148 -1.112363 5.357535
-5.385057 -1.115281 5.381941
-5.351419 -1.116137 5.380232
-5.320024 -1.116887 5.380917
-5.330176 -1.115128 5.362540
-5.227479 -1.117794 5.371683
-5.178216 -1.119543 5.382336
-5.119657 -1.120089 5.375834
-5.135889 -1.118132 5.357851
-5.098566 -1.120281 5.372504
-5.106752 -1.120573 5.377936
-5.454939 -1.114111 5.386551
-5.425184 -1.115755 5.399665
-5.397420 -1.117262 5.410171
-5.370813 -1.117286 5.401488
-5.342033 -1.118402 5.405680
-5.353863 -1.117863 5.402648
-5.309958 -1.118544 5.398781
-5.320613 -1.118186 5.397216
-5.290142 -1.117710 5.385127
-5.254117 -1.119920 5.403877
-5.266393 -1.119629 5.403143
-5.229475 -1.120392 5.402480
-5.250288 -1.120094 5.404993
-5.218637 -1.121458 5.411752
-5.223375 -1.120170 5.398211
-5.183978 -1.121296 5.402111
-5.145255 -1.122291 5.405231
-5.162875 -1.122436 5.409847
-5.121212 -1.122358 5.400058
-5.130157 -1.121826 5.396985
-5.088269 -1.123705 5.405941
-5.111084 -1.123480 5.408821
-5.062133 -1.123826 5.400725
-5.086082 -1.122713 5.395418
-4.570951 -1.146933 5.538517
-4.552965 -1.146132 5.521519
-4.524972 -1.147431 5.528477
-4.512486 -1.149164 5.547472
-4.460868 -1.148960 5.545382
-4.468220 -1.148532 5.540481
-4.435169 -1.148562 5.535716
-4.416112 -1.149966 5.546602
-4.381329 -1.149017 5.528815
-4.359622 -1.149807 5.532562
-4.366994 -1.150078 5.536514
-4.339011 -1.149887 5.530299
-4.284042 -1.150748 5.534372
-4.249369 -1.150086 5.522809
-4.246444 -1.151737 5.542549
-4.232205 -1.150169 5.521819
-4.239275 -1.151340 5.537038
-4.189730 -1.152143 5.543194
-4.183158 -1.151232 5.531328
-4.573952 -1.149358 5.567208
-4.558811 -1.148381 5.549336
-4.520598 -1.150304 5.562823
-4.491279 -1.150809 5.567639
-4.416952 -1.150287 5.550422
-4.384945 -1.151776 5.558204
-4.403202 -1.151462 5.559549
-4.357116 -1.151628 5.550106
-4.361865 -1.153766 5.575948
-4.345698 -1.153976 5.575776
-4.308461 -1.152862 5.557536
-4.316875 -1.152904 5.558877
-4.273471 -1.153295 5.561014
-4.279951 -1.154261 5.572501
-4.242302 -1.153434 5.561635
-4.258854 -1.153188 5.559607
-4.234632 -1.152731 5.553334
-4.226460 -1.154485 5.572645
-4.193140 -1.154811 5.574012
-4.177128 -1.154622 5.571230
-5.453657 -1.134631 5.636272
-5.424961 -1.135611 5.630962
-5.386643 -1.139058 5.648777
-5.357609 -1.139847 5.645863
-5.316618 -1.139233 5.630728
-5.293432 -1.141378 5.647888
-5.293700 -1.140463 5.638789
-4.569559 -1.159356 5.680956
-4.576766 -1.159288 5.681590
-4.554851 -1.159819 5.684788
-4.550953 -1.157690 5.659259
-4.513888 -1.158580 5.666477
-4.527500 -1.158330 5.664923
-4.489876 -1.159588 5.673771
-4.461601 -1.159344 5.665556
-4.442720 -1.160517 5.675378
-4.438982 -1.159215 5.661115
-4.422112 -1.160043 5.667183
-4.390962 -1.160649 5.667489
-4.401429 -1.161082 5.674044
-4.355419 -1.162658 5.680834
-4.347645 -1.163162 5.684744
-4.303319 -1.162665 5.672108
-4.318691 -1.162760 5.675498
-4.275894 -1.162708 5.668827
-4.243903 -1.163341 5.671082
-4.260452 -1.163321 5.673122
-4.221321 -1.162771 5.661520
-4.236536 -1.163542 5.672398
-4.179556 -1.164725 5.683114
-4.165574 -1.162981 5.661811
-4.148133 -1.162635 5.658968
-4.135832 -1.164347 5.682349
-4.106387 -1.163126 5.669996
-4.120655 -1.163134 5.668335
-4.093192 -1.162937 5.669607
-4.994550 -1.156212 5.732649
-4.958271 -1.156744 5.729811
-4.957656 -1.155727 5.717498
-4.931236 -1.155652 5.712946
-4.908531 -1.157183 5.728082
-4.898084 -1.156084 5.714060
-4.888044 -1.158067 5.735822
-4.883497 -1.157273 5.726156
-4.858971 -1.158373 5.735338
-4.831138 -1.157064 5.715361
-4.803920 -1.157729 5.716704
-4.786154 -1.158293 5.719711
-4.751604 -1.159017 5.723784
-4.729197 -1.158825 5.715462
-4.731192 -1.158782 5.715618
-4.683560 -1.160927 5.728659
-4.665795 -1.161239 5.728094
-4.646209 -1.162306 5.736321
-4.578542 -1.177944 5.896482
-4.594942 -1.175815 5.878370
-4.545893 -1.178085 5.891105
-4.531850 -1.179229 5.900432
-4.464616 -1.178906 5.884767
-4.451720 -1.179422 5.887947
-4.411277 -1.180019 5.888647
-4.305848 -1.180492 5.888435
-4.254285 -1.180450 5.884325
-4.215475 -1.181324 5.902980
-4.223897 -1.180036 5.880748
-4.188155 -1.180087 5.895488
-4.201542 -1.179954 5.886046
-4.178290 -1.179226 5.887533
-4.136442 -1.176327 5.882714
-4.125061 -1.175309 5.885611
-4.077243 -1.169088 5.897457
-4.061559 -1.166402 5.890658
-4.572575 -1.180806 5.924130
-4.564312 -1.181566 5.930114
-4.519237 -1.180653 5.913224
-4.535166 -1.181244 5.921881
-4.492949 -1.180865 5.911375
-4.495336 -1.181978 5.923726
-4.460582 -1.182006 5.918278
-4.479041 -1.182365 5.925291
-4.436341 -1.182936 5.925105
-4.439929 -1.183243 5.929043
-4.413131 -1.183697 5.930100
-4.387269 -1.183020 5.920246
-4.361028 -1.182037 5.907415
-4.356182 -1.184062 5.930469
-4.327597 -1.182328 5.910148
-4.343162 -1.183306 5.921489
-4.282661 -1.182960 5.918435
-4.212763 -1.182154 5.919475
-4.202572 -1.181262 5.908651
-4.167419 -1.180023 5.924510
-4.168584 -1.179607 5.908037
-4.150878 -1.178609 5.930878
-4.154585 -1.178759 5.915589
-4.068105 -1.166815 5.906180
-3.949165 -1.108662 5.963939
-3.915379 -1.094949 5.962012
-3.915144 -1.090099 5.982929
-3.896444 -1.087207 5.969976
-3.904168 -1.086591 5.981236
-3.854511 -1.078110 5.972835
-3.817539 -1.067060 5.972871
-3.793221 -1.033153 5.984630
-3.784119 -1.046543 5.965935
-3.767827 -1.007182 5.968423
-3.774829 -0.993440 5.980879
-3.758936 -0.994791 5.961557
-3.753900 -0.959200 5.964431
-3.760929 -0.962783 5.972273
-4.021924 -1.129147 6.015998
-4.036795 -1.132164 6.034096
-3.998842 -1.114082 6.035246
-4.006166 -1.120584 6.021331
-3.974678 -1.107410 6.014801
-3.940447 -1.091711 6.022618
-3.935420 -1.090881 6.014382
-3.916660 -1.081978 6.026962
-3.887939 -1.064074 6.038233
-3.910740 -1.078049 6.034400
-3.879617 -1.063742 6.024727
-3.870136 -1.052306 6.037415
-3.855508 -1.038683 6.039485
-3.836402 -1.026237 6.031590
-3.822288 -1.007310 6.029264
-3.805257 -0.987920 6.018849
-3.809801 -0.987494 6.024158
-3.804955 -0.952275 6.029834
-3.794734 -0.954717 6.016601
-4.762345 -1.194723 6.117928
-4.789591 -1.192612 6.105843
-4.768231 -1.192756 6.099875
-4.735018 -1.195246 6.114469
-4.754200 -1.193108 6.098741
-4.688132 -1.194998 6.099537
-4.702299 -1.195235 6.105219
-4.668931 -1.196302 6.107975
-4.649968 -1.197134 6.111313
-4.606229 -1.197913 6.107728
-4.617352 -1.197784 6.109811
-5.211558 -1.167764 6.132509
-5.209721 -1.168919 6.125542
-5.197041 -1.170097 6.134120
-5.145742 -1.177608 6.137696
-5.133023 -1.179002 6.142377
-5.138539 -1.178448 6.142174
-5.104256 -1.181715 6.123520
-5.082105 -1.183725 6.138504
-5.041460 -1.186655 6.141873
-5.052247 -1.185597 6.134470
-5.426141 -1.091596 6.124192
-5.449020 -1.072624 6.128367
-5.431243 -1.078273 6.143259
-5.405888 -1.093108 6.146403
-5.396109 -1.103597 6.128865
-5.366997 -1.110699 6.146989
-5.352011 -1.123568 6.126506
-5.359034 -1.118667 6.132040
-5.321932 -1.134877 6.132298
-5.330040 -1.131272 6.132667
-5.291030 -1.145362 6.137767
-5.465494 -1.047247 6.134637
-5.225200 -1.164019 6.141302
-5.024335 -1.187295 6.135945
-4.996400 -1.189728 6.150356
-4.932748 -1.192106 6.146625
-4.942680 -1.190841 6.134851
-4.920641 -1.191177 6.128432
-4.883515 -1.192381 6.131797
-4.842349 -1.193621 6.132693
-4.846387 -1.193005 6.127511
-4.591774 -1.217309 6.339270
-4.544684 -1.217052 6.318362
-4.566987 -1.216392 6.316619
-4.523161 -1.218024 6.329748
-4.536001 -1.217382 6.321460
-4.502027 -1.218810 6.341713
-4.507475 -1.218388 6.334158
-4.468227 -1.218220 6.336854
-4.431489 -1.217047 6.337805
-4.441646 -1.216274 6.317780
-4.411986 -1.215277 6.328308
-4.420226 -1.216001 6.330706
-4.377262 -1.212148 6.323266
-4.398264 -1.213733 6.315685
-4.356620 -1.209150 6.330568
-4.371037 -1.211289 6.321547
-4.331826 -1.203574 6.337366
-4.341806 -1.206600 6.316893
-4.305802 -1.195603 6.341641
-4.319595 -1.200771 6.330903
-4.299316 -1.195925 6.315166
-4.268970 -1.184860 6.318538
-4.243839 -1.170614 6.340036
-4.231561 -1.168184 6.320579
-4.228298 -1.154596 6.392557
-4.190361 -1.139268 6.392646
-4.205449 -1.147155 6.374966
-4.153991 -1.130054 6.370056
-4.082300 -1.111302 6.382146
-4.074607 -1.101443 6.387955
-4.060409 -1.079006 6.391040
-4.046824 -1.070361 6.371775
-4.032481 -1.008358 6.371271
-4.047548 -1.019817 6.392891
-4.038339 -0.985511 6.388038
-4.036648 -0.968720 6.389616
-4.571939 -1.223683 6.440089
-4.592423 -1.223171 6.441946
-4.553197 -1.223593 6.428638
-4.513671 -1.223520 6.426887
-4.505982 -1.223283 6.425992
-4.508797 -1.224134 6.446203
-4.465168 -1.222155 6.430934
-4.393116 -1.214079 6.449284
-4.396618 -1.215087 6.430503
-4.353048 -1.198729 6.485653
-4.376569 -1.207545 6.487382
-4.347511 -1.196465 6.485129
-4.327182 -1.187840 6.484208
-4.299031 -1.172655 6.496596
-4.319704 -1.181884 6.501574
-4.259097 -1.155746 6.481579
-4.234779 -1.143468 6.492739
-4.223628 -1.137697 6.504473
-4.186036 -1.127201 6.488104
-4.204357 -1.131628 6.503426
-4.138490 -1.101317 6.490669
-4.151610 -1.109345 6.499168
-4.129570 -1.095824 6.483986
-4.120039 -1.070721 6.502656
-4.106338 -1.048772 6.493485
-4.104847 -1.022950 6.501850
-4.098302 -1.035347 6.484244
-4.094370 -1.020307 6.482487
-4.101449 -1.009838 6.499075
-4.095882 -0.980945 6.496902
-4.094981 -0.987258 6.493413
-4.096319 -0.967676 6.501036
-4.581724 -1.221427 6.528934
-4.587914 -1.221059 6.527544
-4.552514 -1.223243 6.531747
-4.524140 -1.224461 6.525359
-4.538727 -1.224775 6.515015
-4.492697 -1.224439 6.523226
-4.483468 -1.223864 6.531721
-4.465177 -1.223505 6.506282
-4.439219 -1.220587 6.510053
-4.448802 -1.220854 6.530027
-4.406360 -1.213769 6.515899
-4.395088 -1.209639 6.525371
-4.482655 -1.190217 6.681529
-4.427323 -1.181930 6.692909
-4.383048 -1.175287 6.680087
-4.381400 -1.170347 6.696218
-4.365456 -1.165868 6.695701
-4.358214 -1.163666 6.696307
-4.347383 -1.160375 6.696982
-4.279318 -1.137383 6.687377
-4.246633 -1.115016 6.685071
-4.252958 -1.126298 6.670339
-4.232241 -1.096590 6.684569
-4.224261 -1.076514 6.691069
-4.212553 -1.061255 6.682923
-4.205204 -1.045533 6.678060
-4.197925 -1.017223 6.676198
-4.202988 -1.015827 6.685510
-4.203691 -0.978692 6.696879
-4.199017 -0.999854 6.683629
-4.200244 -0.964682 6.693461
-4.195764 -0.973650 6.684005
-4.027226 -1.053354 4.594178
-3.995499 -1.053751 4.598973
-4.006134 -1.055057 4.603982
-3.979882 -1.054812 4.605924
-3.952871 -1.053943 4.604686
-3.923972 -1.050364 4.591238
-3.914997 -1.056267 4.614050
-3.878586 -1.050933 4.594212
-3.833906 -1.052336 4.607142
-3.856704 -1.055941 4.615088
-3.805587 -1.048938 4.603615
-3.815015 -1.054557 4.615981
-3.796917 -1.043565 4.593278
-3.799834 -1.051506 4.611222
-3.759430 -1.049240 4.616751
-4.407361 -1.065015 4.721791
-4.407294 -1.065654 4.725721
-4.384092 -1.065044 4.717148
-4.400936 -1.062885 4.707173
-4.582780 -1.051516 4.706100
-4.570261 -1.055970 4.718369
-4.514909 -1.055835 4.704359
-4.362600 -1.063340 4.703342
-4.374195 -1.065823 4.719830
-4.328178 -1.064006 4.701530
-4.344554 -1.065288 4.712328
-4.317912 -1.065400 4.708525
-4.285683 -1.065511 4.701209
-4.222914 -1.067854 4.702496
-4.235906 -1.069821 4.719072
-4.210137 -1.070307 4.719275
-4.161564 -1.070382 4.713775
-4.146636 -1.070559 4.713253
-4.114903 -1.070118 4.706170
-4.126176 -1.072331 4.724085
-4.065227 -1.072638 4.719908
-4.059620 -1.070824 4.705866
-4.030076 -1.074498 4.727705
-4.036076 -1.070865 4.703081
-4.015923 -1.072036 4.708521
-3.982338 -1.072363 4.707120
-3.973934 -1.074388 4.720837
-3.944443 -1.075393 4.726292
-3.914661 -1.072963 4.707179
-3.924999 -1.074075 4.715939
-3.870698 -1.074100 4.717034
-3.813235 -1.074745 4.721456
-3.812933 -1.072991 4.709134
-3.780552 -1.071768 4.701836
-3.798492 -1.073557 4.712691
-3.748898 -1.072452 4.710425
-3.700645 -1.076196 4.745577
-3.705927 -1.074102 4.730057
-3.688354 -1.074830 4.739635
-3.644819 -1.071342 4.738953
-3.618919 -1.070980 4.752805
-3.555112 -1.044253 4.753828
-5.025968 -1.094043 5.085541
-4.987402 -1.095359 5.089415
-4.996155 -1.096411 5.101190
-4.958090 -1.096134 5.090959
-4.966089 -1.096626 5.097531
-4.927487 -1.096300 5.089303
-4.916558 -1.098652 5.108637
-4.907269 -1.096005 5.084815
-4.877733 -1.096679 5.086483
-4.891194 -1.097773 5.098500
-4.857892 -1.097914 5.093307
-4.806855 -1.098626 5.087028
-4.813718 -1.100760 5.108582
-4.771402 -1.099874 5.090608
-4.786883 -1.101088 5.105938
-4.743423 -1.102264 5.109641
-4.736425 -1.100141 5.084021
-4.709066 -1.101267 5.088559
-4.727976 -1.101867 5.100957
-4.697514 -1.101470 5.088433
-4.700460 -1.102367 5.099064
-4.631739 -1.103173 5.096346
-4.639805 -1.103923 5.106041
-4.605584 -1.103630 5.097222
-4.614567 -1.104540 5.108796
-3.693632 -1.128288 5.231928
-3.715066 -1.127597 5.224507
-3.676126 -1.128177 5.230299
-3.643528 -1.127597 5.222252
-3.620803 -1.128543 5.238064
-3.625892 -1.128276 5.233044
-3.609835 -1.128478 5.239262
-3.509129 -1.124004 5.222192
-3.488156 -1.122455 5.240944
-3.492541 -1.122858 5.231237
-3.473022 -1.120479 5.240832
-3.432251 -1.114382 5.228455
-3.419231 -1.111487 5.237841
-3.396283 -1.107852 5.231585
-3.378369 -1.102957 5.239500
-3.387658 -1.107900 5.222242
-3.312776 -1.082835 5.237684
-3.287320 -1.069341 5.244381
-3.298855 -1.073727 5.246396
-3.265448 -1.059160 5.245557
-5.084986 -1.118442 5.347995
-5.050089 -1.118887 5.344959
-5.012642 -1.120225 5.351748
-4.998764 -1.120360 5.350994
-4.936840 -1.121192 5.348647
-4.904960 -1.121846 5.348269
-4.894348 -1.120748 5.334239
-4.845279 -1.123561 5.353540
-4.821389 -1.122945 5.342402
-4.826941 -1.123414 5.348379
-4.782076 -1.125068 5.355747
-4.705985 -1.126109 5.353975
-4.731441 -1.124221 5.337989
-4.678386 -1.125205 5.341980
-4.704849 -1.124560 5.338235
-4.662787 -1.126903 5.356908
-4.637412 -1.126700 5.351660
-4.554301 -1.131410 5.384952
-4.556445 -1.134219 5.411150
-4.533540 -1.132305 5.390462
-4.526186 -1.134573 5.411119
-4.512801 -1.132584 5.389963
-4.398153 -1.134066 5.386303
-4.397574 -1.135772 5.405422
-4.372964 -1.136390 5.409614
-4.343435 -1.136117 5.400834
-4.317558 -1.135420 5.387213
-4.281832 -1.138170 5.408887
-4.286603 -1.135973 5.387468
-4.251817 -1.136945 5.389918
-4.243342 -1.136938 5.388047
-4.219107 -1.137629 5.391961
-4.204011 -1.138929 5.401462
-4.159853 -1.139893 5.401255
-4.199303 -1.138119 5.393723
-4.577763 -1.136144 5.431864
-4.587893 -1.133942 5.412170
-4.519878 -1.137443 5.436288
-4.511695 -1.135485 5.417725
-4.474386 -1.136275 5.420622
-4.478354 -1.137625 5.433606
-4.437672 -1.136238 5.414780
-4.425687 -1.137282 5.424249
-4.381657 -1.136974 5.416821
-4.328694 -1.139240 5.431594
-4.347021 -1.138979 5.432710
-4.290607 -1.138967 5.418671
-4.240285 -1.140501 5.421115
-4.222552 -1.140875 5.421880
-4.215751 -1.142762 5.438698
-4.197341 -1.142503 5.433184
-4.208769 -1.142394 5.434099
-4.162700 -1.141263 5.414433
-4.182768 -1.141117 5.417499
-4.109653 -1.155520 5.571112
-4.087125 -1.155376 5.568652
-4.049310 -1.154389 5.562392
-4.037364 -1.153568 5.554153
-4.013216 -1.154971 5.575545
-3.935468 -1.153323 5.573220
-3.932091 -1.152344 5.550676
-3.899606 -1.151800 5.551824
-3.868821 -1.150428 5.568788
-3.880617 -1.151361 5.559087
-3.812358 -1.143929 5.564819
-3.823559 -1.146317 5.549527
-3.776862 -1.138980 5.551341
-3.766500 -1.136510 5.552671
-3.730762 -1.124493 5.566480
-3.727648 -1.126391 5.554107
-3.697179 -1.112076 5.570067
-3.698459 -1.116701 5.554750
-3.673715 -1.107535 5.555058
-3.681166 -1.109117 5.559455
-3.642239 -1.094773 5.555521
-3.661932 -1.103066 5.554692
-3.632905 -1.091070 5.554503
-3.637247 -1.087128 5.571475
-3.586439 -1.068775 5.569128
-3.592491 -1.069193 5.574953
-3.576015 -1.069520 5.554781
-3.580028 -1.070181 5.556403
-3.549217 -1.062044 5.554606
-3.536778 -1.055210 5.572015
-3.444432 -1.056546 5.562467
-3.410774 -1.062565 5.549031
-3.481476 -1.046609 5.573661
-3.452429 -1.048224 5.572078
-3.409372 -1.046448 5.562402
-5.454819 -1.138751 5.689216
-5.420393 -1.142217 5.706721
-5.426330 -1.140723 5.692729
-5.398296 -1.142206 5.692056
-5.375323 -1.143250 5.691815
-5.337670 -1.146021 5.707673
-5.359606 -1.144025 5.692720
-5.323942 -1.146144 5.704813
-5.280229 -1.146268 5.693246
-5.291681 -1.145560 5.688738
-5.255865 -1.146383 5.688999
-5.260310 -1.148396 5.711838
-3.897024 -1.118455 5.833725
-3.856852 -1.100090 5.841727
-3.798184 -1.084072 5.833129
-3.798501 -1.083364 5.842821
-3.725278 -1.085534 5.842899
-3.755268 -1.081216 5.839115
-3.774814 -1.081331 5.833393
-3.702188 -1.083907 5.843064
-3.692349 -1.083334 5.847122
-3.665460 -1.074760 5.826442
-3.652016 -1.030145 5.835012
-3.663343 -1.052152 5.840749
-3.657769 -1.018122 5.843835
-3.640053 -0.975074 5.834623
-3.649381 -0.968286 5.847084
-5.162276 -1.166595 5.901987
-5.123066 -1.167309 5.899817
-5.095113 -1.167298 5.893536
-5.070948 -1.167106 5.884781
-5.081889 -1.167417 5.891926
-5.040885 -1.168817 5.898010
-5.421201 -1.148305 5.894335
-5.440550 -1.144617 5.892185
-5.466703 -1.138027 5.900265
-5.397975 -1.151982 5.894215
-5.403702 -1.151131 5.889221
-5.362674 -1.156289 5.900628
-5.387170 -1.153593 5.895560
-5.348267 -1.157543 5.901441
-5.320478 -1.159018 5.885061
-5.283918 -1.161787 5.897576
-5.263526 -1.161907 5.884380
-5.233482 -1.163417 5.893117
-5.223924 -1.162940 5.879348
-5.190888 -1.165023 5.894011
-5.008950 -1.169125 5.892605
-5.014524 -1.168154 5.882118
-5.000097 -1.169443 5.894631
-4.968761 -1.169062 5.883910
-4.936723 -1.170892 5.899642
-4.929123 -1.169224 5.879267
-4.887935 -1.172514 5.909498
-4.862121 -1.172845 5.906815
-4.868963 -1.174760 5.930651
-4.818970 -1.174435 5.914020
-4.839600 -1.174155 5.915992
-4.792854 -1.174578 5.910483
-4.764163 -1.175097 5.911002
-4.737956 -1.175791 5.913296
-4.746275 -1.175416 5.910858
-4.729563 -1.175780 5.911010
-4.699185 -1.176952 5.916765
-4.658713 -1.177947 5.918387
-4.645636 -1.177385 5.909114
-4.598517 -1.179106 5.913476
-4.606970 -1.177976 5.904569
-4.044299 -1.141863 6.007041
-3.995491 -1.121945 5.995049
-4.002853 -1.125648 5.993927
-3.902707 -1.081134 6.001932
-3.869795 -1.064444 6.012624
-3.879882 -1.074217 5.999721
-3.850817 -1.054516 6.013546
-3.813278 -1.033069 6.004008
-3.803699 -1.038675 5.991287
-3.824855 -1.041260 6.008302
-3.791120 -1.013020 5.992527
-3.785511 -0.989538 5.994970
-3.796936 -0.986275 6.009573
-3.776587 -0.954231 5.994049
-4.592120 -1.202672 6.153205
-4.551400 -1.204675 6.166802
-4.551911 -1.203435 6.153055
-4.517968 -1.205339 6.168954
-4.503854 -1.205885 6.173646
-4.466870 -1.204178 6.154038
-4.472079 -1.206316 6.176649
-4.444058 -1.204514 6.156724
-4.420072 -1.203993 6.151624
-4.425089 -1.205466 6.167633
-4.401778 -1.204578 6.160463
-4.359781 -1.202387 6.151732
-4.345935 -1.203597 6.176803
-4.305596 -1.199828 6.173470
-4.311740 -1.199614 6.156986
-4.283414 -1.197168 6.166496
-4.240546 -1.189305 6.165204
-4.214847 -1.183947 6.153228
-4.235876 -1.188607 6.159195
-4.191490 -1.173784 6.173911
-4.205407 -1.180990 6.153684
-4.171688 -1.166023 6.174378
-4.196398 -1.147645 6.342355
-4.204820 -1.150027 6.353885
-4.182615 -1.141171 6.344033
-4.162172 -1.132488 6.360940
-4.165310 -1.134119 6.349325
-4.144458 -1.128946 6.346973
-4.118282 -1.123738 6.364198
-4.123886 -1.124563 6.347571
-4.089128 -1.117440 6.364169
-4.100948 -1.121229 6.344857
-4.073427 -1.111265 6.367205
-4.050088 -1.085537 6.367204
-4.023053 -1.005989 6.354399
-4.017381 -1.008216 6.342718
-4.013731 -0.953972 6.348306
-4.017413 -0.967052 6.352609
-4.354528 -1.202988 6.447397
-4.352261 -1.204106 6.424742
-4.330465 -1.194972 6.439204
-4.330674 -1.196391 6.425963
-4.345995 -1.200538 6.441025
-4.296162 -1.179172 6.445557
-4.317422 -1.189212 6.442309
-4.294437 -1.180771 6.429073
-4.264130 -1.166352 6.426369
-4.258315 -1.161948 6.437209
-4.209390 -1.139108 6.447393
-4.186991 -1.132787 6.446918
-4.190929 -1.136513 6.428174
-4.167359 -1.129380 6.441769
-4.174104 -1.132222 6.434038
-4.131267 -1.118154 6.443462
-4.156721 -1.130381 6.425315
-4.108122 -1.111091 6.428485
-4.106150 -1.105928 6.432648
-4.090136 -1.085057 6.433826
-4.088910 -1.081279 6.435476
-4.080865 -1.053268 6.441265
-4.070855 -1.029663 6.432231
-4.072549 -1.017792 6.440384
-4.072779 -1.026782 6.437386
-4.062310 -0.992420 6.429345
-4.073433 -0.999404 6.448345
-4.064075 -0.973513 6.438671
-4.359006 -1.202786 6.468194
-4.338552 -1.196740 6.452051
-4.344677 -1.197777 6.462446
-4.305117 -1.179927 6.468568
-4.321563 -1.186976 6.472578
-4.249964 -1.153592 6.468115
-4.264399 -1.161650 6.459201
-4.232641 -1.146820 6.459905
-4.192237 -1.131883 6.464594
-4.195357 -1.134515 6.451438
-4.204626 -1.134070 6.477947
-4.167068 -1.123305 6.470178
-4.157255 -1.120461 6.466643
-4.114597 -1.084380 6.475015
-4.119081 -1.103837 6.452361
-4.087041 -1.032082 6.463824
-4.079836 -1.011711 6.456847
-4.085957 -1.016190 6.467294
-4.082279 -0.981732 6.470489
-4.085653 -0.998468 6.472308
-4.076765 -0.965144 6.464521
-4.071894 -0.957371 6.456531
-4.075069 -0.966417 6.460989
-4.361753 -1.179523 6.628973
-4.365959 -1.179147 6.638741
-4.338610 -1.168931 6.634438
-4.306695 -1.155458 6.637855
-4.283132 -1.148150 6.622282
-4.250695 -1.137501 6.617340
-4.228096 -1.120353 6.636117
-4.203636 -1.092111 6.634803
-4.189578 -1.078042 6.624174
-4.187220 -1.080452 6.616185
-4.177100 -1.041304 6.629272
-4.176096 -1.055803 6.618299
-4.173413 -1.011415 6.634898
-4.170718 -1.015183 6.628788
-4.166082 -0.983879 6.629181
-4.167826 -0.997672 6.629277
-4.171470 -0.966068 6.641982
-4.472691 -1.093167 6.809012
-4.481066 -1.095726 6.806962
-4.439994 -1.083967 6.817029
-4.450603 -1.100801 6.808890
-4.466389 -1.065495 6.818942
-4.456564 -1.082751 6.815864
-4.409653 -1.093187 6.813093
-4.416585 -1.093055 6.813403
-4.396613 -1.099940 6.808503
-4.421942 -1.081930 6.818377
-4.417214 -1.069427 6.822093
-4.399983 -1.071189 6.820892
-4.493704 -1.042994 6.817002
-4.475834 -1.043102 6.821693
-4.441486 -1.051830 6.825937
-4.406176 -1.043071 6.828506
-4.386502 -1.049237 6.825373
-4.375056 -1.052924 6.823013
-4.341413 -1.052054 6.813321
-4.349488 -1.026807 6.822993
-4.332527 -1.025164 6.816286
-4.346234 -1.011860 6.824643
-4.345269 -0.992747 6.827265
-4.349484 -0.961502 6.832131
-4.344021 -0.956625 6.830279
-4.305282 -0.990175 6.807907
-4.321623 -0.987778 6.817899
-4.312833 -0.969719 6.814519
-4.571918 -1.075104 4.825959
-4.491077 -1.077099 4.825101
-4.495012 -1.077867 4.832522
-4.442331 -1.078708 4.826555
-4.448575 -1.077175 4.814282
-4.429615 -1.078496 4.821784
-4.395830 -1.080932 4.836478
-4.397152 -1.079672 4.825994
-4.366502 -1.078593 4.810794
-4.351604 -1.082005 4.837039
-4.341434 -1.081272 4.828490
-4.316890 -1.081451 4.824944
-4.223767 -1.081712 4.812802
-4.198472 -1.085061 4.837041
-4.206705 -1.082187 4.814149
-4.021695 -1.098781 4.945415
-4.037764 -1.097109 4.930417
-4.011163 -1.098887 4.945051
-3.956042 -1.097698 4.925726
-3.964594 -1.098303 4.932992
-3.918000 -1.099235 4.939639
-3.920163 -1.099534 4.943049
-3.889884 -1.098961 4.936463
-3.894344 -1.099098 4.938200
-3.856997 -1.098210 4.925767
-3.879092 -1.098997 4.936650
-3.856858 -1.099178 4.938195
-3.824550 -1.098146 4.921830
-3.792297 -1.099708 4.933978
-3.766452 -1.101140 4.942495
-3.771350 -1.099558 4.926098
-3.696262 -1.102344 4.945370
-3.677333 -1.102340 4.944066
-3.663297 -1.101229 4.933932
-3.615541 -1.101370 4.938648
-3.594652 -1.099214 4.925251
-3.558213 -1.096986 4.924974
-3.547755 -1.098769 4.945345
-3.505211 -1.094177 4.941272
-3.528586 -1.097199 4.945352
-3.498002 -1.092198 4.938908
-3.465382 -1.083737 4.936742
-3.466022 -1.083106 4.934540
-3.434066 -1.059332 4.929468
-3.443494 -1.062365 4.919590
-3.414745 -1.042896 4.940903
-3.901630 -1.106613 5.018991
-3.834111 -1.106475 5.015683
-3.777457 -1.108074 5.020315
-3.797343 -1.105712 5.001648
-3.752311 -1.107514 5.009716
-3.764382 -1.107533 5.012630
-3.688897 -1.110263 5.028273
-3.684640 -1.109616 5.020592
-3.665267 -1.109333 5.014815
-3.621724 -1.108797 5.012922
-3.589487 -1.108438 5.013694
-3.573396 -1.107841 5.010770
-3.559563 -1.109317 5.027792
-3.531075 -1.108256 5.026403
-3.503145 -1.106098 5.020209
-3.477682 -1.105117 5.023989
-3.472160 -1.102104 5.006679
-3.439593 -1.099490 5.010307
-3.396755 -1.088917 5.012342
-3.396599 -1.095995 5.027785
-3.381243 -1.082070 5.012785
-3.361222 -1.068251 5.016020
-3.354082 -1.050128 5.008684
-4.585553 -1.108666 5.155105
-4.536412 -1.109779 5.160275
-4.510145 -1.108774 5.143422
-4.394526 -1.111466 5.147846
-4.385451 -1.112891 5.161947
-4.482845 -1.115959 5.212057
-4.431538 -1.117143 5.214237
-4.444475 -1.115358 5.198052
-4.415239 -1.117487 5.215020
-4.413844 -1.115475 5.194279
-4.380673 -1.116514 5.200440
-4.387281 -1.118209 5.218381
-4.356829 -1.116150 5.193478
-4.325891 -1.119098 5.217508
-4.296349 -1.118062 5.201187
-4.306280 -1.119536 5.219044
-4.267830 -1.118604 5.204071
-4.258569 -1.119724 5.216280
-4.216254 -1.118486 5.193861
-4.231862 -1.119107 5.204699
-4.186317 -1.120219 5.206718
-4.210981 -1.120487 5.217301
-4.159683 -1.121611 5.216717
-4.155540 -1.121906 5.219314
-4.148354 -1.120134 5.197168
-4.120205 -1.121166 5.204976
-4.083509 -1.121214 5.202181
-4.096631 -1.121824 5.210214
-4.066956 -1.122925 5.220153
-4.012063 -1.122303 5.206282
-3.981159 -1.123884 5.217994
-3.977925 -1.121782 5.195369
-3.951498 -1.124396 5.217960
-3.925631 -1.123028 5.197589
-3.922609 -1.124255 5.210552
-3.902416 -1.125152 5.216551
-3.910552 -1.123026 5.194152
-3.832947 -1.125515 5.213350
-3.853631 -1.124637 5.205075
-3.808063 -1.125636 5.211901
-3.821346 -1.126054 5.218211
-3.800736 -1.126080 5.216043
-3.762794 -1.125872 5.208049
-3.735236 -1.124965 5.195086
-3.741431 -1.126946 5.217885
-3.694352 -1.125710 5.202487
-3.717197 -1.125919 5.205177
-3.644188 -1.125953 5.202239
-3.649197 -1.127170 5.217270
-3.623439 -1.127351 5.220056
-3.628943 -1.126264 5.205330
-3.677423 -1.131524 5.273512
-3.684965 -1.130947 5.264332
-3.649121 -1.130435 5.262196
-3.624005 -1.130578 5.272891
-3.586281 -1.129749 5.274929
-3.535543 -1.126795 5.258979
-3.482313 -1.121465 5.251375
-3.415263 -1.107860 5.256349
-3.377533 -1.099155 5.255646
-3.320645 -1.081274 5.251753
-3.312888 -1.071908 5.270712
-3.291557 -1.066625 5.261615
-3.234617 -1.043776 5.259076
-3.254294 -1.051656 5.262195
-3.295049 -1.040577 5.444625
-4.144069 -1.151239 5.527807
-4.107277 -1.152492 5.536374
-4.116013 -1.151262 5.522495
-4.097300 -1.152560 5.536243
-4.065074 -1.152782 5.541248
-4.070217 -1.151849 5.529609
-4.025254 -1.151068 5.524045
-3.988447 -1.152964 5.546454
-3.942339 -1.152328 5.544404
-3.957905 -1.152391 5.538864
-3.923029 -1.152008 5.547464
-3.935938 -1.151388 5.523227
-3.889466 -1.150647 5.525693
-3.869303 -1.150351 5.535576
-3.873692 -1.150021 5.524070
-3.835616 -1.148012 5.535185
-3.852364 -1.149200 5.530680
-3.823140 -1.146742 5.539160
-3.788125 -1.143283 5.524483
-3.752932 -1.135950 5.535392
-3.725142 -1.127722 5.543622
-3.729392 -1.132671 5.521821
-3.704366 -1.124612 5.530757
-3.686081 -1.119650 5.526843
-3.667947 -1.107730 5.547753
-3.639872 -1.100811 5.535073
-3.643342 -1.098691 5.544981
-3.638143 -1.098877 5.538817
-3.608298 -1.087526 5.534101
-3.560043 -1.067904 5.543477
-3.554978 -1.069280 5.533490
-3.517941 -1.057684 5.543834
-3.450204 -1.062515 5.538264
-3.401737 -1.058423 5.540795
-5.186889 -1.139085 5.596889
-5.156638 -1.139810 5.594140
-5.130604 -1.139894 5.585606
-5.133437 -1.141124 5.597920
-5.094266 -1.142352 5.598213
-5.073218 -1.141635 5.589574
-5.087915 -1.142836 5.601186
-5.053366 -1.143136 5.602709
-5.007400 -1.142977 5.592075
-5.030414 -1.141966 5.587856
-4.988790 -1.143352 5.588870
-5.004801 -1.143528 5.597459
-4.956720 -1.145190 5.600263
-4.943614 -1.143724 5.580801
-4.896516 -1.146538 5.602497
-4.918611 -1.145072 5.590693
-4.887966 -1.144236 5.577222
-4.847489 -1.147260 5.602224
-4.839821 -1.145307 5.580582
-4.792725 -1.147551 5.594780
-4.802628 -1.146002 5.580154
-4.773908 -1.147338 5.588849
-4.733064 -1.148959 5.596360
-4.743186 -1.148548 5.594471
-4.714776 -1.149083 5.592084
-4.659319 -1.149246 5.587234
-4.641076 -1.149993 5.593282
-4.611042 -1.149111 5.577270
-5.236526 -1.139817 5.616090
-5.199792 -1.139670 5.605067
-5.181827 -1.140481 5.606845
-5.184125 -1.142179 5.622776
-5.143579 -1.143452 5.623587
-5.115816 -1.144644 5.626658
-5.128138 -1.144072 5.624980
-5.089410 -1.145255 5.625786
-5.105928 -1.143762 5.615063
-5.083861 -1.145433 5.627063
-5.057169 -1.143396 5.605537
-5.018114 -1.143773 5.604118
-5.026091 -1.145686 5.625267
-4.987176 -1.146847 5.626574
-4.939031 -1.146740 5.614427
-4.891419 -1.148366 5.624491
-4.771660 -1.150938 5.626819
-4.779556 -1.150064 5.619420
-4.735148 -1.151740 5.626624
-4.713164 -1.151019 5.613016
-4.682580 -1.152816 5.627988
-4.701668 -1.150854 5.608113
-4.654373 -1.150931 5.605321
-4.631729 -1.151860 5.611792
-4.600761 -1.152564 5.613911
-4.617899 -1.152624 5.617681
-5.075094 -1.165820 5.869682
-5.050057 -1.166470 5.870459
-5.469696 -1.140704 5.857966
-5.429828 -1.147257 5.868494
-5.434197 -1.146827 5.853248
-5.398777 -1.151732 5.864224
-5.397985 -1.151674 5.857121
-5.365196 -1.154884 5.859295
-5.386678 -1.153427 5.871076
-5.345831 -1.156763 5.870498
-5.341043 -1.156288 5.855588
-5.316901 -1.158925 5.876605
-5.281060 -1.160640 5.874218
-5.299275 -1.158158 5.850348
-5.229137 -1.162282 5.871747
-5.179813 -1.163890 5.872805
-5.191237 -1.163011 5.865880
-5.143125 -1.164554 5.868732
-5.149458 -1.163012 5.851227
-5.138848 -1.164002 5.860966
-5.088184 -1.164070 5.850893
-5.082891 -1.165650 5.869942
-4.983695 -1.166494 5.855494
-4.581393 -1.186855 5.989838
-4.550193 -1.187631 5.992967
-4.511915 -1.187656 5.990201
-4.466716 -1.189219 6.003192
-4.484773 -1.188582 5.997489
-4.456557 -1.187952 5.988118
-4.408184 -1.188343 5.987185
-4.428212 -1.189108 5.998119
-4.381543 -1.188758 5.989219
-4.401567 -1.189190 5.996430
-4.362620 -1.190163 6.005301
-4.333759 -1.190111 6.004658
-4.347356 -1.190349 6.007140
-4.313386 -1.190416 6.010972
-4.269819 -1.189682 6.012537
-4.285871 -1.188320 5.989390
-4.249452 -1.187228 5.988622
-4.215109 -1.185476 5.989144
-4.164037 -1.179604 6.007594
-4.141302 -1.175754 5.999114
-4.118523 -1.169954 6.002461
-4.107316 -1.168533 5.988985
-4.092437 -1.162407 6.002197
-4.053181 -1.150199 5.986789
-4.574217 -1.085842 4.921223
-4.548304 -1.086589 4.927019
-4.520033 -1.087231 4.929085
-4.486339 -1.089496 4.940650
-4.510956 -1.087612 4.930904
-4.480552 -1.088336 4.928190
-4.448041 -1.088874 4.922735
-4.453149 -1.089890 4.933708
-4.405003 -1.091647 4.936639
-4.417890 -1.092215 4.945982
-4.353559 -1.093158 4.938454
-4.330072 -1.092426 4.926159
-4.343720 -1.093458 4.939384
-4.307915 -1.092958 4.927574
-4.275892 -1.093412 4.927732
-4.282918 -1.094734 4.941529
-4.261432 -1.093345 4.925151
-4.231775 -1.093550 4.922093
-4.239531 -1.094212 4.929995
-4.203471 -1.095131 4.933995
-4.182554 -1.094325 4.921219
-4.132833 -1.095108 4.919860
-4.103275 -1.095572 4.920856
-4.079533 -1.096139 4.924952
-4.078514 -1.098220 4.946504
-4.062238 -1.098350 4.945977
-4.997330 -1.087515 5.023553
-4.951259 -1.088190 5.012643
-4.943039 -1.087926 5.008736
-4.908293 -1.089736 5.017138
-4.884383 -1.090707 5.021204
-4.829801 -1.091858 5.022232
-4.804540 -1.092565 5.025158
-4.796556 -1.090675 5.005602
-4.774345 -1.092549 5.019223
-4.750689 -1.091787 5.007416
-4.717047 -1.094131 5.022095
-4.717487 -1.093036 5.013369
-4.679986 -1.092780 5.003499
-4.688404 -1.094975 5.024420
-4.598015 -1.095841 5.014321
-4.615510 -1.095345 5.012016
-4.568729 -1.111048 5.181901
-4.542876 -1.111866 5.185681
-4.531287 -1.112379 5.188289
-4.495596 -1.112594 5.180787
-4.507033 -1.111608 5.173543
-4.588261 -1.109765 5.168359
-4.553557 -1.110189 5.168564
-4.554736 -1.110982 5.178264
-4.240044 -1.130241 5.319237
-4.257780 -1.130249 5.322385
-4.214151 -1.131235 5.326616
-4.193260 -1.131779 5.329565
-4.179162 -1.129777 5.307656
-4.131943 -1.131114 5.312189
-4.110649 -1.130884 5.308075
-4.089965 -1.130486 5.303120
-4.048563 -1.131310 5.310004
-4.067520 -1.131572 5.313542
-4.001837 -1.132324 5.315609
-3.981353 -1.131946 5.309492
-3.952142 -1.133199 5.319928
-3.959034 -1.131645 5.303090
-3.915868 -1.134024 5.321244
-3.928189 -1.132972 5.312791
-3.908273 -1.134763 5.327160
-3.859998 -1.134389 5.312845
-3.852388 -1.133594 5.302783
-3.848699 -1.135150 5.320004
-3.821254 -1.134716 5.312717
-3.775934 -1.134043 5.305141
-3.780691 -1.133914 5.303263
-3.722752 -1.134097 5.307061
-3.674513 -1.133761 5.316663
-3.638385 -1.132508 5.311552
-3.641823 -1.132375 5.303049
-3.614136 -1.131747 5.324888
-3.585639 -1.129596 5.325127
-3.567358 -1.127900 5.319396
-3.575637 -1.129351 5.304214
-3.529410 -1.122913 5.312842
-3.538873 -1.124790 5.311076
-3.510820 -1.120759 5.305856
-3.483235 -1.111193 5.326330
-3.487234 -1.111595 5.328774
-4.480803 -1.131538 5.374202
-4.456897 -1.130810 5.362076
-4.406038 -1.132282 5.368015
-4.430717 -1.131453 5.363757
-4.356955 -1.133690 5.376089
-4.375853 -1.133439 5.376811
-4.326147 -1.134304 5.376916
-4.298751 -1.133611 5.365667
-4.310024 -1.133968 5.370984
-4.244171 -1.136523 5.384004
-4.260594 -1.135112 5.373028
-4.218636 -1.136201 5.377959
-4.205019 -1.136302 5.377498
-4.210683 -1.135227 5.367421
-4.167587 -1.136365 5.370394
-4.182636 -1.137058 5.380876
-4.108213 -1.136761 5.365312
-4.093453 -1.137787 5.375705
-4.072967 -1.138000 5.378482
-4.028839 -1.138546 5.379912
-4.036709 -1.136341 5.359241
-4.001744 -1.136835 5.361656
-3.969703 -1.137578 5.368493
-3.948349 -1.137665 5.366215
-3.911812 -1.138743 5.368259
-3.910107 -1.138576 5.366400
-3.934746 -1.137357 5.360458
-3.867327 -1.139540 5.371300
-3.834622 -1.139788 5.374253
-3.399249 -0.996677 5.572353
-3.378438 -1.002729 5.551220
-3.372653 -0.988763 5.549137
-3.381222 -0.992864 5.556536
-3.372112 -0.961193 5.555547
-5.418392 -1.132198 5.589807
-5.400883 -1.133328 5.595154
-5.407679 -1.131549 5.577904
-5.350733 -1.135417 5.600960
-5.358069 -1.133619 5.583746
-5.324014 -1.134148 5.582896
-5.299509 -1.134360 5.579251
-5.302643 -1.136510 5.602096
-5.232895 -1.136208 5.582580
-5.216331 -1.137417 5.589916
-5.204764 -1.138263 5.594947
-5.021723 -1.175392 5.979617
-4.983858 -1.176258 5.974541
-4.960098 -1.176606 5.971387
-4.928737 -1.178647 5.986287
-4.898402 -1.177379 5.966860
