-3.659327 -0.602069 4.279202
-3.670248 -0.613950 4.287409
-3.679899 -0.617812 4.299237
-3.655028 -0.604191 4.272171
-3.664152 -0.563044 4.294670
-3.666883 -0.523843 4.304974
-3.656287 -0.526144 4.289837
-3.647402 -0.502856 4.281396
-3.666194 -0.423339 4.313033
-3.654634 -0.448427 4.292447
-3.681151 -0.349423 4.303875
-3.691755 -0.293421 4.283035
-3.679290 -0.328302 4.278459
-3.695231 -0.281471 4.282556
-3.707620 -0.227748 4.272951
-3.716138 -0.216375 4.299050
-3.721984 -0.177516 4.273249
-3.723456 -0.181907 4.294234
-3.735338 -0.120217 4.277499
-3.734725 -0.126635 4.307180
-3.741657 -0.071409 4.302535
-3.739266 -0.092078 4.305391
-3.872222 -0.997924 4.481494
-3.816038 -0.916197 4.451394
-3.809497 -0.887705 4.488264
-3.796730 -0.860965 4.450304
-3.794055 -0.849940 4.449969
-3.770434 -0.765717 4.455259
-3.743841 -0.689563 4.449203
-3.741874 -0.670590 4.489677
-3.740835 -0.668242 4.477749
-3.715682 -0.605828 4.488985
-3.725527 -0.622570 4.464064
-3.704203 -0.564771 4.482969
-3.713881 -0.583975 4.455086
-3.700811 -0.539922 4.475533
-3.695071 -0.459072 4.476179
-3.702218 -0.386889 4.448638
-3.700916 -0.396872 4.480754
-3.710260 -0.336527 4.448153
-3.708569 -0.349898 4.490697
-3.697333 -0.418808 4.484250
-3.848694 0.475776 4.620313
-3.848894 0.468960 4.615431
-3.842988 0.548010 4.624358
-3.850833 0.541968 4.586492
-3.844549 0.587824 4.591070
-3.848098 0.574260 4.580400
-3.828046 0.671384 4.591039
-3.824277 0.653225 4.622409
-3.824964 0.744189 4.587851
-3.826470 0.801041 4.591795
-3.837863 0.893281 4.610675
-3.881389 0.990367 4.603633
-3.860083 0.950173 4.611371
-3.850248 0.927275 4.605446
-3.862842 0.958561 4.624234
-3.903906 1.033405 4.601916
-3.885689 0.999136 4.606755
-3.912999 1.049032 4.586255
-3.943697 1.122300 4.599616
-3.933671 1.097769 4.608821
-3.951439 1.156766 4.601026
-3.883524 1.032975 4.728912
-3.893824 1.060427 4.743766
-3.884952 1.041448 4.740525
-3.875578 1.016029 4.722307
-3.861382 1.000310 4.737895
-3.919661 1.127111 4.745037
-3.911123 1.096324 4.743269
-3.929910 1.165464 4.739187
-3.926924 1.137076 4.729184
-3.967447 1.373360 4.741163
-3.977270 1.420594 4.749069
-3.969519 1.395801 4.719486
-3.986101 1.472978 4.738147
-3.982062 1.441989 4.754337
-3.989431 1.509283 4.727951
-3.939251 1.207452 4.726200
-3.943822 1.214143 4.713382
-3.942922 1.261675 4.725323
-3.941370 1.227336 4.725194
-3.951396 1.306651 4.739360
-3.958314 1.329883 4.750312
-3.956730 1.331155 4.723696
-3.992773 1.545376 4.751388
-3.987735 1.607742 4.730854
-3.981724 1.649561 4.717843
-3.988368 1.634059 4.745323
-3.984417 1.669440 4.738852
-3.981053 1.708977 4.743299
-3.990833 1.542112 4.799769
-3.991885 1.539192 4.775949
-3.992710 1.600339 4.769120
-3.992741 1.574944 4.787728
-3.991069 1.644163 4.768768
-3.988844 1.686304 4.781376
-3.992098 1.668342 4.795061
-3.986033 1.722373 4.793135
-3.850392 -0.920513 4.986948
-3.833733 -0.880183 4.985103
-3.831986 -0.874567 4.986056
-3.832206 -0.861552 4.998888
-3.826923 -0.849586 4.983480
-3.827877 -0.794646 5.018023
-3.825568 -0.807195 4.997543
-3.821103 -0.738582 4.992982
-3.824539 -0.772913 5.016410
-3.820987 -0.713976 5.010986
-3.820168 -0.718282 4.993371
-3.817040 -0.670519 5.018109
-3.811178 -0.632905 4.981985
-3.810221 -0.609492 5.011471
-3.803772 -0.570283 5.003573
-3.806149 -0.593105 4.989447
-3.790466 -0.527302 5.005877
-3.783784 -0.515141 5.000956
-3.754474 -0.465410 5.018317
-3.774142 -0.495802 5.011644
-3.715641 -0.425632 5.017540
-3.713307 -0.432350 4.995368
-3.709239 -0.434095 4.979276
-3.679229 -0.386317 5.002607
-3.663069 -0.364324 4.989581
-3.646226 -0.290804 4.994238
-3.648954 -0.281222 5.010831
-3.638577 -0.218846 4.994205
-3.640432 -0.171051 5.002533
-3.637185 -0.194849 4.986368
-3.652049 -0.113258 5.022763
-3.660115 -0.085095 4.987208
-3.669775 -0.046561 4.990747
-3.680384 -0.000001 4.981593
-3.719573 0.108620 4.990956
-3.700526 0.071247 5.001678
-3.688545 0.026813 5.008115
-3.966132 1.522312 5.051483
-3.942342 1.213333 5.031208
-3.940901 1.242072 5.024770
-3.955889 1.258299 5.064557
-3.944292 1.278998 5.033831
-3.940637 1.341429 5.038074
-3.947076 1.317921 5.054062
-3.936709 1.356972 5.025185
-3.931270 1.429848 5.052198
-3.935677 1.414625 5.036902
-3.933321 1.455232 5.056243
-3.966446 1.175583 5.082291
-3.960043 1.299500 5.095780
-3.957713 1.288013 5.081753
-3.962866 1.266347 5.090724
-3.956505 1.326217 5.099462
-3.945975 1.341877 5.068779
-3.937228 1.382921 5.102640
-3.945746 1.359493 5.085940
-3.925692 1.409250 5.081229
-3.926801 1.467612 5.096326
-3.945397 1.493922 5.073700
-3.940996 1.487739 5.075552
-3.978162 0.615507 5.279074
-4.010143 0.671525 5.284662
-3.975879 0.645042 5.265099
-4.018954 0.716252 5.270570
-3.942801 0.485337 5.285721
-3.951525 0.531742 5.281524
-3.940265 0.563084 5.258976
-3.956194 0.589992 5.266736
-3.943280 0.607377 5.249309
-3.964547 0.664995 5.247019
-2.595360 0.494056 2.092346
-2.585638 0.483246 2.084326
-2.609699 0.542857 2.086717
-2.592334 0.534347 2.063369
-2.637712 0.624954 2.097213
-2.605907 0.571744 2.064180
-2.615664 0.562621 2.085649
-2.633248 0.641104 2.083818
-2.627847 0.624777 2.078978
-2.641545 0.664433 2.093848
-2.626896 0.695251 2.066981
-2.652686 0.809649 2.076044
-2.636286 0.785404 2.069686
-2.728512 0.913759 2.096618
-2.746881 0.963667 2.087912
-2.682926 0.859912 2.076275
-2.658143 0.834420 2.065506
-2.693187 0.891571 2.061919
-2.707638 0.919006 2.060035
-2.765496 1.003136 2.093418
-2.742059 1.000978 2.058578
-2.773634 1.081880 2.078976
-2.763874 1.043086 2.074024
-2.766507 1.074776 2.067738
-2.790596 1.149499 2.097011
-2.760100 -1.004748 2.186629
-2.738569 -0.977099 2.184568
-2.702951 -0.916466 2.151678
-2.719088 -0.930251 2.187812
-2.707531 -0.878285 2.180098
-2.704165 -0.855388 2.173262
-2.692605 -0.792177 2.145149
-2.691078 -0.753828 2.154251
-2.699954 -0.769726 2.169923
-2.691331 -0.724017 2.167906
-2.692328 -0.672198 2.188335
-2.679635 -0.657143 2.155750
-2.685770 -0.609445 2.173445
-2.687302 -0.639112 2.180194
-2.782336 -0.218291 2.327580
-2.780527 -0.238562 2.329958
-2.806045 -0.161311 2.351565
-2.792037 -0.186204 2.334580
-2.801188 -0.140922 2.339155
-2.805768 -0.128683 2.347839
-2.792727 -0.088262 2.334055
-2.806293 -0.099301 2.354906
-2.800175 -0.063604 2.365804
-2.764593 -0.026298 2.322933
-2.748774 0.021191 2.332762
-2.759710 -0.015855 2.322132
-2.736488 0.064578 2.348768
-2.757921 0.035217 2.364535
-2.726551 0.090164 2.360901
-2.705138 0.103433 2.328039
-2.719828 0.074017 2.326240
-2.698066 0.119084 2.326541
-2.684027 0.192294 2.329855
-2.707688 0.215622 2.350801
-2.680722 0.208085 2.323128
-2.692707 0.245581 2.322807
-2.746400 0.331723 2.344851
-2.745675 0.297832 2.360015
-2.727517 0.317606 2.327703
-2.772140 0.372514 2.358510
-2.764386 0.368322 2.350239
-2.747872 0.341936 2.341867
-2.797515 0.460047 2.351518
-2.768579 0.435672 2.323865
-2.937737 -0.959815 2.691969
-2.930670 -0.927278 2.687103
-2.932778 -0.894671 2.697269
-2.935837 -0.825586 2.712509
-2.929712 -0.862169 2.693613
-2.927767 -0.786282 2.699291
-2.925270 -0.811852 2.690207
-3.080796 -0.080696 2.756616
-3.023237 -0.199546 2.749645
-3.027226 -0.165218 2.730577
-3.053575 -0.129459 2.749366
-3.069685 -0.073184 2.742050
-3.061279 -0.083315 2.738495
-3.089120 -0.036060 2.743731
-3.102346 0.015362 2.733711
-3.093585 0.002947 2.731305
-3.153331 0.042176 2.763027
-3.101316 0.035935 2.729320
-3.156781 0.087474 2.759570
-3.119579 0.094269 2.733492
-3.073131 -0.041534 2.732352
-3.153784 0.128223 2.761840
-3.139191 0.125298 2.750071
-3.128071 0.199167 2.763032
-3.137592 0.169759 2.761559
-3.083653 0.198146 2.724964
-3.103530 0.194328 2.740885
-3.120707 0.228304 2.762803
-3.081758 0.217326 2.725554
-3.098641 0.209051 2.740191
-3.086663 0.285459 2.736029
-3.097564 0.325324 2.751849
-3.102753 0.364985 2.758698
-3.101607 0.410332 2.758167
-3.079808 0.408190 2.733611
-3.107567 0.432044 2.763907
-3.076329 0.325152 2.728864
-3.001458 -0.998312 2.793075
-2.991175 -0.986397 2.787218
-2.958394 -0.831430 2.770577
-2.963444 -0.777585 2.796427
-2.966721 -0.799617 2.801336
-2.951717 -0.706972 2.765838
-2.969369 -0.577472 2.778528
-2.986202 -0.512829 2.776660
-2.978536 -0.542611 2.781392
-2.994986 -0.472198 2.791463
-3.002676 -0.427448 2.788573
-3.001623 -0.439256 2.765002
-2.988750 -0.503745 2.776410
-3.008435 -0.372780 2.786677
-3.015720 -0.326029 2.804105
-3.014285 -0.327233 2.796631
-3.027097 -0.243770 2.800635
-3.015721 -0.257676 2.778326
-3.241529 0.053942 2.923145
-3.228538 0.026295 2.913465
-3.250762 0.103447 2.905886
-3.271525 0.187168 2.935465
-3.261406 0.183655 2.918412
-3.264070 0.226107 2.920554
-3.276377 0.234907 2.938991
-3.271215 0.250720 2.932585
-3.257118 0.332045 2.918789
-3.264304 0.311234 2.928183
-3.285420 0.373436 2.936682
-3.299362 0.419061 2.932848
-3.280772 0.391706 2.926937
-3.322774 0.439038 2.941809
-3.300143 0.456880 2.918806
-3.253848 0.173788 2.901516
-3.244794 0.035606 2.953808
-3.279334 0.135747 2.969711
-3.290532 0.168680 2.983868
-3.274570 0.166033 2.945439
-3.280924 0.214571 2.948898
-3.294918 0.207425 2.979645
-3.279324 0.262698 2.946009
-3.286814 0.272638 2.959601
-3.309469 0.323509 2.980461
-3.286924 0.298621 2.957348
-3.322219 0.364404 2.978693
-3.297563 0.357409 2.953908
-3.352988 0.420340 2.979548
-3.381222 0.463966 2.984416
-3.347175 0.432760 2.966528
-3.307906 0.397607 2.949468
-3.310561 0.390367 2.955422
-3.300153 0.383372 2.946426
-3.329604 0.426984 2.954027
-3.159416 -0.911577 3.197796
-3.145680 -0.913855 3.173811
-3.153587 -0.874305 3.207543
-3.153666 -0.905968 3.192894
-3.140386 -0.846735 3.191570
-3.141935 -0.861171 3.192441
-3.145988 -0.806412 3.205731
-3.123107 -0.744840 3.180164
-3.113093 -0.724177 3.168675
-3.138526 -0.654880 3.203814
-3.111902 -0.658602 3.169567
-3.120178 -0.669808 3.183138
-3.136568 -0.627840 3.193689
-3.185499 -0.512860 3.205443
-3.131834 -0.585297 3.173435
-3.144724 -0.533474 3.175560
-3.165024 -0.541371 3.197082
-3.199088 -0.429162 3.190590
-3.152400 -0.475025 3.166913
-3.216997 -0.409530 3.200025
-3.194667 -0.396249 3.177322
-3.200631 -0.375262 3.177959
-3.224429 -0.300105 3.166599
-3.223039 -0.319504 3.176523
-3.250386 -0.286317 3.184435
-3.584766 1.181152 3.331092
-3.586747 1.221213 3.321551
-3.608349 1.270768 3.325480
-3.608063 1.312384 3.304347
-3.435805 -0.970988 3.561660
-3.420583 -0.964721 3.545286
-3.853070 1.548197 3.687306
-3.834946 1.530508 3.657788
-3.874173 1.651267 3.670946
-3.866755 1.628641 3.654567
-3.873119 1.683330 3.667038
-3.863814 1.731163 3.663126
-3.724802 0.828288 3.922154
-3.727186 0.830087 3.933612
-3.735287 0.884066 3.960122
-3.730707 0.899969 3.923403
-3.731441 0.931844 3.932133
-3.731965 0.919873 3.934274
-3.728324 0.980666 3.919971
-3.733837 0.986133 3.952389
-3.740815 1.082749 3.923905
-3.755656 1.123161 3.935694
-3.745108 1.093745 3.933493
-3.763557 1.139072 3.952426
-3.761502 1.140355 3.921922
-3.791371 1.194485 3.956497
-3.835121 1.257398 3.954871
-3.815087 1.232187 3.943474
-3.885574 1.349097 3.956499
-3.865637 1.299187 3.956186
-3.848718 1.282463 3.935272
-3.874297 1.329211 3.940502
-3.878798 1.367716 3.932557
-3.884024 1.373106 3.947843
-3.885285 1.437959 3.944134
-3.879135 1.469907 3.927415
-3.889568 1.458196 3.956859
-3.875941 1.481088 3.920349
-3.874105 1.503762 3.918993
-3.882436 1.549901 3.942092
-3.888590 1.549519 3.956515
-3.877671 1.586239 3.917255
-3.886088 1.575053 3.946779
-3.885244 1.643888 3.959792
-3.880848 1.638505 3.925193
-3.866260 1.691296 3.933748
-3.852222 1.719535 3.953378
-3.789570 1.109743 4.097689
-3.821505 1.168749 4.122746
-3.770064 1.006062 4.097730
-3.784646 1.050657 4.118894
-3.827441 1.195415 4.103351
-3.823518 1.176752 4.118173
-3.866235 1.261312 4.109643
-3.890484 1.292035 4.116671
-3.901502 1.319990 4.105826
-3.904772 1.322466 4.117456
-3.869265 1.270712 4.098201
-3.916784 1.390800 4.119892
-3.916087 1.395874 4.122414
-3.916074 1.476111 4.128872
-3.916647 1.454440 4.097442
-3.916903 1.499188 4.133579
-3.917815 1.504244 4.097458
-3.918216 1.538636 4.102968
-3.920003 1.608694 4.119826
-3.919193 1.589534 4.110736
-3.920716 1.641865 4.127525
-3.920414 1.627966 4.123437
-3.911840 1.699323 4.096364
-3.911824 1.697267 4.093689
-3.920236 1.671754 4.129485
-3.901139 1.729500 4.099261
-3.825094 0.490716 4.146496
-3.821758 0.592911 4.168034
-3.810888 0.585617 4.140630
-3.802611 0.637816 4.140293
-3.811322 0.601541 4.147197
-3.743178 -0.058133 4.277224
-3.742610 -0.062416 4.295396
-3.740253 0.004712 4.290611
-3.740358 0.065853 4.313255
-3.739110 0.023081 4.287178
-3.740318 0.101171 4.291806
-3.755855 0.229900 4.308208
-3.775901 0.285154 4.295780
-3.805660 0.362272 4.312873
-3.806986 0.364788 4.274524
-3.822162 0.396981 4.280647
-3.819102 0.390153 4.311612
-3.845785 0.453066 4.276697
-3.787212 0.319656 4.312452
-3.785003 0.307952 4.275803
-3.833344 -0.878612 4.951425
-3.825165 -0.832033 4.958905
-3.820867 -0.785437 4.963677
-3.822913 -0.812730 4.955702
-3.822413 -0.742038 4.942966
-3.819851 -0.692637 4.935066
-3.812694 -0.650988 4.952906
-3.818205 -0.684472 4.968419
-3.802383 -0.585188 4.975630
-3.788470 -0.544932 4.961677
-3.749392 -0.477801 4.972750
-3.759192 -0.503440 4.939571
-3.741369 -0.477210 4.948305
-3.713092 -0.439150 4.975381
-3.715065 -0.453636 4.938639
-3.696038 -0.434789 4.939055
-3.674486 -0.408987 4.940773
-3.645781 -0.333716 4.954422
-3.642794 -0.301086 4.967737
-3.643582 -0.328194 4.947659
-3.635849 -0.242648 4.951345
-3.640735 -0.197214 4.935816
-3.637911 -0.189390 4.977495
-3.651749 -0.119889 4.974113
-3.663069 -0.080998 4.967814
-3.657253 -0.109407 4.956514
-3.668901 -0.059827 4.966032
-3.688546 0.020759 4.938172
-3.683678 -0.000249 4.948708
-3.708319 0.092634 4.941004
-3.846992 0.488894 5.148511
-3.836312 0.490087 5.131814
-3.831825 0.477839 5.123792
-3.839845 0.545987 5.124669
-3.830168 0.533637 5.114889
-3.873940 0.591363 5.155620
-3.847407 0.579772 5.118526
-3.863472 0.622431 5.124308
-3.885050 0.658673 5.149613
-3.894964 0.709690 5.151114
-3.898531 0.743907 5.147721
-3.886011 0.761204 5.123057
-3.912582 0.801157 5.151601
-3.888136 0.809557 5.119838
-3.991191 0.929066 5.153834
-3.969288 0.923404 5.143358
-3.968506 0.954445 5.131537
-4.000382 0.986603 5.138908
-2.795775 1.733291 1.276821
-2.659222 1.094755 1.662400
-2.655315 1.150542 1.691749
-2.930188 1.641462 1.683553
-2.923806 1.653942 1.662578
-2.970932 1.699812 1.669400
-2.952731 1.667496 1.680823
-2.656350 1.184253 1.700207
-2.646868 1.191758 1.668816
-2.666059 1.240265 1.699061
-2.652762 1.241110 1.669794
-2.679099 1.287117 1.698376
-2.669908 1.270133 1.690067
-2.671627 1.326620 1.668952
-2.737902 1.437002 1.678764
-2.755416 1.426048 1.693670
-2.771018 1.472376 1.678493
-2.804191 1.474223 1.701733
-2.741449 1.476386 1.660568
-2.744687 1.440486 1.680620
-2.794897 1.496956 1.682262
-2.698674 1.388607 1.671632
-2.691022 1.359670 1.677100
-2.715065 1.400748 1.680343
-2.557724 0.805022 1.772388
-2.699236 -1.004708 2.009618
-2.655215 -0.959466 1.990506
-2.678340 -0.992923 1.991881
-2.643052 -0.933206 1.985315
-2.641359 -0.884826 2.007315
-2.631995 -0.864099 1.985744
-2.638100 -0.851421 2.004709
-2.631494 -0.841669 1.987725
-2.629486 -0.810419 1.990983
-2.616210 -0.732346 1.991740
-2.605344 -0.689459 1.984275
-2.614711 -0.730031 1.989495
-2.600428 -0.650118 1.983775
-2.604060 -0.655138 1.989850
-2.604163 -0.599652 1.988028
-2.612663 -0.605214 2.006630
-2.596066 -0.593461 1.968925
-2.602179 -0.520159 1.974450
-2.615453 -0.519298 2.006682
-2.986606 1.733707 2.161547
-2.816872 1.200593 2.151543
-2.817915 1.256008 2.146065
-2.839233 1.249282 2.180022
-2.839789 1.310913 2.153835
-2.901140 1.408805 2.182511
-2.895898 1.444190 2.154436
-2.729719 0.572719 2.232706
-2.734008 0.598824 2.232041
-2.702905 0.503109 2.220613
-2.669658 0.478754 2.191067
-2.717086 0.531667 2.228292
-2.689804 0.555472 2.191809
-2.722205 0.593906 2.219859
-2.708782 0.610256 2.200071
-2.732355 0.668338 2.212510
-2.733625 0.650623 2.218765
-2.747289 0.727117 2.216820
-2.770865 0.767658 2.231906
-2.758617 0.762294 2.219429
-2.774106 0.786514 2.227892
-2.749749 0.801271 2.191621
-2.718909 0.685101 2.189482
-2.724301 0.672231 2.200588
-2.798608 0.854096 2.228591
-2.790102 0.870850 2.208157
-2.816896 0.950102 2.212546
-2.817671 0.979057 2.204580
-2.809304 0.941408 2.202858
-2.830257 1.033009 2.213660
-2.837979 1.016777 2.233270
-2.826293 0.998038 2.214777
-2.830447 1.065942 2.203638
-2.826617 1.045638 2.201938
-2.831063 1.112672 2.190460
-2.838875 -0.211906 2.425231
-2.848323 -0.229254 2.442985
-2.853274 -0.172310 2.450013
-2.836397 -0.197386 2.418283
-2.844388 -0.123714 2.445408
-2.836280 -0.144779 2.419526
-2.833212 -0.087424 2.438416
-2.826867 -0.090276 2.418909
-2.817623 -0.055348 2.420635
-2.811203 -0.032166 2.424738
-2.810243 -0.003589 2.445262
-2.813201 -0.006719 2.449763
-2.802176 0.032176 2.453449
-2.782609 0.042034 2.414991
-2.752927 0.102884 2.424919
-2.769296 0.082584 2.425864
-2.738431 0.130235 2.414777
-2.752724 0.124559 2.433807
-2.767370 0.191345 2.430421
-2.760837 0.195107 2.420072
-2.777351 0.240313 2.419084
-2.769851 0.208124 2.424113
-2.801711 0.236791 2.452258
-2.801246 0.279144 2.436831
-2.784044 0.251354 2.423854
-2.835739 0.365821 2.448846
-2.810419 0.289528 2.445176
-2.810875 0.313267 2.436561
-2.813494 0.366672 2.416189
-2.847844 0.408427 2.450410
-2.839023 0.458921 2.415665
-2.924593 0.505056 2.526393
-2.903063 0.491516 2.508000
-2.956131 0.551697 2.541291
-2.939494 0.544622 2.525847
-2.933537 0.522825 2.528480
-2.950608 0.558807 2.533086
-2.934930 0.569687 2.510528
-2.955763 0.619864 2.518574
-2.970840 0.617491 2.537330
-2.976799 0.680755 2.524367
-2.956747 0.674638 2.501630
-2.975205 0.719001 2.508816
-2.978904 0.714501 2.515089
-2.998152 0.749370 2.533795
-2.994344 0.801787 2.520357
-3.001354 0.800801 2.533926
-2.974740 0.748539 2.499593
-2.988571 0.772222 2.513382
-3.000930 0.849928 2.534384
-2.994864 0.887301 2.528980
-2.990422 0.930233 2.537540
-2.981673 0.927395 2.506350
-2.977646 0.976241 2.521545
-2.978913 0.960446 2.518258
-2.992831 1.061328 2.541731
-2.970901 1.036226 2.511140
-2.975619 1.000059 2.526962
-2.980079 1.074455 2.510848
-2.997622 1.124555 2.516857
-3.010864 1.150333 2.528183
-3.001418 1.137355 2.517017
-2.985620 1.115157 2.500074
-3.020380 0.544316 2.610628
-3.036390 0.574628 2.623275
-3.043163 0.588065 2.630897
-3.023372 0.562409 2.609723
-3.034667 0.578790 2.620253
-3.039675 0.610996 2.621652
-3.028857 0.631889 2.602867
-3.041450 0.660274 2.615222
-3.047439 0.658362 2.624088
-3.032284 0.676028 2.598971
-3.036015 0.706776 2.600348
-3.052987 0.694595 2.628103
-3.048311 0.770974 2.621660
-3.050417 0.741655 2.622772
-3.037496 0.806537 2.605237
-3.033957 0.810377 2.598574
-3.034687 0.791560 2.596576
-3.045357 0.851749 2.629455
-3.029667 0.833626 2.594202
-3.040457 0.884824 2.624488
-3.025575 0.899051 2.600367
-3.040678 0.939522 2.630825
-3.019732 0.917299 2.593610
-3.033625 0.924790 2.617846
-3.032672 0.963703 2.619176
-3.080237 1.165549 2.628374
-3.038326 1.036395 2.613460
-3.041604 1.000144 2.628112
-3.036092 1.050833 2.605859
-3.043470 1.046617 2.618541
-3.029766 1.045014 2.598536
-3.044622 1.121725 2.597635
-3.048963 1.110214 2.607626
-3.070439 1.146155 2.624747
-3.058020 1.132676 2.613396
-3.085294 1.190079 2.622217
-3.105196 1.233773 2.628807
-3.101304 1.295855 2.600003
-3.109687 1.276859 2.620097
-3.122233 1.330392 2.626695
-2.916283 -0.960778 2.638264
-2.915464 -0.909265 2.655309
-2.915334 -0.872541 2.659853
-2.909268 -0.900926 2.642418
-2.905853 -0.859665 2.640114
-2.911745 -0.814635 2.658991
-3.145658 0.572015 2.760253
-3.162408 0.636190 2.758059
-3.138364 0.616926 2.739947
-3.161603 0.649851 2.755733
-3.167573 0.723839 2.761314
-3.146848 0.689424 2.740114
-3.168589 0.739127 2.763104
-3.164692 0.734715 2.759469
-3.150770 0.735155 2.746872
-3.147397 0.811373 2.751203
-3.141389 0.789019 2.743585
-3.156850 0.844069 2.764236
-3.122090 0.862805 2.736656
-3.142360 0.879970 2.757814
-3.112442 0.897523 2.731483
-3.104600 0.993533 2.733708
-3.106147 1.032159 2.727952
-3.125635 1.047169 2.752176
-3.130872 1.046348 2.759239
-3.118072 1.053048 2.738371
-3.134886 1.116367 2.740554
-3.142920 1.092275 2.762773
-3.122332 1.093770 2.728621
-3.146685 1.144374 2.748612
-3.178608 1.234455 2.763871
-3.152474 1.185820 2.736527
-3.170886 1.293832 2.721289
-3.182138 1.340969 2.737744
-3.180587 1.328291 2.736556
-3.378717 0.496366 2.964149
-3.362215 0.466256 2.963948
-3.391396 0.542438 2.961747
-3.368696 0.529868 2.942721
-3.384318 0.563510 2.953451
-3.393211 0.614640 2.976955
-3.384603 0.606455 2.963416
-3.357046 0.721513 2.968820
-3.381060 0.688053 2.985218
-3.345532 0.775268 2.952881
-3.364127 0.746240 2.976593
-3.354051 0.800452 2.964807
-3.341659 0.734883 2.954706
-3.357177 0.870774 2.979095
-3.344523 0.838884 2.959512
-3.336398 0.893862 2.962294
-3.309088 0.926468 2.943119
-3.338132 0.929842 2.975647
-3.320820 0.964432 2.971325
-3.311323 1.012282 2.985764
-3.298937 1.010278 2.969540
-3.268194 1.077024 2.967577
-3.280838 1.058674 2.973296
-3.268783 1.283663 2.992592
-3.288773 1.281338 3.024989
-3.286199 1.349344 3.001938
-3.294971 1.317385 3.027215
-3.294656 1.382065 3.007436
-3.281669 1.359831 2.987321
-3.306324 1.425003 3.001809
-3.296861 1.404999 2.997366
-3.355551 1.511601 2.992722
-3.336983 1.462459 3.022299
-3.334338 1.471215 3.007141
-3.316959 1.440536 3.009962
-3.442961 1.595938 3.009048
-3.492064 1.646659 3.016005
-3.453129 1.619704 2.991966
-3.503046 1.665290 3.010870
-3.401639 1.559689 2.999104
-3.387907 1.542837 3.002243
-3.546905 1.733972 3.019682
-3.302394 -0.964751 3.357434
-3.340407 -0.992004 3.351549
-3.300368 -0.954268 3.374027
-3.273027 -0.907565 3.372653
-3.260373 -0.919543 3.344613
-3.271777 -0.900164 3.373147
-3.270415 -0.857756 3.383123
-3.266958 -0.761239 3.377897
-3.284887 -0.647536 3.369585
-3.307303 -0.613672 3.369480
-3.291275 -0.634006 3.367207
-3.249659 -0.768188 3.354871
-3.250633 -0.740089 3.355485
-3.244783 -0.691537 3.340711
-3.704375 1.074548 3.702684
-3.706922 1.058334 3.714864
-3.714227 1.129238 3.712140
-3.737628 1.198164 3.728418
-3.724544 1.177784 3.714389
-3.749842 1.227756 3.733545
-3.738797 1.237377 3.714019
-3.748671 1.292391 3.704124
-3.776291 1.338537 3.720616
-3.788484 1.361300 3.727085
-3.803943 1.410547 3.721651
-3.835623 1.481902 3.718590
-3.827317 1.456116 3.726804
-3.850089 1.517263 3.719344
-3.876893 1.613178 3.718758
-3.861613 1.555789 3.716870
-3.856927 1.543636 3.712697
-3.874328 1.602509 3.720005
-3.872823 1.607687 3.695028
-3.870201 1.573147 3.732590
-3.880675 1.647812 3.700597
-3.876754 1.617988 3.706184
-3.886425 1.696966 3.717512
-3.885592 1.662589 3.731856
-3.876535 1.618200 3.703997
-3.713411 1.036211 3.756177
-3.707893 1.004103 3.751474
-3.723263 1.052182 3.782026
-3.733993 1.124160 3.765499
-3.723554 1.113545 3.740030
-3.738756 1.150766 3.758703
-3.806504 1.335896 3.771723
-3.791821 1.322938 3.749810
-3.746534 1.201085 3.742331
-3.758396 1.199732 3.768141
-3.758875 1.239795 3.739583
-3.816225 1.387518 3.761984
-3.832906 1.417412 3.776119
-3.836389 1.446776 3.760550
-3.850497 1.486930 3.767339
-3.877565 1.608569 3.740479
-3.869040 1.560898 3.763977
-3.867147 1.550987 3.769962
-3.880429 1.628662 3.745106
-3.888914 1.709862 3.745518
-3.808074 0.419584 4.069437
-3.807427 0.380586 4.084326
-3.795511 0.457610 4.049095
-3.812238 0.456199 4.086150
-3.602388 -0.692814 4.061116
-3.576976 -0.648978 4.089592
-3.581921 -0.657780 4.079696
-3.572573 -0.656314 4.056141
-3.550394 -0.606761 4.060570
-3.548028 -0.575471 4.091196
-3.546872 -0.582300 4.071385
-3.546882 -0.546847 4.066271
-3.566305 -0.477851 4.082098
-3.577552 -0.423910 4.064581
-3.575144 -0.452408 4.092987
-3.605937 -0.349559 4.085543
-3.606811 -0.342359 4.072235
-3.803140 0.678649 4.145998
-3.802428 0.647279 4.141854
-3.796742 0.772712 4.145432
-3.806107 0.735471 4.160687
-3.793638 0.802786 4.142663
-3.804181 0.788806 4.165438
-3.797247 0.828594 4.156080
-3.788906 0.867243 4.148651
-3.789640 0.935664 4.161267
-3.786115 0.903083 4.151845
-3.783054 0.914534 4.145020
-3.787838 0.919786 4.157652
-3.786726 0.960943 4.151773
-3.793806 1.024709 4.147040
-3.804825 1.061581 4.156501
-3.822189 1.121919 4.169629
-3.823155 1.111480 4.175249
-3.833028 1.154380 4.167950
-3.820407 1.148369 4.144606
-3.851691 1.202974 4.160027
-3.849097 1.213113 4.139058
-3.859783 1.227729 4.148242
-3.916460 1.349112 4.162199
-3.909770 1.385192 4.175537
-3.916297 1.366038 4.147696
-3.910312 1.433842 4.152658
-3.912695 1.416597 4.144198
-3.911384 1.470495 4.154414
-3.912773 1.459304 4.145682
-3.908092 1.500686 4.177003
-3.915761 1.504578 4.143217
-3.916080 1.533908 4.148392
-3.916143 1.611151 4.164534
-3.916283 1.586913 4.157259
-3.860461 -0.999331 4.343484
-3.805271 -0.916933 4.352950
-3.799081 -0.903668 4.334523
-3.791250 -0.880878 4.316993
-3.776592 -0.827532 4.335753
-3.787707 -0.859789 4.332172
-3.759506 -0.787508 4.325415
-3.775419 -0.815266 4.354944
-3.751953 -0.765305 4.334740
-3.731840 -0.696495 4.354234
-3.715235 -0.301944 4.418951
-3.712988 -0.316208 4.430828
-3.723550 -0.256507 4.419857
-3.737174 -0.180940 4.410035
-3.735647 -0.187288 4.438088
-3.738186 -0.121185 4.434284
-3.737221 -0.106334 4.446196
-3.740098 -0.091370 4.408750
-3.744545 -0.000344 4.409074
-3.744174 0.019263 4.412663
-3.743865 0.000114 4.419645
-3.742967 0.052313 4.428854
-3.742460 0.091854 4.422830
-3.742792 0.067051 4.422677
-3.740880 0.137493 4.417037
-3.741816 0.120599 4.439899
-3.743496 0.180704 4.442173
-3.750981 0.225616 4.431662
-3.765842 0.270783 4.423589
-3.819740 0.375223 4.444256
-3.804986 0.351620 4.419627
-3.839708 0.409963 4.444936
-3.836068 0.404778 4.427225
-3.862972 0.459481 4.430588
-3.853919 0.440593 4.427785
-3.782626 0.308775 4.419807
-3.880485 0.524039 4.451715
-3.864077 0.468632 4.469952
-3.876416 0.528955 4.475867
-3.878780 0.591051 4.489057
-3.883438 0.592658 4.447781
-3.881389 0.554671 4.464793
-3.877811 0.622361 4.483710
-3.880440 0.625832 4.461581
-3.879233 0.609034 4.479824
-3.874072 0.655210 4.481480
-3.858512 0.711589 4.489768
-3.869035 0.722703 4.454383
-3.863160 0.758147 4.465931
-3.860566 0.738131 4.474855
-3.857200 0.815001 4.482874
-3.862753 0.776429 4.465294
-3.865409 0.836436 4.448686
-3.857882 0.826919 4.479671
-3.858121 0.885957 4.471383
-3.860310 0.865119 4.462567
-3.887583 0.991556 4.471588
-3.877727 0.970147 4.467906
-3.869035 0.946056 4.461665
-3.859300 0.909463 4.474635
-3.872944 0.959074 4.471636
-3.903075 1.026157 4.465327
-3.894524 1.007393 4.467807
-3.929483 1.107985 4.452504
-3.937941 1.146639 4.473816
-3.843802 0.492886 4.643051
-3.837744 0.512523 4.665571
-3.817446 0.638538 4.660817
-3.824807 0.607952 4.650210
-3.821440 0.664723 4.635923
-3.820172 0.657990 4.646220
-3.820112 0.729164 4.634991
-3.815315 0.790302 4.666003
-3.817587 0.821904 4.658845
-3.835270 0.893763 4.624681
-3.823651 0.869998 4.662772
-3.838133 0.918429 4.665886
-3.843514 0.924991 4.648790
-3.871597 0.978654 4.638614
-3.862645 0.961101 4.636103
-3.894152 1.022445 4.648225
-3.881359 1.000720 4.659387
-3.925212 1.081840 4.634630
-3.916416 1.063961 4.638638
-3.906284 1.045977 4.651518
-3.929705 1.094863 4.641724
-3.948234 1.155048 4.654502
-3.944878 1.134207 4.640432
-3.824369 0.508914 4.700318
-3.830357 0.495528 4.683982
-3.829180 0.544662 4.680320
-3.823253 0.588475 4.672688
-3.815105 0.633613 4.676187
-3.812353 0.664948 4.684364
-3.807283 0.672937 4.712212
-3.814992 0.703719 4.673839
-3.811046 0.731454 4.690229
-3.830946 0.906751 4.677058
-3.822633 0.890872 4.697203
-3.829087 0.908351 4.688375
-3.845721 0.955145 4.709757
-3.935929 -1.004299 4.779624
-3.914007 -0.979954 4.767848
-3.920560 -0.988444 4.788627
-3.882415 -0.923903 4.760057
-3.893437 -0.945157 4.784666
-3.849565 -0.868451 4.770897
-3.868938 -0.903799 4.777737
-3.837205 -0.835933 4.789846
-3.824497 -0.801332 4.766723
-3.827528 -0.790156 4.795433
-3.809306 -0.737589 4.757576
-3.799610 -0.688486 4.763397
-3.801951 -0.680447 4.796621
-3.785712 -0.646325 4.765480
-3.777657 -0.605511 4.796460
-3.754455 -0.563228 4.775271
-3.763406 -0.577787 4.784950
-3.744808 -0.549610 4.763281
-3.735870 -0.531804 4.761596
-3.710755 -0.471571 4.784939
-3.726105 -0.502738 4.776636
-3.673715 -0.380216 4.789991
-3.668594 -0.350721 4.786239
-3.661515 -0.299431 4.796960
-3.663946 -0.267829 4.786119
-3.669378 -0.203421 4.810935
-3.656150 -0.241463 4.830560
-3.674775 -0.169531 4.827233
-3.706480 -0.081833 4.813996
-3.693736 -0.107159 4.830378
-3.722090 -0.026460 4.812514
-3.706232 -0.048445 4.839028
-3.724360 0.016585 4.834150
-3.737598 0.047531 4.827089
-3.753188 0.085301 4.813987
-3.766752 0.148292 4.813250
-3.766655 0.170142 4.837961
-3.780677 0.231868 4.822999
-3.779339 0.223461 4.822005
-3.786851 0.281910 4.821753
-3.783128 0.260196 4.834013
-3.787271 0.324153 4.824235
-3.786927 0.300212 4.825778
-3.786211 0.356127 4.816841
-3.785141 0.337533 4.835593
-3.780252 0.393934 4.827667
-3.778738 0.431344 4.813334
-3.873822 0.922728 5.032578
-3.919615 1.019466 5.054535
-3.914358 1.039042 5.032828
-3.925649 1.050792 5.051365
-3.927859 1.107270 5.030315
-3.950703 1.115891 5.063961
-3.949057 1.133909 5.056072
-3.964485 1.023998 5.107330
-3.927095 1.011281 5.070779
-3.940624 1.042977 5.075954
-3.963730 1.075402 5.090458
-3.964318 1.157248 5.078550
-4.010180 1.563251 5.138615
-3.990127 1.537487 5.128339
-4.008829 1.569850 5.134239
-4.009071 1.650280 5.134233
-4.016624 1.734160 5.112647
-3.944636 0.833490 5.165264
-2.649883 1.126101 1.508506
-2.652946 1.102343 1.513247
-2.643219 1.173425 1.503745
-2.908318 1.724293 1.490923
-2.637763 1.205836 1.496832
-2.549553 0.791684 1.713485
-2.539125 0.616529 1.728310
-2.529222 0.665655 1.721874
-2.526293 0.729160 1.723090
-2.535296 0.759447 1.718368
-2.526377 0.737230 1.729713
-2.595044 0.862707 1.731466
-2.587256 0.850506 1.717413
-2.569125 0.822029 1.702887
-2.612948 0.894269 1.745370
-2.598075 0.865854 1.717914
-2.643760 0.943926 1.717471
-2.642251 0.943199 1.732832
-2.651086 0.962734 1.741045
-2.652449 0.961502 1.714899
-2.633081 0.926982 1.732565
-2.669809 1.039741 1.744608
-2.667504 1.016938 1.721751
-2.670870 1.075305 1.735755
-2.670360 1.053131 1.731330
-2.567683 0.768320 1.852487
-2.587723 0.806095 1.854990
-2.574260 0.792011 1.838177
-2.572939 0.780876 1.851444
-2.467659 0.475981 1.839175
-2.460456 0.473255 1.857292
-2.459970 0.522202 1.875254
-2.461088 0.511228 1.853344
-2.482063 0.584732 1.857866
-2.481726 0.584039 1.840944
-2.492842 0.604389 1.865754
-2.521841 0.671933 1.860746
-2.509490 0.658027 1.841131
-2.512674 0.651864 1.863252
-2.543121 0.719454 1.849904
-2.544743 0.725690 1.845344
-2.612587 0.855989 1.851202
-2.599469 0.824552 1.863895
-2.625484 0.878993 1.854726
-2.656878 0.937410 1.857360
-2.651830 0.928808 1.855480
-2.689793 1.033985 1.858656
-2.681818 1.001155 1.859664
-2.691973 1.024854 1.876031
-2.701015 1.067769 1.871278
-2.702749 1.111471 1.837247
-2.707400 1.110933 1.867558
-2.712716 1.134933 1.877269
-2.996361 1.614452 1.856864
-2.928307 1.557617 1.866642
-2.918434 1.541132 1.845286
-2.980057 1.596741 1.857081
-2.976706 1.601903 1.866542
-2.996837 1.654168 1.860212
-2.994104 1.651310 1.867164
-2.990801 1.621647 1.868283
-2.556681 0.685148 1.935309
-2.564274 0.680741 1.954818
-2.559432 0.699553 1.930408
-2.569007 0.703842 1.951390
-2.586038 0.743465 1.966232
-2.576115 0.737642 1.931660
-2.601717 0.801398 1.939349
-2.489331 0.496260 1.962731
-2.476997 0.483031 1.940312
-2.486773 0.512989 1.954654
-2.512583 0.565532 1.953550
-2.543611 0.620409 1.953306
-2.546104 0.672990 1.923576
-2.647683 0.881934 1.966108
-2.635810 0.863236 1.961147
-2.610682 0.821504 1.949662
-2.661601 0.909154 1.955963
-2.686270 0.962105 1.948691
-2.689508 0.960479 1.964354
-2.678718 0.956987 1.925668
-2.710608 1.009602 1.957869
-2.707810 1.003141 1.954880
-2.723279 1.056322 1.956375
-2.724556 1.103995 1.944006
-2.617244 -0.572642 2.013391
-2.634902 -0.509894 2.049252
-2.628913 -0.524443 2.038085
-2.637584 -0.454473 2.049572
-2.624654 -0.478405 2.025622
-2.641097 -0.408092 2.056210
-2.623356 -0.414355 2.021209
-2.631692 -0.341454 2.050297
-2.612458 -0.357772 2.014540
-2.599895 -0.300917 2.012080
-2.625350 -0.298266 2.048694
-2.601982 -0.206498 2.036262
-2.592560 -0.234006 2.017917
-2.611012 -0.190787 2.052664
-2.602219 -0.175820 2.043547
-2.588621 -0.177006 2.023396
-2.598561 -0.113584 2.054721
-2.576967 -0.116751 2.021536
-2.567802 -0.077760 2.016508
-2.589412 -0.109870 2.042682
-2.580466 -0.033777 2.045176
-2.566712 -0.060202 2.018054
-2.565538 0.008145 2.026807
-2.573782 -0.005942 2.039055
-2.569026 0.051361 2.051267
-2.554700 0.055969 2.021029
-2.556476 0.088326 2.040433
-2.554317 0.150073 2.049497
-2.550307 0.185090 2.045314
-2.549415 0.216671 2.047888
-2.651909 -0.557462 2.093037
-2.653560 -0.578318 2.095711
-2.647217 -0.422185 2.065692
-2.645805 -0.443866 2.064905
-2.668396 -0.390262 2.099603
-2.646963 -0.351336 2.070345
-2.657845 -0.327952 2.087633
-2.654753 -0.283095 2.091176
-2.629876 -0.259286 2.063650
-2.644303 -0.174121 2.099864
-2.630860 -0.240083 2.069006
-2.622805 -0.160463 2.074789
-2.603315 -0.066896 2.071712
-2.605215 -0.095024 2.067674
-2.618563 -0.084186 2.087102
-2.621590 -0.054376 2.098235
-2.608670 -0.048288 2.082659
-2.604089 0.019097 2.096799
-2.597854 0.054533 2.100133
-2.578443 0.033096 2.061044
-2.588534 0.039126 2.079952
-2.583450 0.082287 2.087072
-2.558708 0.199179 2.066666
-2.560722 0.174135 2.065786
-2.560589 0.228498 2.076289
-2.563474 0.204997 2.078814
-2.674059 0.526125 2.181180
-2.687690 0.563188 2.187773
-3.024056 1.181498 2.538778
-3.014165 1.175746 2.522115
-3.044432 1.257857 2.525617
-3.041904 1.279428 2.510304
-3.045391 1.271861 2.519479
-3.056256 1.326107 2.510183
-3.092100 1.389714 2.542570
-3.082386 1.410407 2.511842
-3.082738 1.442378 2.500925
-3.094203 1.462096 2.529847
-3.091983 1.510593 2.518364
-3.093945 1.500849 2.527206
-3.071129 1.353196 2.522932
-3.095198 1.555502 2.510397
-3.102269 1.565790 2.540721
-3.103447 1.601182 2.510513
-3.112072 1.635212 2.508823
-3.142541 1.698849 2.502883
-3.156319 1.725009 2.534456
-3.170574 1.711758 2.664992
-3.166359 1.709350 2.650112
-3.111573 0.498777 2.752708
-3.130089 0.527654 2.761461
-3.090917 0.517179 2.722323
-3.117336 0.537475 2.744240
-3.189195 1.201905 2.811627
-3.197530 1.194507 2.842005
-3.196621 1.236804 2.813280
-3.204162 1.238944 2.840581
-3.214631 1.292510 2.846077
-3.204100 1.267776 2.818259
-3.208733 1.294899 2.819688
-3.217906 1.307003 2.850984
-3.212265 1.341401 2.819325
-3.218222 1.369785 2.829468
-3.224606 1.380701 2.844988
-3.225452 1.420862 2.835315
-3.215366 1.397516 2.815683
-3.229273 1.483327 2.824129
-3.220953 1.479149 2.812963
-3.229281 1.502980 2.820556
-3.247711 1.501128 2.844018
-3.257523 1.579394 2.835876
-3.286765 1.605708 2.852004
-3.262919 1.647895 2.822766
-3.273006 1.695088 2.823752
-3.295108 1.683872 2.843113
-3.271334 1.712085 2.817610
-3.230688 1.559120 2.816033
-3.232544 1.590402 2.810085
-3.247114 1.611853 2.817208
-3.246703 1.617958 2.815163
-3.254440 1.670652 2.811693
-3.307586 1.273634 3.050714
-3.319544 1.341314 3.058582
-3.331471 1.341703 3.073882
-3.330970 1.383285 3.065211
-3.305387 1.370622 3.033648
-3.341064 1.438216 3.052041
-3.334800 1.426467 3.050001
-3.332626 1.397121 3.063772
-3.384283 1.474842 3.074003
-3.406566 1.525188 3.052342
-3.442158 1.562000 3.050836
-3.492172 1.599996 3.068681
-3.451115 1.587252 3.031675
-3.546544 1.673644 3.072007
-3.532368 1.682454 3.042694
-3.519370 1.633355 3.073134
-3.500433 1.642970 3.035352
-3.423753 1.540407 3.055793
-3.482337 0.661593 3.153102
-3.496005 0.726124 3.132173
-3.492999 0.699655 3.143733
-3.492745 0.744102 3.121253
-3.494124 0.795721 3.138155
-3.492637 0.783860 3.132110
-3.488529 0.865374 3.155685
-3.467433 0.896833 3.137370
-3.470371 0.874264 3.131328
-3.448411 0.924660 3.121981
-3.463475 0.920740 3.141869
-3.458593 0.991634 3.160446
-3.430699 0.979750 3.120965
-3.426763 1.027003 3.133171
-3.430219 1.015102 3.132994
-3.402275 1.070021 3.120603
-3.417648 1.053802 3.131458
-3.396586 1.123222 3.129614
-3.412324 1.097147 3.139815
-3.430803 1.090178 3.157706
-3.390901 1.133829 3.126070
-3.409417 1.140464 3.145689
-3.398969 1.187913 3.141948
-3.415502 1.195324 3.157329
-3.409597 1.247253 3.152103
-3.379019 1.230307 3.125337
-3.388532 1.259104 3.132361
-3.403481 1.265763 3.145561
-3.381197 1.264054 3.125364
-3.380128 1.303531 3.121941
-3.392127 1.333620 3.129013
-3.430537 1.333619 3.160810
-3.178760 -0.920577 3.216947
-3.196370 -0.912491 3.247825
-3.181800 -0.890737 3.241028
-3.156975 -0.885514 3.207721
-3.157548 -0.828076 3.223525
-3.149653 -0.790791 3.213756
-3.166154 -0.787466 3.241674
-3.143028 -0.752275 3.210146
-3.151323 -0.713476 3.227207
-3.160171 -0.729737 3.240601
-3.171471 -0.656832 3.245845
-3.186174 -0.622896 3.248821
-3.151361 -0.685750 3.228170
-3.166748 -0.654664 3.239495
-3.156677 -0.631843 3.219295
-3.279115 -0.423805 3.251014
-3.271063 -0.412211 3.241811
-3.257554 -0.338980 3.216334
-3.289505 -0.327653 3.233752
-3.302852 -0.285893 3.223108
-3.181118 -0.569323 3.220857
-3.238912 -0.515038 3.250990
-3.177164 -0.550002 3.210413
-3.210231 -0.531771 3.233467
-3.219385 -0.500138 3.229112
-3.254267 -0.481197 3.251204
-3.212275 -0.508162 3.226092
-3.247495 -0.431648 3.228916
-3.241816 -0.365110 3.209488
-3.621535 1.389124 3.271779
-3.656428 1.411330 3.280834
-3.634052 1.430360 3.254609
-3.642189 1.396463 3.281335
-3.653584 1.412148 3.278503
-3.706146 1.450396 3.294001
-3.722505 1.515263 3.280476
-3.718963 1.495040 3.282993
-3.678385 1.479315 3.257803
-3.694491 1.468835 3.274893
-3.649890 1.442830 3.256098
-3.693357 1.498162 3.262717
-3.797098 1.699568 3.286973
-3.615247 0.994506 3.412020
-3.614974 0.952850 3.423821
-3.620369 1.033885 3.419564
-3.612562 1.066530 3.395162
-3.611370 1.126854 3.385640
-3.625478 1.164669 3.403303
-3.630168 1.144337 3.420310
-3.638150 1.220618 3.400087
-3.674046 1.287261 3.414752
-3.671820 1.298255 3.388785
-3.698273 1.326902 3.425159
-3.799111 1.521073 3.420302
-3.790766 1.501631 3.411285
-3.708815 1.358254 3.386320
-3.716702 1.359586 3.422915
-3.754043 1.430984 3.413311
-3.744452 1.414305 3.404343
-3.736386 1.403187 3.388936
-3.739864 1.404216 3.419865
-3.775304 1.470821 3.394027
-3.766050 1.455084 3.413312
-3.823752 1.565405 3.396623
-3.803668 1.529711 3.419677
-3.837194 1.599763 3.393782
-3.829387 1.592053 3.410000
-3.837705 1.655110 3.411481
-3.835815 1.650399 3.417479
-3.834065 1.640604 3.423048
-3.842865 1.704899 3.398701
-3.837804 1.674835 3.414611
-3.804819 1.560167 3.464223
-3.819343 1.602586 3.447790
-3.815336 1.579115 3.445213
-3.828898 1.658255 3.449218
-3.828428 1.649121 3.445880
-3.829314 1.634811 3.433003
-3.828247 1.665181 3.453564
-3.834922 1.741158 3.436105
-3.831563 1.706541 3.446176
-3.532063 0.471243 3.464203
-3.541805 0.548669 3.471766
-3.528173 0.523545 3.457628
-3.507685 0.480659 3.429707
-3.516137 0.465714 3.441126
-3.511264 0.542549 3.438722
-3.526613 0.589911 3.450898
-3.535053 0.638782 3.451541
-3.520194 0.574830 3.445209
-3.553087 0.676057 3.462347
-3.533236 0.654320 3.441059
-3.561931 0.704254 3.463912
-3.572925 0.742296 3.462396
-3.592104 0.802851 3.466235
-3.581932 0.799003 3.442459
-3.608927 0.860906 3.463828
-3.599849 0.840514 3.456458
-3.597252 0.821796 3.464530
-3.613560 0.851319 3.483799
-3.624554 0.912190 3.476727
-3.640107 0.988088 3.496920
-3.634687 0.960202 3.488005
-3.645403 1.031775 3.511234
-3.651953 1.161351 3.504247
-3.658734 1.192679 3.507622
-3.655921 1.179050 3.512555
-3.668197 1.230620 3.505354
-3.703974 1.338433 3.473383
-3.696893 1.321851 3.487551
-3.697912 1.323640 3.473604
-3.723171 1.387007 3.505725
-3.709010 1.352221 3.484707
-3.743932 1.431339 3.490133
-3.731234 1.398635 3.473413
-3.753021 1.453523 3.486130
-3.754170 1.465990 3.508299
-3.633363 0.500786 3.641327
-3.629566 0.475083 3.637024
-3.624975 0.535472 3.626091
-3.616850 0.586094 3.617482
-3.619856 0.576668 3.622011
-3.625030 0.606934 3.638996
-3.611797 0.712180 3.608116
-3.621464 0.723666 3.635999
-3.627194 0.754696 3.629600
-3.624918 0.745678 3.630956
-3.635088 0.794062 3.611461
-3.644134 0.793579 3.636143
-3.663442 0.840743 3.642897
-3.649972 0.832827 3.609946
-3.673687 0.880551 3.639399
-3.668038 0.870857 3.627317
-3.686890 0.985543 3.648813
-3.681603 1.033930 3.637223
-3.680957 1.003915 3.630653
-3.675791 1.059831 3.622749
-3.675805 1.042233 3.621948
-3.685682 1.104309 3.650235
-3.670913 1.102079 3.612418
-3.671929 1.167069 3.615171
-3.683191 1.199302 3.634759
-3.681964 1.180431 3.635350
-3.687614 1.248052 3.626199
-3.700580 1.279492 3.635406
-3.718699 1.321685 3.646419
-3.697591 1.288202 3.620508
-3.815827 1.516397 3.633876
-3.802701 1.494158 3.635305
-3.792646 1.499350 3.607017
-3.729197 1.370732 3.623436
-3.746572 1.403244 3.632087
-3.780468 1.460593 3.633924
-3.771608 1.450272 3.627883
-3.639393 0.357069 3.717222
-3.638871 0.342829 3.724774
-3.649610 0.397359 3.712396
-3.653036 0.416052 3.708290
-3.663000 0.423129 3.725825
-3.482152 -0.943848 3.709435
-3.474291 -0.890547 3.733979
-3.456853 -0.840554 3.717650
-3.441378 -0.821568 3.695421
-3.452899 -0.805004 3.713265
-3.463767 -0.743635 3.736511
-3.437101 -0.701845 3.695469
-3.460121 -0.717675 3.732093
-3.451330 -0.651410 3.717673
-3.461485 -0.681389 3.735393
-3.442169 -0.602013 3.696444
-3.461181 -0.623722 3.733054
-3.461576 -0.554921 3.716313
-3.470125 -0.561970 3.738116
-3.457424 -0.551373 3.704672
-3.481580 -0.482172 3.702043
-3.504739 -0.456049 3.737068
-3.496090 -0.462223 3.720758
-3.515222 -0.377061 3.724990
-3.500730 -0.409890 3.705997
-3.512215 -0.372394 3.714408
-3.514010 -0.349078 3.697309
-3.546118 -0.305544 3.738321
-3.580755 -0.168322 3.726506
-3.571033 -0.132935 3.711975
-3.559839 -0.096859 3.710444
-3.537912 -0.050497 3.697861
-3.550303 -0.042261 3.728687
-3.535735 -0.019600 3.707925
-3.727804 0.482053 3.911897
-3.717152 0.538957 3.909830
-3.710613 0.586468 3.895627
-3.705845 0.638467 3.882587
-3.704844 0.637060 3.875317
-3.706284 0.685092 3.906525
-3.703337 0.667985 3.885163
-3.703777 0.707954 3.894734
-3.701021 0.767126 3.879026
-3.706400 0.750951 3.903537
-3.710543 0.805587 3.886414
-3.754889 0.499352 3.990625
-3.743868 0.500390 3.967284
-3.748796 0.512341 3.984351
-3.736370 0.535375 3.966499
-3.729877 0.564001 3.962210
-3.734510 0.562226 3.972422
-3.727944 0.632983 3.973384
-3.730209 0.607236 3.974447
-3.738740 0.684932 4.003388
-3.737554 0.807328 3.996191
-3.736660 0.842814 3.983245
-3.737486 0.884818 3.978297
-3.740778 0.979478 3.989011
-3.737988 0.956928 3.976164
-3.739873 1.009653 3.981466
-3.742200 1.020812 3.989731
-3.744441 1.056963 3.981621
-3.765790 1.122458 4.000161
-3.774189 1.153822 3.977863
-3.774199 1.141695 4.004270
-3.901153 1.040437 4.671625
-3.879417 1.012257 4.699870
-3.908920 1.063241 4.687391
-3.930753 1.127153 4.706796
-3.922083 1.099002 4.703487
-3.967204 1.394029 4.703031
-3.974027 1.426643 4.706889
-3.977142 1.449563 4.703061
-3.942751 1.181754 4.704763
-3.947957 1.229725 4.696466
-3.948081 1.298102 4.704428
-3.953516 1.321727 4.711402
-3.948683 1.317110 4.673843
-3.988966 1.565680 4.712583
-3.983758 1.579132 4.693583
-3.976781 1.619084 4.680180
-3.972300 1.672411 4.674336
-3.976804 1.687165 4.710863
-3.707379 -0.027169 4.849632
-3.707614 -0.009439 4.861995
-3.731612 0.062787 4.852244
-3.709474 0.037676 4.882895
-3.734755 0.093497 4.868910
-3.748471 0.142526 4.885583
-3.738281 0.113856 4.879602
-3.769951 0.197138 4.864023
-3.763530 0.161771 4.846880
-3.779331 0.243863 4.859548
-3.781908 0.281998 4.887045
-3.781764 0.266822 4.855592
-3.782326 0.328598 4.889316
-3.780397 0.362181 4.860737
-3.782909 0.339940 4.858592
-3.771945 0.419670 4.864737
-3.775627 0.394456 4.876226
-3.769583 0.455662 4.847357
-2.637022 1.437573 1.571332
-2.654072 1.411055 1.612243
-2.636771 1.378860 1.596974
-2.630703 1.397352 1.580036
-2.686501 1.480266 1.612130
-2.654843 1.440611 1.598128
-2.714727 1.520656 1.579965
-2.704635 1.514914 1.574715
-2.703015 1.505306 1.593390
-2.714242 1.505995 1.611019
-2.773081 1.553179 1.607262
-2.771287 1.562555 1.584247
-2.754267 1.541204 1.601080
-2.805688 1.596614 1.575773
-2.869060 1.641573 1.597400
-2.870293 1.649209 1.578452
-2.852556 1.636184 1.574854
-2.888048 1.663823 1.577358
-2.671595 1.144199 1.740044
-2.905364 1.570267 1.723608
-2.951279 1.587503 1.742378
-2.942030 1.580834 1.741313
-2.977194 1.647698 1.722912
-2.981565 1.634445 1.734086
-2.960410 1.627083 1.721316
-2.980350 1.622196 1.740036
-2.934479 1.623943 1.703858
-2.984924 1.690787 1.708717
-2.993050 1.709422 1.714839
-2.733247 1.339607 1.727582
-2.726880 1.326809 1.731224
-2.671798 1.202449 1.725039
-2.710411 1.284018 1.739881
-2.685268 1.264758 1.718784
-2.723763 1.309713 1.739538
-2.715103 1.340189 1.712230
-2.777685 1.384592 1.735173
-2.732646 1.356997 1.715226
-2.727288 1.369606 1.704694
-2.796138 1.405775 1.741638
-2.784013 1.427852 1.713612
-2.814325 1.482632 1.706194
-2.832773 1.499364 1.715624
-2.837803 1.484819 1.735004
-2.789506 1.449210 1.704606
-2.517744 0.155264 1.827361
-2.536548 0.198759 1.792610
-2.523092 0.163192 1.817543
-2.533039 0.223036 1.799098
-2.518592 0.221520 1.820656
-2.542068 0.276155 1.790764
-2.509958 0.387062 1.818525
-2.494007 0.409459 1.825924
-2.521886 0.425984 1.794104
-2.487150 0.452599 1.820438
-2.500135 0.442744 1.808681
-2.586119 -0.471354 1.946774
-2.568731 -0.431892 1.927660
-2.586833 -0.449346 1.951839
-2.572434 -0.382747 1.946387
-2.575704 -0.411665 1.942751
-2.566834 -0.346311 1.950321
-2.574933 -0.371947 1.953112
-2.574119 -0.324297 1.966398
-2.555461 -0.300449 1.945224
-2.561561 -0.277142 1.959255
-2.541924 -0.264155 1.932504
-2.554260 -0.186579 1.964498
-2.543754 -0.188949 1.947168
-2.533895 -0.111955 1.939195
-2.528214 -0.150207 1.926105
-2.539910 -0.070284 1.956901
-2.537958 -0.043111 1.953845
-2.536175 -0.064283 1.947061
-2.533343 -0.020573 1.942531
-2.532074 0.052000 1.955372
-2.533007 0.030333 1.952237
-2.522946 0.101686 1.934780
-2.516884 0.151572 1.930367
-2.517341 0.135110 1.925110
-2.521709 0.192725 1.966375
-2.513923 0.233289 1.948218
-2.514156 0.222389 1.946579
-2.513581 0.251516 1.950508
-2.510556 0.318373 1.962725
-2.500145 0.318944 1.923573
-2.506716 0.349991 1.962863
-2.495222 0.374041 1.935889
-2.488873 0.459037 1.961048
-2.489674 0.441173 1.955505
-2.541497 0.132293 2.016829
-2.541394 0.236667 2.029955
-2.548156 0.232942 2.047334
-2.535838 0.286571 2.024000
-2.539636 0.265437 2.030044
-2.532410 0.332457 2.027177
-2.533919 0.347919 2.031263
-2.535043 0.398158 2.040270
-2.522704 0.377285 2.015850
-2.529103 0.437411 2.024065
-2.543467 0.460554 2.038968
-2.995469 0.548584 2.582314
-2.976128 0.501959 2.578519
-2.949249 0.498438 2.554399
-2.935100 0.469749 2.551043
-2.955025 0.523558 2.550846
-2.998627 0.579893 2.578364
-2.998066 0.562952 2.581528
-3.012660 0.626257 2.584150
-2.986160 0.562150 2.568740
-3.006805 0.686268 2.561833
-3.006861 0.724316 2.552176
-3.023921 0.698504 2.583663
-3.009670 0.773445 2.547702
-3.025839 0.756010 2.579228
-3.027862 0.817797 2.586910
-3.008940 0.778215 2.546067
-3.017106 0.855125 2.572888
-3.010599 0.826072 2.552349
-3.001717 0.886970 2.547358
-3.013499 0.897297 2.576729
-2.999897 0.948052 2.564957
-3.008571 0.940935 2.579421
-2.993302 0.972479 2.557780
-3.007545 0.961835 2.580734
-2.983029 0.988026 2.544027
-3.000411 1.024676 2.565353
-3.006970 0.997736 2.580855
-3.018389 1.073056 2.572416
-3.000369 1.078962 2.543932
-2.985455 1.020039 2.544977
-3.019641 1.127105 2.555277
-3.024264 1.141567 2.557643
-3.080333 1.293043 2.564553
-3.059105 1.205542 2.577753
-3.064149 1.238479 2.566241
-2.971796 0.256583 2.627806
-2.947550 0.268158 2.599967
-2.976989 0.310071 2.627066
-2.970852 0.292169 2.623015
-2.945857 0.312458 2.594595
-2.955671 0.371507 2.598142
-2.983730 0.392255 2.623508
-2.988927 0.436258 2.616416
-3.415861 0.488576 3.022826
-3.410943 0.543908 2.986953
-3.431464 0.517387 3.029996
-3.430629 0.579284 3.025286
-3.416262 0.641861 3.016930
-3.414533 0.604216 3.007426
-3.409052 0.663787 3.010284
-3.401039 0.654281 2.999286
-3.406645 0.729149 3.015136
-3.377252 0.713336 2.986450
-3.406353 0.738802 3.015377
-3.404391 0.808719 3.023668
-3.390960 0.805163 3.007248
-3.374875 0.797094 2.987682
-3.398064 0.837505 3.021857
-3.370370 0.830436 2.986923
-3.397090 0.872813 3.029069
-3.377734 0.889410 3.009171
-3.366829 0.870018 2.989961
-3.351685 0.919254 2.986343
-3.368575 0.928546 3.013178
-3.364805 0.960719 3.024245
-3.332750 0.974850 2.990976
-3.330032 1.037362 3.023116
-3.304377 1.062531 3.006268
