0.214384 -0.746866 -3.321447
0.204141 -0.719416 -3.314300
0.203179 -0.685295 -3.313552
0.149691 -0.773998 -3.258891
0.182392 -0.775374 -3.294726
0.180807 -0.721946 -3.292918
0.152658 -0.726077 -3.262272
0.186128 -0.638835 -3.298865
0.146259 -0.654925 -3.255554
0.193369 -0.735606 -3.305419
0.124890 -0.775710 -3.228099
0.127169 -0.797822 -3.230421
0.139152 -0.711217 -3.247197
0.112032 -0.116185 -3.210768
0.139488 -0.082382 -3.250407
0.119493 -0.046869 -3.221388
0.135832 -0.032405 -3.243966
0.133937 -0.080936 -3.242644
0.114651 -0.020150 -3.214283
0.128176 0.027435 -3.233958
0.115884 0.144449 -3.217915
0.130348 0.115315 -3.238377
0.132031 0.162470 -3.240758
0.112219 0.166406 -3.212661
0.131481 0.201432 -3.239975
0.107874 0.259136 -3.205006
0.119681 0.245386 -3.222814
0.120197 0.302784 -3.222069
0.108792 0.500265 3.663482
0.184369 0.513497 3.689754
0.158010 0.520212 3.683054
0.179905 0.567063 3.695641
0.149822 0.573283 3.690257
0.219476 0.515440 3.684804
0.219444 0.489277 3.682622
0.215466 0.575545 3.691728
0.216736 0.554996 3.689433
0.133240 0.618372 3.698307
0.215278 0.633921 3.700096
0.164205 0.864190 3.687125
0.144269 0.848127 3.697512
0.140848 0.907517 3.660008
0.216919 0.891564 3.662529
0.211544 0.912363 3.650107
0.157955 0.850392 -3.273200
0.185510 0.864958 -3.305535
0.164626 0.927635 -3.281708
0.142787 0.960910 -3.253852
0.187215 0.895445 -3.308048
0.190119 0.898103 -3.310949
0.147274 0.969975 -3.259775
0.182772 1.002758 -3.305885
0.180454 1.042762 -3.304281
0.152105 1.037126 -3.268892
0.174600 1.086373 -3.298720
0.150809 1.089596 -3.270188
0.184926 1.128628 -3.311555
0.184635 1.156592 -3.311141
0.153940 1.187202 -3.273583
0.179532 1.204964 -3.303346
0.156521 1.229466 -3.274782
0.165689 1.235066 -3.285291
0.161492 1.242716 -3.279888
0.153068 1.283330 -3.267554
0.186329 1.308725 -3.307265
0.141698 1.130592 3.498705
0.182955 1.133653 3.496289
0.151089 1.182220 3.463249
0.189479 1.141601 3.489925
0.217044 1.102702 3.514792
0.191414 1.169713 3.466643
0.136913 0.931420 3.641957
0.187526 0.947289 3.629969
0.182154 0.991213 3.596185
0.170595 1.007756 3.583025
0.215824 1.308271 3.133677
0.199342 1.326108 3.105059
0.174517 1.286096 3.310979
0.129360 1.331015 3.297603
0.196548 1.261333 3.331941
0.213027 1.261238 3.298269
0.192677 1.282314 3.275187
0.140321 -0.111288 3.700713
0.108154 -0.068101 3.690252
0.183804 -0.026873 3.685101
0.184765 -0.081254 3.691132
0.221360 -0.105213 3.686135
0.222372 -0.049325 3.675517
0.199243 -0.040483 3.682257
0.113689 0.039471 3.678487
0.110491 -0.008573 3.683786
0.150506 -0.009607 3.684854
0.170576 0.030647 3.680156
0.114738 0.101617 3.659923
0.128995 0.099547 3.662773
0.160414 0.042212 3.678835
0.212373 -0.018340 3.675498
0.215649 0.039306 3.669935
0.212381 0.046098 3.670386
0.196771 0.098474 3.666302
0.152349 0.126186 3.659853
0.146084 0.137868 3.655133
0.153797 0.177358 3.647479
0.197512 0.208832 3.652763
0.152998 0.265990 3.644748
0.184061 0.292459 3.654257
0.141973 0.315452 3.644387
0.223279 0.295434 3.655884
0.196712 0.305970 3.656383
0.182208 0.401116 3.670825
0.112448 0.456274 3.656401
0.176842 0.458072 3.679648
0.146853 0.463099 3.670894
0.209912 0.402598 3.671213
0.187813 0.349108 3.661087
0.212387 0.457366 3.680090
0.203089 0.428092 3.676187
0.172895 0.634696 3.706885
0.119448 0.688789 3.712606
0.150143 0.656975 3.709282
0.136000 0.692431 3.715951
0.222503 0.706089 3.707171
0.191248 0.672081 3.714375
0.169424 0.756978 3.722680
0.149078 0.770804 3.722769
0.118537 0.801926 3.713671
0.170758 0.805311 3.714461
0.222909 0.771631 3.705271
0.206597 0.756023 3.713934
0.186915 0.797894 3.716610
0.120375 0.888578 -3.215564
0.124282 0.952934 -3.215149
0.129182 0.937235 -3.229471
0.114930 0.987911 -3.192630
0.118295 1.040298 -3.218037
0.116797 1.081044 -3.221598
0.127280 1.068464 -3.238139
0.109331 1.120220 -3.211375
0.125799 1.107996 -3.238236
0.110601 1.153617 -3.213587
0.134045 1.207313 -3.249096
0.110688 1.228644 -3.209326
0.117288 1.257613 -3.218030
0.126922 1.229162 -3.236965
0.108787 1.323878 -3.191482
0.122261 1.324314 -3.217317
0.134400 1.315064 -3.239520
0.172939 1.366018 3.050764
0.197087 1.339540 3.042936
0.176878 1.249831 3.374874
0.168951 1.252310 3.378231
0.143883 1.277982 3.361993
0.170974 1.277887 3.336534
0.218132 1.228900 3.362701
0.216143 1.217736 3.390232
0.196731 1.374980 2.944078
0.217155 1.346601 2.956344
0.114348 1.352213 -3.194311
0.127824 1.374935 -3.213233
0.128292 1.341183 -3.225016
0.220857 1.288498 3.192439
0.219798 1.284780 3.206228
0.131615 1.381789 3.190895
0.150215 1.365216 3.170457
0.150676 1.371273 3.153279
0.164226 -0.115219 -3.278878
0.153381 -0.100910 -3.266353
0.151385 -0.092231 -3.263977
0.166158 -0.049109 -3.279280
0.160291 -0.047584 -3.272713
0.163640 -0.003784 -3.275985
0.160001 0.032315 -3.272003
0.157388 0.073799 -3.269699
0.184538 0.053042 -3.298386
0.191703 0.096669 -3.304742
0.195121 0.057735 -3.308280
0.156879 0.103116 -3.269063
0.148808 0.151675 -3.261017
0.162887 0.173829 -3.276591
0.175708 0.224843 -3.291773
0.169979 0.254508 -3.284003
0.175240 0.276699 -3.289041
0.148638 0.333037 -3.258672
0.177286 0.313218 -3.290496
0.196849 0.316842 -3.310258
0.177643 1.368287 3.017135
0.179737 1.372185 2.996947
0.212093 1.345950 2.968180
0.209751 -0.150036 3.701738
0.214421 0.861116 -3.327552
0.208644 0.911460 -3.324510
0.205193 0.961462 -3.323149
0.194496 1.021361 -3.317119
0.191836 1.032532 -3.315471
0.218571 1.098673 -3.335584
0.216849 1.130901 -3.334603
0.212448 1.197737 -3.330578
0.214795 1.270012 -3.330203
0.191935 1.228820 -3.314960
0.219661 1.285759 -3.333240
0.184488 -0.635528 -3.297107
0.171900 -0.580768 -3.284886
0.180402 -0.550013 -3.295161
0.154144 -0.514844 -3.266977
0.187371 -0.599467 -3.301046
0.192310 -0.518626 -3.308218
0.148579 -0.503488 -3.261029
0.148267 -0.496015 -3.260770
0.181439 -0.438471 -3.299011
0.156449 -0.425674 -3.270692
0.190599 -0.491274 -3.307437
0.170055 -0.387031 -3.286667
0.156520 -0.377778 -3.271348
0.144374 -0.352684 -3.257682
0.139941 -0.366724 -3.252497
0.140667 -0.326056 -3.253653
0.172389 -0.274850 -3.290359
0.160373 -0.235496 -3.275880
0.181622 -0.222250 -3.300768
0.153742 -0.203018 -3.267849
0.145737 -0.176084 -3.258465
0.124590 -0.581472 -3.230523
0.129378 -0.585609 -3.236424
0.137789 -0.560835 -3.247447
0.114012 -0.490216 -3.215952
0.120023 -0.462780 -3.224596
0.128681 -0.506884 -3.236469
0.129762 -0.465412 -3.238000
0.121160 -0.437136 -3.226391
0.125523 -0.444696 -3.232499
0.135300 -0.401304 -3.246173
0.109483 -0.385751 -3.209881
0.121036 -0.341180 -3.226841
0.110316 -0.296377 -3.210965
0.133277 -0.250329 -3.243089
0.136921 -0.191059 -3.247583
0.173877 1.309147 3.245313
0.180922 1.311615 3.216626
0.189334 1.297209 3.236978
0.210264 1.275006 3.258273
0.107818 1.382643 3.244787
0.144271 1.352893 3.215104
0.200660 0.384980 -3.312880
0.221716 0.600696 -3.322757
0.205728 0.761342 -3.316504
0.202868 0.812033 -3.317626
0.199622 0.787764 -3.314136
0.222876 -0.134094 -3.333187
0.213624 -0.097983 -3.324783
0.206267 -0.054994 -3.318208
0.222881 -0.018489 -3.329346
0.218906 0.029376 -3.326882
0.220896 0.044216 -3.328326
0.213505 0.130493 -3.323218
0.197829 0.220806 -3.314096
0.214827 0.212938 -3.326093
0.196486 0.228535 -3.313085
0.210236 0.312998 -3.319963
0.172457 1.208267 3.431430
0.145134 1.213236 3.435752
0.184012 1.217144 3.417873
0.215007 -0.624062 -3.322006
0.217557 -0.604580 -3.324290
0.222388 -0.561911 -3.329101
0.200982 -0.563780 -3.313705
0.200153 -0.476143 -3.316165
0.205617 -0.399932 -3.321728
0.194110 -0.328057 -3.313192
0.217730 -0.320411 -3.331263
0.213743 -0.238917 -3.328109
0.208949 -0.200666 -3.324259
0.202162 -0.188163 -3.318933
0.180276 1.336409 -3.298023
0.190361 1.363618 -3.308697
0.108187 0.189572 3.633349
0.117127 0.348556 3.637746
0.109639 0.288934 3.630882
0.119189 0.403499 -3.216404
0.136788 0.364856 -3.243825
0.119643 0.478015 -3.217768
0.127867 0.486915 -3.230905
0.114908 0.535478 -3.209938
0.116280 0.574210 -3.213251
0.127517 0.568941 -3.230338
0.122339 0.670210 -3.224278
0.140308 0.710989 -3.250563
0.119288 0.740282 -3.221959
0.127276 0.753112 -3.233598
0.138406 0.774089 -3.250412
0.122652 0.792195 -3.226815
0.137433 0.823425 -3.249547
0.154759 0.358998 -3.264889
0.172928 0.398893 -3.284631
0.182931 0.455513 -3.293967
0.142732 0.452103 -3.250826
0.174340 0.502437 -3.283527
0.143439 0.476497 -3.251489
0.172297 0.573991 -3.282008
0.149417 0.588837 -3.257659
0.191480 0.479884 -3.301327
0.203476 0.577183 -3.311054
0.181810 0.602186 -3.292306
0.173775 0.649730 -3.284418
0.150030 0.637679 -3.258895
0.150815 0.657845 -3.260022
0.184958 0.694454 -3.296669
0.170144 0.744482 -3.283440
0.162546 0.767121 -3.276459
0.153965 0.793889 -3.268306
0.158397 0.807568 -3.273760
0.198174 0.731658 -3.309015
0.194956 0.762929 -3.308741
0.196437 0.784155 -3.311604
0.189003 0.836130 -3.308202
0.139219 1.009145 3.580367
0.175710 1.054961 3.550715
0.142539 1.065053 3.542419
0.217205 1.009440 3.580052
0.195298 1.031959 3.566279
0.213127 1.091458 3.524442
0.111228 0.920269 -3.187916
0.108083 0.969550 -3.169560
-2.148747 -1.180746 1.996282
0.210481 1.359338 -3.324547
0.205916 -0.759245 3.740405
0.163272 -0.723037 3.764018
0.160157 -0.642951 3.760502
0.198916 -0.728314 3.745247
0.219039 -0.694697 3.725934
0.211309 -0.649712 3.731767
0.175207 -0.576937 3.754440
0.146108 -0.615678 3.763371
0.184614 -0.627257 3.752223
0.123533 -0.552192 3.762068
0.163331 -0.561703 3.756257
0.126096 -0.530481 3.760784
0.213956 -0.627935 3.729346
0.200895 -0.547905 3.740252
0.108275 -0.472954 3.750281
0.178420 -0.492268 3.750165
0.161082 -0.451589 3.748787
0.144755 -0.396037 3.748948
0.214215 -0.452851 3.726277
0.205850 -0.439069 3.732154
0.217034 -0.414170 3.724196
0.121437 -0.377811 3.750007
0.163083 -0.350467 3.748434
0.129186 -0.372270 3.750937
0.117463 -0.275020 3.748304
0.170383 -0.297439 3.747308
0.130315 -0.318033 3.752249
0.209314 -0.343529 3.730348
0.186820 -0.313191 3.745934
0.123616 -0.263629 3.749507
0.174090 -0.240994 3.739447
0.130900 -0.226555 3.740176
0.168893 -0.181463 3.722951
0.160406 -0.164106 3.717663
0.193765 -0.264549 3.739280
0.215013 -0.194718 3.711583
0.187732 -0.160773 3.713752
0.112761 -0.783885 3.771193
0.150081 -0.785323 3.770068
0.142184 -0.744752 3.769421
