-2.846546 0.551324 -0.655892
-2.758558 -0.284891 -0.558089
-2.752388 -0.289205 -0.538043
-2.721246 -0.253892 -0.554157
-2.698365 -0.239343 -0.541633
-2.676151 -0.209888 -0.556208
-2.687113 -0.228913 -0.540531
-2.665370 -0.205893 -0.542075
-2.673012 -0.202691 -0.563809
-2.643211 -0.173302 -0.551688
-2.662548 -0.196478 -0.552921
-2.624019 -0.152665 -0.543863
-2.630880 -0.148949 -0.565879
-2.616015 -0.125922 -0.568531
-2.593930 -0.110083 -0.541621
-2.579829 -0.084118 -0.546848
-2.592403 -0.088500 -0.568344
-2.569816 -0.056986 -0.560266
-3.189108 -0.025288 -0.557714
-3.191587 -0.037986 -0.555709
-3.194155 0.000397 -0.548490
-3.195833 0.014847 -0.544755
-3.190784 0.030480 -0.549575
-3.192233 0.040985 -0.546487
-3.186928 0.056761 -0.551602
-3.185517 0.071958 -0.551724
-3.172812 0.106424 -0.563269
-3.191108 0.093740 -0.541646
-3.175422 0.130633 -0.555035
-3.182301 0.148715 -0.542758
-3.165483 0.169512 -0.556138
-3.162210 0.145139 -0.566935
-3.157113 0.175957 -0.562701
-3.161311 0.203983 -0.549104
-3.151432 0.204428 -0.557692
-3.155771 0.216465 -0.548608
-3.166353 0.222591 -0.537231
-3.151795 0.248188 -0.538032
-2.375825 1.529002 -0.517316
-2.360528 1.547319 -0.516079
-2.368715 1.553659 -0.506807
-2.352300 1.553279 -0.517883
-2.350355 1.563157 -0.512844
-3.336988 -0.896555 -0.392640
-3.327159 -0.869467 -0.407305
-3.341549 -0.837190 -0.383677
-3.328984 -0.831687 -0.401941
-3.330306 -0.810469 -0.398897
-3.325263 -0.803153 -0.406037
-3.223997 -0.922686 -0.402496
-3.199656 -0.874710 -0.406303
-3.194651 -0.891615 -0.382004
-3.181082 -0.841700 -0.398738
-3.170587 -0.828295 -0.391669
-3.163009 -0.826383 -0.381553
-3.339112 -0.789256 -0.384398
-3.331922 -0.736672 -0.392456
-3.322729 -0.778651 -0.408470
-3.320540 -0.760624 -0.410684
-3.333275 -0.732650 -0.390118
-3.338801 -0.715522 -0.380826
-3.332726 -0.690976 -0.388362
-3.327890 -0.723802 -0.397738
-3.320730 -0.721166 -0.408063
-3.318850 -0.686381 -0.408556
-3.333085 -0.618317 -0.382902
-3.340293 -0.604503 -0.371012
-3.344890 -0.583321 -0.362724
-3.350093 -0.576137 -0.354187
-3.337402 -0.560046 -0.372968
-3.127816 -0.786206 -0.359754
-3.130213 -0.772354 -0.376553
-3.111122 -0.741432 -0.378014
-3.099816 -0.743185 -0.356933
-3.089702 -0.728291 -0.356174
-3.096776 -0.725330 -0.371683
-3.067524 -0.674769 -0.369309
-3.071310 -0.693163 -0.358809
-3.052455 -0.643652 -0.364168
-3.060370 -0.671462 -0.357182
-3.052005 -0.631518 -0.373806
-3.042977 -0.616676 -0.355114
-3.031513 -0.581138 -0.377698
-3.040731 -0.609633 -0.349147
-3.031240 -0.576058 -0.352084
-2.986713 -0.557212 -0.375758
-3.013213 -0.567858 -0.378382
-2.963895 -0.548897 -0.351621
-3.346129 -0.525376 -0.356521
-3.342510 -0.528361 -0.362548
-3.343521 -0.495498 -0.358374
-3.338817 -0.500425 -0.366431
-3.338481 -0.479158 -0.365662
-3.344076 -0.469451 -0.355978
-3.340711 -0.443088 -0.360363
-3.330354 -0.423139 -0.376385
-3.342894 -0.397831 -0.354474
-3.341836 -0.393146 -0.355902
-3.342686 -0.370083 -0.352798
-3.330807 -0.379149 -0.372792
-3.201630 0.646598 -0.341742
-3.188078 0.655332 -0.343115
-3.170087 0.658312 -0.347683
-3.191090 0.687552 -0.332016
-3.186039 0.705948 -0.327442
-3.153991 0.677509 -0.346185
-3.143427 0.706838 -0.339676
-3.141787 0.681657 -0.348187
-3.118299 0.705918 -0.347270
-3.190146 0.709249 -0.324999
-3.172526 0.708292 -0.330805
-3.168576 0.710640 -0.331099
-3.146111 0.720400 -0.333981
-3.170974 0.742562 -0.318799
-3.149018 0.743563 -0.324848
-3.128547 0.728458 -0.336867
-3.124388 0.713355 -0.343232
-3.110698 0.754226 -0.335956
-3.095138 0.759322 -0.344220
-3.129919 0.787956 -0.318697
-3.115161 0.783054 -0.326611
-3.095901 0.784806 -0.338358
-3.103234 0.772763 -0.336170
-3.111946 0.816236 -0.319214
-3.101633 0.808900 -0.327565
-3.087477 0.804544 -0.338951
-3.078287 0.832987 -0.335625
-3.070211 0.852816 -0.334174
-3.064341 0.884842 -0.322888
-3.055875 0.865474 -0.338969
-3.035644 0.887897 -0.339704
-3.062022 0.897513 -0.317928
-3.024919 0.918373 -0.324715
-3.027732 0.900047 -0.336895
-3.363096 0.103605 -0.282683
-3.373623 0.110052 -0.263567
-3.364638 0.123014 -0.277988
-3.364736 0.151418 -0.274897
-3.366848 0.165434 -0.269771
-3.372606 0.187398 -0.256998
-3.360789 0.225678 -0.274790
-3.367224 0.231778 -0.262109
-3.356294 0.206319 -0.284011
-3.353990 0.259487 -0.282507
-3.352467 0.249570 -0.286079
-3.363523 0.284757 -0.262252
-3.362970 0.295173 -0.261850
-3.357683 0.279614 -0.273505
-3.360854 0.354260 -0.259041
-3.362688 0.350182 -0.255583
-3.351598 0.360696 -0.275108
-3.352710 0.344940 -0.274211
-3.360399 0.385921 -0.258966
-3.356958 0.378068 -0.265059
-3.350068 0.366912 -0.277407
-3.352087 0.414784 -0.271322
-3.347740 0.398720 -0.279782
-3.353781 0.442773 -0.265764
-3.348465 0.433025 -0.275732
-3.427002 -0.879327 -0.240247
-3.434807 -0.878236 -0.226155
-3.428202 -0.858520 -0.239831
-3.427642 -0.829204 -0.241767
-3.426975 -0.804482 -0.242321
-3.134801 -0.901801 -0.245765
-3.135093 -0.921199 -0.226671
-3.117079 -0.874950 -0.233040
-3.120953 -0.875277 -0.242186
-3.092307 -0.831848 -0.233901
-3.100079 -0.847244 -0.229722
-3.078705 -0.811981 -0.231875
-3.081828 -0.802339 -0.251044
-3.428039 -0.796431 -0.240177
-3.436613 -0.792129 -0.224434
-3.429236 -0.763414 -0.235687
-2.759339 1.379992 -0.219154
-2.751523 1.392799 -0.205638
-2.745193 1.402539 -0.212704
-2.742771 1.422637 -0.200030
-2.745620 1.440382 -0.199758
-2.743219 1.456101 -0.211241
-2.769892 1.510611 -0.202497
-2.792172 1.534790 -0.194781
-2.768192 1.530893 -0.212326
-2.813773 1.576173 -0.200152
-2.782639 1.564062 -0.217528
-2.834783 1.600753 -0.193186
-2.841578 1.617506 -0.193630
-2.843508 1.637895 -0.196732
-2.823188 1.605924 -0.205924
-2.822237 1.592271 -0.200953
-2.801080 1.587034 -0.216650
-2.808632 1.609862 -0.221149
-2.821731 1.638674 -0.217708
-2.848026 1.651368 -0.195229
-2.828576 1.672942 -0.214387
-2.840225 1.684990 -0.204046
-2.848422 1.699208 -0.196922
-2.824421 1.678787 -0.218242
-2.743633 1.476448 -0.216963
-2.748090 1.478386 -0.210215
-2.754251 1.502893 -0.215274
-2.758391 1.517461 -0.215782
-2.757909 1.531545 -0.221256
-2.835304 1.721199 -0.207460
-2.844062 1.726417 -0.200116
-2.840640 1.753840 -0.201294
-2.835829 1.758632 -0.204671
-3.417968 0.230714 -0.171709
-3.416247 0.241236 -0.174047
-3.421435 0.254664 -0.162878
-3.415520 0.260585 -0.173382
-3.406219 0.284960 -0.187889
-3.416599 0.286902 -0.168224
-3.402528 0.314964 -0.190885
-3.416813 0.329083 -0.163067
-3.400453 0.339399 -0.191741
-3.413998 0.344676 -0.166698
-3.415762 0.369921 -0.161405
-3.412290 0.389806 -0.166108
-3.401816 0.395164 -0.184544
-3.412606 0.424417 -0.162490
-3.404030 0.438220 -0.176467
-3.406891 0.436519 -0.171516
-3.431563 0.273849 -0.141071
-3.435216 0.296421 -0.131720
-3.433641 0.300828 -0.134265
-3.434355 0.318761 -0.131118
-3.420112 0.342267 -0.155646
-3.418388 0.376552 -0.155827
-3.420538 0.419055 -0.147558
-3.417824 0.434874 -0.151341
-2.991602 1.590592 -0.089509
-3.006674 1.612863 -0.086324
-3.007152 1.637102 -0.087432
-2.992246 1.629389 -0.092004
-2.978351 1.630673 -0.096889
-2.985268 1.664990 -0.095108
-3.013974 1.688920 -0.084391
-2.985185 1.682132 -0.095199
-2.985488 1.742504 -0.094671
-2.990253 1.728536 -0.092811
-3.013161 1.747500 -0.080439
-3.001292 1.754576 -0.086428
-3.496332 0.346200 -0.001693
-3.505075 0.357876 0.018424
-3.504205 0.381501 0.019916
-3.501906 0.391276 0.016157
-3.505832 0.393430 0.024993
-3.492994 0.412404 -0.000871
-3.501642 0.429841 0.020456
-3.500114 0.434991 0.017693
-3.550184 1.092887 0.195703
-3.558769 1.094515 0.212136
-3.546582 1.096334 0.189220
-3.547870 1.083846 0.190246
-3.555299 1.118147 0.208255
-3.553592 1.137506 0.207392
-3.549094 1.168192 0.203229
-3.544662 1.175032 0.195706
-3.544682 1.205575 0.200854
-3.537306 1.200195 0.185575
-3.543248 1.245296 0.204915
-3.532762 1.242710 0.184746
-3.540086 1.264203 0.202562
-3.541172 1.279334 0.207602
-3.541441 1.279780 0.208189
-3.531057 1.307375 0.194954
-3.533561 1.328101 0.203507
-3.524738 1.355674 0.192551
-3.535985 1.353629 0.211953
-3.535434 1.378393 0.214416
-3.523573 1.406673 0.198728
-3.528093 1.423129 0.208888
-3.518383 1.448034 0.197883
-3.528748 1.437416 0.212429
-3.518631 1.515277 0.210555
-3.516881 1.527514 0.209978
-3.702185 0.699486 0.429601
-3.688875 0.698691 0.406045
-3.701642 0.717728 0.431000
-3.688485 0.710673 0.406807
-3.697628 0.741339 0.427171
-3.684560 0.760551 0.406214
-3.699922 0.771969 0.435389
-3.687363 0.798529 0.415481
-3.682289 0.814831 0.407805
-3.680700 0.859110 0.408854
-3.696326 0.839683 0.434998
-3.688797 0.865121 0.423449
-3.692427 0.891721 0.431779
-3.680492 0.906365 0.413031
-3.687819 0.918844 0.426322
-3.688152 0.942302 0.428393
-3.679571 0.947593 0.415067
-3.672638 0.957439 0.404957
-3.680610 0.960609 0.418022
-3.683503 0.983774 0.424361
-3.686113 0.994313 0.429010
-3.675067 0.997833 0.412656
-3.671307 1.008998 0.407123
-3.670684 1.007668 0.405895
-3.679839 1.030432 0.422492
-3.685348 1.049825 0.432823
-3.671931 1.029793 0.409787
-3.668652 1.058300 0.406372
-3.675338 1.098597 0.421157
-3.681292 1.113048 0.432027
-3.672653 1.108961 0.417689
-3.675363 1.132741 0.424568
-3.670018 1.126515 0.415074
-3.663451 1.138514 0.405323
-3.677330 1.164366 0.431258
-3.674900 1.194355 0.431576
-3.668240 1.201500 0.421523
-3.673978 1.230524 0.434729
-3.672542 1.223623 0.431540
-3.658616 1.231467 0.409241
-3.654507 1.255228 0.405183
-3.671442 1.258981 0.433771
-3.664783 1.279798 0.425338
-3.656814 1.284238 0.412757
-3.663590 1.330736 0.431800
-3.654164 1.320587 0.414012
-3.803071 -0.534485 0.521621
-3.793375 -0.517234 0.504086
-3.805063 -0.508732 0.525546
-3.797794 -0.502370 0.512709
-3.793429 -0.461833 0.506124
-3.794282 -0.482034 0.506868
-3.805312 -0.423242 0.528155
-3.795172 -0.426773 0.510894
-3.793989 -0.442374 0.508015
-3.796022 -0.395444 0.514187
-3.792308 -0.420945 0.506284
-3.798957 -0.374388 0.520300
-3.788619 -0.385382 0.502193
-3.787447 -0.332090 0.502880
-3.797553 -0.356544 0.518857
-3.801009 -0.303641 0.526897
-3.788835 -0.320634 0.505799
-3.800584 -0.281494 0.527183
-3.794474 -0.268643 0.517733
-3.790088 -0.284770 0.509706
-3.798724 -0.251678 0.525676
-3.788518 -0.250679 0.508966
-3.800132 -0.224852 0.529258
-3.794544 -0.208123 0.521532
-3.786673 -0.219041 0.508157
-3.792076 -0.194375 0.518462
-3.796563 -0.169960 0.526959
-3.789710 -0.148221 0.517236
-3.790986 -0.121257 0.520349
-3.785982 -0.117980 0.512292
-3.793805 -0.094297 0.526204
-3.778297 -0.095998 0.500545
-3.788818 -0.076256 0.518981
-3.780438 -0.062991 0.506068
-3.808358 -0.527940 0.531170
-3.818290 -0.533000 0.549145
-3.821092 -0.510436 0.554075
-3.807504 -0.499631 0.529610
-3.807478 -0.470072 0.529853
-3.823952 -0.454771 0.558227
-3.808212 -0.430271 0.532682
-3.823578 -0.436147 0.557895
-3.807142 -0.405182 0.531852
-3.807496 -0.393081 0.532873
-3.814492 -0.380146 0.544859
-3.822420 -0.386992 0.557314
-3.805476 -0.359573 0.531392
-3.809549 -0.341362 0.539058
-3.809996 -0.311251 0.541290
-3.809097 -0.296545 0.540437
-3.814565 -0.267519 0.550359
-3.801692 -0.236965 0.530940
-3.817346 -0.255054 0.555449
-3.803218 -0.233538 0.533596
-3.803785 -0.226511 0.535049
-3.814309 -0.184327 0.555333
-3.803393 -0.182334 0.537464
-3.801861 -0.167835 0.535766
-3.804248 -0.160090 0.540160
-3.798367 -0.160310 0.530369
-3.799708 -0.113993 0.534789
-3.801702 -0.107888 0.538427
-3.802534 -0.096292 0.540560
-3.800732 -0.053216 0.540877
-3.796254 -0.061580 0.532460
-3.801707 -0.028145 0.544442
-3.810500 -0.033633 0.557887
-3.797949 -0.016704 0.539204
-3.793042 -0.025614 0.529931
-3.810725 -0.005538 0.560215
-3.797565 0.000432 0.539950
-3.787776 1.724750 0.673237
-3.786932 1.735079 0.673370
-3.782956 1.756563 0.670073
-3.780074 1.757033 0.664943
-3.814437 1.485421 0.744015
-3.817055 1.480154 0.725466
-3.819448 1.504700 0.734155
-3.820620 1.505223 0.720764
-3.824222 1.537627 0.743384
-3.826100 1.549458 0.734543
-3.830519 1.579437 0.748026
-3.825644 1.609188 0.724986
-3.826361 1.598306 0.718781
-3.823387 1.640087 0.743207
-3.821261 1.643127 0.732621
-3.818059 1.664419 0.736741
-3.815636 1.668685 0.722032
-3.815238 1.689148 0.747755
-3.811496 1.702651 0.729538
-3.809118 1.723856 0.739010
-3.807376 1.736039 0.737272
-3.804802 1.751810 0.728105
-3.772173 1.356026 0.755865
-3.779480 1.381930 0.758946
-3.786029 1.383253 0.753063
-3.785775 1.406628 0.761862
-3.790949 1.412130 0.757624
-3.802456 1.450194 0.755725
-3.795399 1.430231 0.759392
-3.674811 1.259269 0.761244
-3.679600 1.268199 0.762307
-3.721586 1.285189 0.749407
-3.748528 1.319143 0.753971
-3.726939 1.328756 0.771775
-3.722134 1.307906 0.761682
-3.683692 1.277675 0.764882
-3.696338 1.279935 0.759247
-3.689771 1.303810 0.775912
-3.737183 1.346582 0.776679
-3.755532 1.339063 0.760004
-2.428144 0.859546 -0.910907
-2.435809 0.869263 -0.894462
-2.415325 0.874589 -0.899948
-2.412775 0.883436 -0.891028
-2.407804 0.873154 -0.905350
-2.378505 0.891970 -0.896639
-2.342035 0.894902 -0.908382
-2.328602 0.905492 -0.904127
-2.331736 0.926986 -0.883593
-2.305607 0.925834 -0.894977
-2.293590 0.912768 -0.910108
-2.286321 0.914387 -0.911033
-2.300224 0.948779 -0.885098
-2.268598 0.930173 -0.904861
-2.278299 0.955806 -0.888452
-2.109051 0.737408 -0.893860
-2.114987 0.714667 -0.900526
-2.106851 0.755123 -0.884619
-2.107322 0.756605 -0.901175
-2.108138 0.796161 -0.908606
-2.105409 0.788457 -0.884446
-2.109003 0.818973 -0.898977
-2.107886 0.817608 -0.894054
-2.235813 0.956445 -0.896756
-2.243344 0.934612 -0.907594
-2.231461 0.940524 -0.906357
-2.225150 0.952311 -0.900940
-2.210181 0.946337 -0.906930
-2.147329 0.925814 -0.905146
-2.137378 0.897277 -0.911699
-2.166068 0.937199 -0.910961
-2.162585 0.947353 -0.906022
-2.160103 0.952292 -0.903479
-2.122755 0.857347 -0.913438
-2.109892 0.853890 -0.882934
-2.125441 0.892283 -0.898026
-2.114701 0.882647 -0.884844
-2.134708 0.920609 -0.899831
-2.116842 0.903522 -0.882695
-2.124510 0.941477 -0.887123
-2.275795 0.958804 -0.887616
-2.884254 0.212232 -0.830398
-2.875219 0.215228 -0.838656
-2.866816 0.249425 -0.827205
-2.857491 0.246332 -0.838598
-2.849825 0.239707 -0.850083
-2.842746 0.282020 -0.830526
-2.839790 0.300751 -0.820433
-2.820158 0.307829 -0.833987
-2.822415 0.315835 -0.825623
-2.801820 0.329393 -0.836004
-2.810214 0.336563 -0.821720
-2.777673 0.354575 -0.842996
-2.783074 0.363508 -0.829330
-2.578917 0.210234 -0.829859
-2.546520 0.234752 -0.823679
-2.513698 0.264098 -0.835556
-2.532817 0.255524 -0.848461
-2.518546 0.255608 -0.825130
-2.541557 0.237985 -0.822301
-2.755902 0.390718 -0.839574
-2.750217 0.393485 -0.845023
-2.752505 0.407074 -0.829636
-2.736414 0.418965 -0.838589
-2.725354 0.429203 -0.844003
-2.723463 0.443809 -0.832833
-2.500118 0.273245 -0.835121
-2.459855 0.298669 -0.827684
-2.460071 0.304368 -0.837208
-2.430734 0.322743 -0.823315
-2.906989 0.213717 -0.805517
-2.913726 0.223275 -0.793946
-2.896237 0.228104 -0.809353
-2.894984 0.252392 -0.797059
-2.893947 0.265809 -0.790513
-2.885013 0.233580 -0.817970
-2.878830 0.250263 -0.814484
-2.865938 0.268631 -0.816881
-2.872666 0.289819 -0.796088
-2.861360 0.296665 -0.802603
-2.871238 0.300635 -0.789946
-2.855533 0.303997 -0.802815
-2.844241 0.306202 -0.811974
-2.849955 0.319629 -0.795937
-2.831908 0.348866 -0.790833
-2.823642 0.340355 -0.805539
-2.815832 0.347205 -0.807827
-2.802013 0.373637 -0.800731
-2.779276 0.384299 -0.816398
-2.776664 0.422067 -0.789568
-2.765245 0.421146 -0.802436
-2.560918 0.215305 -0.806990
-2.559943 0.212852 -0.800100
-2.558408 0.209791 -0.791078
-2.522271 0.240551 -0.799562
-2.531211 0.237173 -0.804737
-2.757756 0.435045 -0.800102
-2.746583 0.442824 -0.806094
-2.742632 0.448355 -0.806033
-2.497702 0.267489 -0.819429
-2.454174 0.287773 -0.805880
-2.439859 0.290559 -0.794087
-2.424966 0.312177 -0.802451
-2.443285 0.306592 -0.817383
-2.431287 0.301335 -0.797452
-2.414854 0.312675 -0.789677
-2.960753 0.270226 -0.712227
-2.947773 0.286478 -0.715131
-2.949033 0.293789 -0.706783
-2.935544 0.323351 -0.694730
-2.934266 0.310849 -0.709134
-2.907523 0.328424 -0.724846
-2.914155 0.341120 -0.704485
-2.903113 0.337763 -0.721403
-2.890001 0.383944 -0.699125
-2.887781 0.383928 -0.701702
-2.882321 0.400012 -0.697144
-2.869055 0.413893 -0.703871
-2.860524 0.403939 -0.718885
-2.849043 0.449705 -0.703235
-2.843952 0.438931 -0.713590
-2.839879 0.425967 -0.725079
-2.838846 0.448422 -0.713000
-2.508883 0.192117 -0.701794
-2.497185 0.209153 -0.712084
-2.476511 0.224109 -0.715457
-2.446913 0.240243 -0.720638
-2.400839 0.252573 -0.699299
-2.377841 0.278161 -0.711132
-2.340578 0.323940 -0.703154
-2.353625 0.301831 -0.704808
-2.337940 0.358822 -0.721581
-2.947464 0.485677 -0.575509
-2.945172 0.499111 -0.571518
-2.935931 0.510168 -0.577351
-2.934844 0.516938 -0.575162
-2.915154 0.518644 -0.598319
-2.970525 0.464802 -0.554476
-2.967542 0.483090 -0.549895
-2.961085 0.501070 -0.549244
-3.026809 0.463303 -0.492647
-3.032135 0.487195 -0.478298
-3.007231 0.485300 -0.501505
-3.008677 0.508274 -0.490419
-3.001758 0.492614 -0.503825
-2.992579 0.544319 -0.489456
-2.993484 0.531986 -0.494610
-2.995278 0.519976 -0.498506
-2.985969 0.565957 -0.486010
-2.979483 0.577239 -0.487581
-2.966088 0.603823 -0.491896
-2.952557 0.614220 -0.502043
-2.965260 0.635021 -0.483172
-2.954672 0.646224 -0.490626
-2.956273 0.693442 -0.478388
-2.939803 0.673498 -0.501007
-2.948024 0.704518 -0.483920
-2.942819 0.685214 -0.494107
-2.950951 0.719329 -0.476089
-2.931538 0.716169 -0.496401
-2.932478 0.727714 -0.489276
-2.931533 0.744586 -0.481667
-2.927252 0.764101 -0.474940
-2.916486 0.755370 -0.489007
-2.908024 0.754067 -0.496937
-2.917636 0.769539 -0.479828
-2.912152 0.782387 -0.477688
-3.259402 0.456743 -0.382834
-3.232556 0.476407 -0.393473
-3.204543 0.464833 -0.408303
-3.237450 0.494537 -0.385678
-3.229195 0.488171 -0.390864
-3.199954 0.483180 -0.402150
-3.196312 0.510583 -0.392976
-3.171916 0.512804 -0.396204
-3.156682 0.500506 -0.404818
-3.220188 0.520091 -0.383380
-3.182787 0.532657 -0.386932
-3.171896 0.526877 -0.390893
-3.165013 0.532995 -0.390021
-3.140271 0.509743 -0.404073
-3.132268 0.518874 -0.402279
-3.273405 0.460492 -0.370045
-3.275255 0.468697 -0.366305
-3.288709 0.480091 -0.351668
-3.268026 0.510557 -0.363066
-3.274781 0.515141 -0.356256
-3.262287 0.483485 -0.374451
-3.259135 0.493858 -0.373898
-3.248285 0.504754 -0.376807
-3.258209 0.541408 -0.359339
-3.257918 0.548543 -0.356785
-3.261863 0.557066 -0.351563
-3.264610 0.560171 -0.348965
-3.231678 0.565739 -0.361542
-3.204375 0.575316 -0.365915
-3.198738 0.564233 -0.371768
-3.185318 0.569902 -0.372621
-3.164729 0.579691 -0.373370
-3.335876 0.218056 -0.318163
-3.332678 0.240250 -0.321314
-3.332414 0.259312 -0.319397
-3.327811 0.252996 -0.327976
-3.323614 0.240027 -0.336735
-3.324066 0.286786 -0.330150
-3.314184 0.293666 -0.346000
-3.319815 0.315477 -0.333799
-3.316059 0.313732 -0.340291
-3.311262 0.354945 -0.343196
-3.326942 0.346206 -0.319172
-3.308192 0.367120 -0.346508
-3.309908 0.385407 -0.340855
-3.306652 0.412428 -0.341538
-3.316162 0.410426 -0.328116
-3.305068 0.446955 -0.338421
-3.394222 -0.041290 -0.240007
-3.394778 0.027454 -0.233753
-3.399811 0.024634 -0.225140
-3.390037 -0.035379 -0.247174
-3.389183 0.004145 -0.245797
-3.385477 0.032003 -0.249966
-3.390697 0.056392 -0.238431
-3.393066 0.131553 -0.226729
-3.391345 0.144954 -0.228560
-3.388119 0.476372 -0.200922
-3.380019 0.457795 -0.217085
-3.375409 0.509458 -0.220265
-3.375250 0.523727 -0.219065
-3.385751 0.539807 -0.198716
-3.373688 0.567162 -0.216574
-3.372789 0.577074 -0.216924
-3.371956 0.592770 -0.216384
-3.374603 0.610096 -0.209660
-3.369126 0.614210 -0.218455
-3.380244 0.642213 -0.195817
-3.369021 0.656973 -0.212588
-3.378427 0.674252 -0.195020
-3.377370 0.706039 -0.193301
-3.376092 0.706947 -0.195223
-3.259142 1.221478 -0.075250
-3.252754 1.215427 -0.079753
-3.219984 1.216457 -0.092174
-3.214419 1.215412 -0.094673
-3.206842 1.228682 -0.093919
-3.236211 1.244054 -0.077482
-3.228987 1.257345 -0.076475
-3.213569 1.248499 -0.085642
-3.188519 1.261661 -0.091912
-3.215747 1.294358 -0.070807
-3.207258 1.293587 -0.075073
-3.202466 1.295071 -0.076921
-3.176910 1.273948 -0.092936
-3.166588 1.303191 -0.089382
-3.197693 1.328790 -0.070492
-3.194686 1.304183 -0.077665
-3.155980 1.312693 -0.091304
-3.146541 1.324251 -0.092745
-3.190808 1.340099 -0.071090
-3.172194 1.354402 -0.077038
-3.161058 1.350153 -0.082600
-3.140728 1.355598 -0.090104
-3.172197 1.370580 -0.074344
-3.144256 1.383247 -0.084551
-3.153557 1.407811 -0.076889
-3.152801 1.451872 -0.068973
-3.141766 1.453169 -0.073677
-3.121664 1.363649 -0.095912
-3.123701 1.353428 -0.096766
-3.136230 1.377409 -0.088486
-3.113003 1.375454 -0.096972
-3.100983 1.393184 -0.097393
-3.110960 1.421090 -0.089512
-3.133592 1.451360 -0.076973
-3.116660 1.451794 -0.082616
-3.077968 1.449096 -0.092623
-3.053990 1.440171 -0.097732
-3.491479 0.342308 -0.012300
-3.483522 0.354216 -0.027936
-3.483028 0.338679 -0.030372
-3.490350 0.378554 -0.010644
-3.490173 0.410261 -0.007234
-3.482597 0.414410 -0.023232
-3.488668 0.429716 -0.008148
-3.481461 0.453002 -0.020379
-3.551439 -0.852376 0.001889
-3.551304 -0.832234 -0.000114
-3.551226 -0.829661 -0.000398
-3.559364 -0.813424 0.016602
-3.550079 -0.795621 -0.000985
-3.563104 -0.788384 0.025536
-3.559296 -0.749839 0.021295
-3.557011 -0.745796 0.017104
-3.549606 -0.726765 0.004031
-3.554685 -0.716710 0.015473
-3.556638 -0.699104 0.021408
-3.555309 -0.673413 0.022050
-3.551887 -0.663852 0.016753
-3.545825 -0.655457 0.005759
-3.545919 -0.626481 0.009012
-3.550056 -0.606892 0.019457
-3.548566 -0.590506 0.018099
-3.549757 -0.573939 0.022287
-3.550146 -0.557387 0.024909
-3.540796 -0.553860 0.005130
-3.538084 -0.572871 -0.002706
-3.517309 0.485011 0.059889
-3.527442 0.486586 0.081788
-3.521626 0.496103 0.070269
-3.523399 0.506452 0.075108
-3.520447 0.525020 0.070737
-3.527140 0.537245 0.086342
-3.520582 0.609425 0.080785
-3.519335 0.640551 0.081368
-3.519524 0.667179 0.084855
-3.512307 0.587828 0.060949
-3.512097 0.624828 0.064285
-3.542847 1.466114 0.240886
-3.542501 1.486928 0.244238
-3.536292 1.497499 0.235905
-3.522593 1.522158 0.217686
-3.523042 1.524841 0.218893
-3.536560 1.551026 0.244575
-3.534181 1.555568 0.241536
-3.523965 1.569754 0.227877
-3.521295 1.578367 0.225335
-3.520842 1.608864 0.230047
-3.525274 1.609003 0.236508
-3.520559 1.676056 0.240360
-3.515936 1.580866 0.217749
-3.513695 1.608835 0.219293
-3.512119 1.624874 0.219674
-3.515290 1.672420 0.231654
-3.507115 1.661184 0.217997
-3.511245 1.698406 0.229544
-3.505370 1.698106 0.220908
-3.509948 1.741594 0.235458
-3.503974 1.721618 0.223119
-3.513188 1.747661 0.241125
-3.503713 1.755334 0.229975
-3.509322 1.765354 0.239777
-3.666672 -0.536039 0.264847
-3.657462 -0.512227 0.248006
-3.671416 -0.512258 0.276555
-3.656891 -0.462345 0.251348
-3.661997 -0.458378 0.261989
-3.665368 -0.447957 0.269772
-3.664542 -0.432801 0.269558
-3.662050 -0.418050 0.266039
-3.653205 -0.393072 0.250803
-3.652148 -0.371414 0.251321
-3.662060 -0.366214 0.271728
-3.657397 -0.354199 0.263837
-3.651015 -0.343886 0.252228
-3.652231 -0.309692 0.258277
-3.652574 -0.307071 0.259217
-3.646304 -0.270491 0.250503
-3.653863 -0.279436 0.264465
-3.644986 -0.248928 0.249974
-3.657026 -0.247367 0.273111
-3.647120 -0.225238 0.256240
-3.648281 -0.215836 0.259379
-3.648073 -0.197993 0.260525
-3.646544 -0.166648 0.260018
-3.648702 -0.151087 0.265201
-3.653626 -0.137544 0.275508
-3.643462 -0.101200 0.258158
-3.651468 -0.081175 0.274203
-3.644121 -0.069989 0.261308
-3.650918 -0.054743 0.274944
-3.638512 -0.057402 0.251229
-3.644125 -0.000129 0.266784
-3.760668 0.463978 0.511333
-3.754932 0.516451 0.502108
-3.828700 -0.769143 0.585484
-3.825546 -0.765189 0.569763
-3.824325 -0.747651 0.564719
-3.827985 -0.742095 0.580293
-3.825015 -0.735565 0.567448
-3.827663 -0.707560 0.575902
-3.827130 -0.698396 0.573422
-3.824057 -0.679576 0.562811
-3.828668 -0.646518 0.574243
-3.830037 -0.624125 0.576059
-3.825033 -0.628047 0.563030
-3.837724 -0.590695 0.592013
-3.833691 -0.592879 0.582216
-3.838356 -0.562967 0.590291
-3.827567 -0.598015 0.567611
-3.828194 -0.569878 0.568132
-3.826807 -0.555077 0.564958
-3.767393 1.430960 0.604036
-3.775640 1.463923 0.620854
-3.772251 1.549782 0.622573
-3.763709 1.470746 0.602085
-3.767587 1.517456 0.612485
-3.754819 1.553678 0.595302
-3.761101 1.523492 0.602603
-3.754592 1.578695 0.598241
-3.765238 1.601196 0.617664
-3.764339 1.590552 0.615066
-3.766821 1.620147 0.622228
-3.750844 1.644182 0.600254
-3.764699 1.649308 0.622072
-3.751344 1.660898 0.603181
-3.758256 1.687949 0.617417
-3.742016 1.707705 0.595464
-3.755779 1.735674 0.620733
-3.751457 1.740918 0.614943
-3.749857 1.745069 0.613137
-3.746147 1.762658 0.610020
-3.735585 1.768947 0.594921
-3.806860 1.490014 0.761428
-3.800538 1.505800 0.776522
-3.816831 1.520959 0.754872
-3.812491 1.521497 0.762034
-3.817108 1.528150 0.756849
-3.812773 1.526623 0.763306
-3.812272 1.552886 0.772431
-3.813659 1.565555 0.773243
-3.825902 1.585836 0.758133
-3.814835 1.604382 0.776755
-3.824676 1.622768 0.754985
-3.818941 1.646569 0.757512
-3.807450 1.653065 0.777073
-3.814334 1.667446 0.758600
-3.809404 1.680774 0.763087
-3.808917 1.692347 0.760177
-3.799748 1.697238 0.776332
-3.787528 1.739827 0.779475
-3.800719 1.759864 0.755814
-3.790479 1.747157 0.773697
-3.777851 1.488390 0.798781
-3.781852 1.472417 0.790748
-3.769089 1.491653 0.809161
-3.799670 1.548259 0.786990
-3.795004 1.523575 0.787037
-3.772271 1.533622 0.809348
-3.784704 1.560373 0.799677
-3.785106 1.575058 0.800880
-3.803479 1.594025 0.788171
-3.785928 1.595890 0.798968
-3.787974 1.616330 0.797409
-3.803556 1.635683 0.785646
-3.768353 1.622503 0.807437
-3.783648 1.627942 0.798345
-3.780360 1.665592 0.796345
-3.792538 1.661912 0.789057
-3.785142 1.690388 0.790828
-3.773739 1.690152 0.799643
-3.757303 1.667888 0.811550
-3.770750 1.753310 0.792113
-3.761622 1.733050 0.802346
-3.763625 1.747498 0.798755
-3.751004 1.756500 0.808220
-2.340179 0.711108 -1.232280
-2.321310 0.718163 -1.232469
-2.310112 0.717527 -1.237155
-2.281855 0.710683 -1.254855
-2.273990 0.734574 -1.229679
-2.254482 0.723205 -1.250788
-2.233631 0.736884 -1.240286
-2.227726 0.725699 -1.258647
-2.217425 0.742707 -1.236295
-2.170859 0.727073 -1.258733
-2.150059 0.737993 -1.245394
-2.138279 0.716552 -1.249217
-2.166685 0.746131 -1.239690
-2.158830 0.756257 -1.229247
-2.110113 0.734015 -1.230796
-2.134322 0.717913 -1.246216
-2.104411 0.733046 -1.228063
-2.133092 0.756110 -1.230113
-2.244652 0.572826 -1.211771
-2.258194 0.568297 -1.225970
-2.216962 0.591233 -1.211262
-2.217044 0.595137 -1.225649
-2.230000 0.581811 -1.211115
-2.174080 0.623416 -1.211281
-2.159059 0.639277 -1.218427
-2.142424 0.658863 -1.225803
-2.123481 0.663405 -1.201213
-2.110256 0.673414 -1.196655
-2.136288 0.657784 -1.213358
-2.114665 0.680522 -1.212341
-2.099113 0.704528 -1.212459
-2.378565 0.716897 -1.206403
-2.366781 0.724921 -1.203813
-2.334193 0.724646 -1.219808
-2.339258 0.733740 -1.207028
-2.305746 0.730802 -1.223753
-2.296909 0.737951 -1.217985
-2.323462 0.744864 -1.199693
-2.272482 0.755506 -1.199960
-2.262831 0.758608 -1.198068
-2.262090 0.744554 -1.219383
-2.260151 0.757633 -1.200400
-2.236819 0.763489 -1.197259
-2.220700 0.751285 -1.221947
-2.215848 0.761044 -1.207397
-2.200339 0.764735 -1.205840
-2.182101 0.763865 -1.215171
-2.175616 0.773493 -1.202651
-2.165044 0.779021 -1.199537
-2.140301 0.777347 -1.212101
-2.095537 0.733297 -1.216376
-2.102566 0.730425 -1.225403
-2.102136 0.757504 -1.219236
-2.081137 0.745718 -1.199004
-2.083125 0.750041 -1.200128
-2.132900 0.776023 -1.214352
-2.113088 0.780079 -1.207213
-2.368527 0.471004 -1.146869
-2.372977 0.460093 -1.134089
-2.336517 0.496454 -1.144661
-2.310793 0.514775 -1.140941
-2.320299 0.511458 -1.154971
-2.307157 0.520785 -1.156096
-2.272800 0.540745 -1.143148
-2.292762 0.530419 -1.159343
-2.503644 0.607671 -1.153358
-2.500755 0.594810 -1.163146
-2.504662 0.622825 -1.146631
-2.505763 0.646587 -1.135422
-2.481685 0.688018 -1.143626
-2.468646 0.705805 -1.143253
-2.462030 0.706953 -1.149837
-2.243932 0.561547 -1.152889
-2.251468 0.555601 -1.145149
-2.220942 0.575698 -1.142123
-2.210046 0.585019 -1.159811
-2.211938 0.583363 -1.156530
-2.187930 0.599797 -1.158695
-2.139981 0.634202 -1.158571
-2.166065 0.614722 -1.158539
-2.119592 0.653086 -1.163558
-2.115375 0.656274 -1.146894
-2.102677 0.668825 -1.147293
-2.079202 0.704394 -1.164034
-2.091303 0.685811 -1.140388
-2.450836 0.713445 -1.154932
-2.447767 0.707907 -1.164677
-2.418184 0.733878 -1.159719
-2.409607 0.741084 -1.156580
-2.399947 0.742614 -1.161778
-2.388486 0.763399 -1.138798
-2.379415 0.763350 -1.144944
-2.344851 0.771992 -1.151621
-2.324417 0.777796 -1.150623
-2.323103 0.786765 -1.135114
-2.294841 0.782384 -1.151304
-2.272860 0.782371 -1.156187
-2.271862 0.786112 -1.149231
-2.617986 0.464262 -1.059983
-2.623270 0.500471 -1.047526
-2.620028 0.508607 -1.054144
-2.620036 0.524937 -1.051905
-2.621674 0.533910 -1.044412
-2.611436 0.565143 -1.052227
-2.595561 0.580430 -1.069963
-2.603896 0.593827 -1.043509
-2.593572 0.608718 -1.044963
-2.587715 0.617884 -1.043488
-2.574071 0.620878 -1.059372
-2.562566 0.626477 -1.069809
-2.545168 0.665779 -1.052992
-2.539714 0.675402 -1.051966
-2.529392 0.684329 -1.060115
-2.525328 0.688777 -1.062510
-2.357074 0.459803 -1.041974
-2.333864 0.484767 -1.053273
-2.352742 0.464911 -1.049598
-2.326563 0.492060 -1.059567
-2.315432 0.501891 -1.066894
-2.314231 0.503032 -1.051965
-2.293528 0.520954 -1.042711
-2.263451 0.543968 -1.064412
-2.275690 0.534959 -1.042731
-2.260036 0.546587 -1.061758
-2.237022 0.562637 -1.047072
-2.218612 0.574318 -1.045370
-2.228150 0.568431 -1.065764
-2.171404 0.607415 -1.044775
-2.198658 0.586903 -1.049696
-2.164652 0.613227 -1.040783
-2.157598 0.619735 -1.064901
-2.121755 0.660494 -1.068406
-2.128891 0.652323 -1.060235
-2.108011 0.697278 -1.041220
-2.501386 0.785955 -0.960686
-2.477921 0.799370 -0.967101
-2.481509 0.803930 -0.955947
-2.457864 0.820334 -0.949348
-2.444813 0.816662 -0.967638
-2.426619 0.828480 -0.959765
-2.403523 0.828037 -0.976444
-2.409173 0.842984 -0.946150
-2.398770 0.842485 -0.953797
-2.382157 0.847917 -0.955294
-2.384170 0.852713 -0.945760
-2.340064 0.854701 -0.967786
-2.330713 0.864777 -0.955305
-2.319524 0.862902 -0.963947
-2.303669 0.873785 -0.953661
-2.292363 0.871353 -0.962527
-2.286136 0.873909 -0.960470
-2.268385 0.873998 -0.965760
-2.108783 0.736764 -0.954350
-2.108622 0.767370 -0.970252
-2.107521 0.750641 -0.964309
-2.117345 0.797947 -0.970126
-2.112795 0.796927 -0.946502
-2.122181 0.810197 -0.969379
-2.121521 0.817177 -0.954778
-2.250264 0.881979 -0.958359
-2.237884 0.876203 -0.967686
-2.224063 0.875826 -0.967843
-2.219540 0.888308 -0.950757
-2.142528 0.857222 -0.946816
-2.139301 0.852293 -0.947794
-2.157673 0.852540 -0.968388
-2.185646 0.884464 -0.949302
-2.190317 0.874277 -0.963725
-2.173065 0.877403 -0.953247
-2.129030 0.835143 -0.949816
-2.863439 0.148302 -0.883020
-2.853138 0.145657 -0.895372
-2.829762 0.167143 -0.911771
-2.835656 0.172131 -0.903528
-2.840188 0.188434 -0.890339
-2.815490 0.199189 -0.911415
-2.739144 0.011581 -0.892437
-2.750504 0.000506 -0.898847
-2.724653 0.027807 -0.886904
-2.723642 0.033332 -0.894086
-2.704876 0.070572 -0.910533
-2.689604 0.078764 -0.882455
-2.684526 0.107527 -0.912642
-2.678056 0.101695 -0.883035
-2.671200 0.122707 -0.897079
-2.659184 0.138227 -0.886671
-2.666962 0.134847 -0.906846
-2.658019 0.143359 -0.893381
-2.653122 0.156931 -0.910376
-2.638441 0.176003 -0.908055
-2.629785 0.179996 -0.892596
-2.622512 0.191382 -0.901921
-2.809408 0.230952 -0.899032
-2.804085 0.255968 -0.887585
-2.788435 0.266089 -0.899493
-2.783087 0.290754 -0.886947
-2.775570 0.286758 -0.899442
-2.767147 0.289648 -0.907512
-2.768175 0.299938 -0.898020
-2.756269 0.318932 -0.898622
-2.608520 0.205222 -0.897352
-2.605271 0.212144 -0.907027
-2.593156 0.226214 -0.912351
-2.553087 0.253717 -0.885924
-2.536326 0.274315 -0.902476
-2.528936 0.284673 -0.912284
-2.742147 0.345863 -0.897632
-2.748497 0.348453 -0.886591
-2.739190 0.357587 -0.892777
-2.726498 0.356973 -0.911828
-2.729784 0.368626 -0.898028
-2.715123 0.377854 -0.911939
-2.726657 0.388078 -0.885464
-2.438614 0.893505 -0.865715
-2.430469 0.906714 -0.858313
-2.445865 0.898198 -0.857007
-2.403900 0.903988 -0.874401
-2.394310 0.904026 -0.878332
-2.403087 0.928846 -0.853669
-2.379154 0.911729 -0.877741
-2.385183 0.945633 -0.851343
-2.356578 0.943686 -0.865343
-2.347913 0.949414 -0.866053
-2.318558 0.949837 -0.877400
-2.109835 0.727574 -0.874314
-2.105215 0.760339 -0.875154
-2.103762 0.788752 -0.871567
-2.107821 0.860054 -0.875924
-2.106378 0.843680 -0.876513
-2.110277 0.870713 -0.879341
-2.114561 0.896190 -0.880518
-2.105120 0.938206 -0.862157
-2.337114 0.962417 -0.864553
-2.325509 0.980380 -0.864102
-2.347495 0.989036 -0.851354
-2.325137 1.015428 -0.854056
-2.306446 0.984527 -0.870431
-2.308160 0.970393 -0.874017
-2.297172 0.959056 -0.881437
-2.289756 0.981749 -0.877205
-2.322243 1.012363 -0.856306
-2.305508 0.997004 -0.867628
-2.275486 1.012340 -0.874992
-2.276829 0.997313 -0.877124
-2.320495 1.033007 -0.851197
-2.299043 1.049450 -0.857077
-2.271727 1.048091 -0.869086
-2.277534 1.068652 -0.859920
-2.281280 1.081834 -0.853771
-2.276873 1.083916 -0.855024
-2.422533 0.335223 -0.830465
-2.406676 0.352902 -0.829438
-2.399052 0.370508 -0.842849
-2.383940 0.392410 -0.848707
-2.377695 0.400199 -0.848493
-2.369726 0.410163 -0.848259
-2.330369 0.449605 -0.827613
-2.344071 0.433887 -0.831838
-2.712067 0.459341 -0.832617
-2.698250 0.470651 -0.840249
-2.693536 0.494278 -0.826841
-2.675395 0.501951 -0.847219
-2.666372 0.518897 -0.850016
-2.675720 0.533333 -0.824989
-2.668337 0.525318 -0.842703
-2.666583 0.522626 -0.847704
-2.664321 0.559950 -0.830779
-2.657104 0.576550 -0.838369
-2.654212 0.594197 -0.832145
-2.652569 0.610210 -0.824191
-2.639731 0.641397 -0.839476
-2.645118 0.634794 -0.824563
-2.632706 0.657565 -0.848801
-2.627646 0.675998 -0.845154
-2.619577 0.703981 -0.838719
-2.618480 0.709911 -0.835173
-2.618246 0.719009 -0.824601
-2.610049 0.747224 -0.822653
-2.600049 0.762468 -0.831131
-2.602052 0.765482 -0.823570
-2.586525 0.775950 -0.845461
-2.575575 0.790928 -0.848115
-2.574832 0.806960 -0.828013
-2.565686 0.819368 -0.827986
-2.560452 0.813417 -0.844591
-2.554707 0.815747 -0.850538
-2.928591 -0.356967 -0.693081
-2.893744 -0.340235 -0.672615
-2.901992 -0.347866 -0.668697
-2.882659 -0.334540 -0.665133
-2.860307 -0.314659 -0.667574
-2.850493 -0.307661 -0.663692
-2.830675 -0.280923 -0.683237
-2.799202 -0.243341 -0.693845
-2.799075 -0.257677 -0.669562
-2.781322 -0.236182 -0.676631
-2.776393 -0.228604 -0.680807
-2.746201 -0.206258 -0.668901
-2.760998 -0.207447 -0.688390
-2.734828 -0.176319 -0.692056
-2.746381 -0.193956 -0.685807
-2.739097 -0.200721 -0.666612
-2.720861 -0.176451 -0.671855
-2.719788 -0.161483 -0.688394
-2.689885 -0.138157 -0.672822
-2.692107 -0.124576 -0.691628
-2.653377 -0.079110 -0.686831
-2.649388 -0.066399 -0.693902
-2.630357 -0.058778 -0.672026
-2.636225 -0.066476 -0.673825
-3.084021 -0.023080 -0.690518
-3.096051 -0.015804 -0.675771
-3.095912 0.000100 -0.674488
-3.087073 0.000280 -0.684771
-3.082771 -0.011377 -0.691009
-3.143551 -0.152213 -0.626031
-3.149435 -0.150780 -0.618382
-3.155165 -0.125555 -0.609580
-3.157115 -0.086919 -0.604949
-3.148070 -0.094424 -0.617237
-3.143096 -0.064932 -0.622027
-3.154455 -0.059789 -0.606627
-3.138064 -0.108128 -0.630980
-3.138209 -0.063547 -0.628231
-3.001954 -0.454466 -0.628376
-2.997799 -0.455636 -0.619872
-2.967568 -0.434342 -0.609769
-2.965764 -0.432689 -0.609870
-2.963466 -0.422868 -0.622456
-2.958240 -0.421268 -0.617562
-2.926219 -0.396183 -0.614041
-2.940737 -0.414504 -0.603788
-2.917502 -0.396024 -0.601681
-2.901409 -0.370606 -0.623103
-2.862964 -0.338976 -0.621746
-2.886523 -0.357850 -0.624290
-2.857744 -0.345227 -0.602191
-2.831324 -0.308913 -0.625952
-2.852201 -0.326784 -0.626790
-2.817476 -0.306816 -0.608352
-2.797549 -0.279487 -0.627530
-2.773861 -0.269361 -0.610447
-2.774310 -0.261088 -0.624753
-2.743086 -0.244793 -0.605250
-2.747909 -0.246942 -0.608916
-2.748834 -0.238457 -0.624034
-2.736231 -0.232375 -0.615089
-2.706172 -0.212618 -0.601501
-2.706353 -0.205682 -0.612497
-2.726149 -0.216405 -0.625083
-2.709189 -0.197042 -0.629065
-2.691763 -0.193378 -0.607639
-2.683359 -0.180482 -0.612052
-3.200632 -0.334002 -0.560922
-3.200636 -0.309479 -0.559860
-3.203574 -0.281558 -0.554511
-3.205912 -0.242463 -0.548875
-3.208447 -0.245213 -0.545524
-3.202641 -0.291130 -0.556290
-3.194256 -0.279763 -0.567175
-3.192540 -0.234192 -0.567078
-3.211074 -0.232812 -0.541236
-3.210121 -0.214290 -0.541278
-3.206554 -0.197444 -0.545002
-3.199825 -0.203785 -0.554719
-3.201364 -0.179652 -0.551035
-3.190013 -0.183103 -0.566853
-3.209330 -0.164804 -0.539016
-3.198031 -0.159547 -0.554490
-3.192970 -0.171065 -0.561995
-3.201213 -0.130056 -0.548636
-3.189187 -0.133546 -0.565327
-3.201459 -0.104632 -0.547007
-3.195416 -0.052307 -0.551804
-3.191423 -0.075818 -0.559003
-2.999666 -0.486682 -0.567895
-3.002552 -0.504865 -0.537419
-2.989095 -0.480500 -0.562824
-2.962385 -0.461362 -0.555341
-2.969054 -0.469619 -0.550502
-2.928889 -0.436012 -0.547387
-2.949649 -0.451304 -0.553304
-2.950043 -0.445634 -0.565312
-2.945662 -0.452792 -0.543599
-2.915596 -0.419551 -0.556280
-2.913590 -0.419891 -0.551908
-2.887741 -0.403269 -0.539001
-2.875629 -0.379496 -0.566459
-2.870449 -0.377782 -0.560129
-2.846316 -0.366076 -0.537356
-2.829522 -0.346022 -0.547770
-2.841439 -0.358479 -0.544208
-2.811419 -0.333699 -0.541494
-2.825157 -0.333959 -0.566140
-2.796252 -0.314124 -0.558911
-2.777852 -0.297773 -0.564434
-2.425936 1.463253 -0.524448
-2.409617 1.462174 -0.535831
-2.387569 1.487388 -0.535630
-2.403236 1.492721 -0.521721
-2.401067 1.498273 -0.519661
-2.391304 1.513341 -0.516858
-2.382991 1.516771 -0.520286
-3.241145 0.029416 -0.480814
-3.229842 0.043947 -0.495617
-3.225103 0.019978 -0.505412
-3.229655 0.086597 -0.491035
-3.219040 0.142248 -0.497788
-3.217415 0.135416 -0.500778
-3.233171 0.143648 -0.479172
-3.217703 0.148517 -0.498739
-3.210687 0.186865 -0.500912
-3.216151 0.198933 -0.491989
-3.208874 0.229703 -0.491974
-3.206044 0.248938 -0.489276
-3.197890 0.231960 -0.503311
-3.200839 0.260133 -0.490424
-3.202735 0.297720 -0.477023
-3.179011 0.304518 -0.492544
-3.187010 0.329783 -0.477301
-3.164845 0.328567 -0.492577
-3.168521 0.300626 -0.502017
-3.176141 0.342897 -0.478764
-3.157636 0.352577 -0.485630
-3.144382 0.341615 -0.500070
-3.161529 0.369893 -0.474643
-3.128404 0.351196 -0.503813
-3.119260 0.389859 -0.485022
-3.112610 0.380909 -0.493838
-3.099518 0.379824 -0.500656
-3.114002 0.394900 -0.484377
-3.097125 0.410488 -0.481774
-3.081549 0.411869 -0.487635
-3.086830 0.426768 -0.475638
-3.047996 0.414349 -0.502233
-3.068338 0.425630 -0.484877
-3.069369 0.436713 -0.477653
-3.038533 0.444074 -0.491588
-2.511026 1.466977 -0.461661
-2.503246 1.475470 -0.461213
-2.505551 1.490640 -0.448165
-2.482305 1.506671 -0.456605
-2.485084 1.520178 -0.447036
-2.476397 1.514402 -0.456537
-2.469554 1.526742 -0.454622
-2.468227 1.539408 -0.449455
-2.465125 1.547789 -0.447617
-2.464055 1.554783 -0.445480
-2.437224 1.546079 -0.466146
-2.424761 1.562564 -0.465063
-2.404798 1.580338 -0.467432
-2.424237 1.586152 -0.452236
-2.409251 1.607516 -0.447043
-2.414687 1.588390 -0.456270
-2.505785 1.596364 -0.408702
-2.512164 1.623176 -0.400159
-2.491059 1.626760 -0.405568
-2.475657 1.637326 -0.406836
-2.503301 1.661547 -0.394206
-2.486576 1.673809 -0.392831
-2.470296 1.662273 -0.399601
-2.465082 1.667812 -0.398471
-2.503324 1.682316 -0.388352
-2.485468 1.695635 -0.385395
-2.469786 1.710472 -0.380349
-2.459422 1.685455 -0.391865
-2.456948 1.695406 -0.387970
-2.446795 1.665425 -0.402327
-2.444426 1.669866 -0.401108
-3.013290 0.895934 -0.349675
-2.978520 0.914485 -0.360783
-2.972639 0.929481 -0.356518
-2.957011 0.940537 -0.366198
-2.942494 0.980371 -0.369964
-2.934605 0.980544 -0.379081
-2.945965 1.003995 -0.360752
-2.937205 0.993512 -0.373043
-2.941656 1.026448 -0.361605
-2.937331 1.038438 -0.362992
-2.924425 1.050203 -0.373370
-2.931629 1.057541 -0.363559
-2.913533 1.069379 -0.378174
-2.927012 1.091657 -0.357877
-2.927209 1.113699 -0.350855
-2.908900 1.111039 -0.369382
-2.907126 1.091702 -0.377204
-2.893070 1.130069 -0.377338
-2.892215 1.170053 -0.362779
-2.894267 1.152056 -0.368198
-2.913498 1.156229 -0.349694
-2.875202 1.196918 -0.365593
-2.867075 1.216972 -0.364148
-2.859836 1.236085 -0.362710
-2.832725 1.238542 -0.378826
-2.862758 1.251221 -0.354007
-2.850361 1.262265 -0.358092
-2.823009 1.255882 -0.378279
-2.844110 1.277974 -0.354974
-3.377470 -0.708533 -0.319109
-3.372137 -0.705553 -0.327664
-3.359344 -0.708574 -0.348786
-3.372907 -0.690089 -0.325180
-3.361522 -0.680967 -0.343234
-3.373167 -0.664059 -0.322598
-3.357697 -0.665071 -0.348092
-3.366608 -0.629170 -0.330698
-3.370928 -0.619796 -0.322915
-3.358579 -0.619685 -0.343372
-3.355153 -0.617149 -0.348754
-3.365169 -0.608580 -0.331746
-3.369647 -0.568538 -0.322004
-3.365337 -0.557720 -0.328359
-3.114991 -0.784644 -0.338918
-3.090428 -0.742762 -0.340671
-3.096641 -0.748213 -0.345886
-3.077958 -0.731491 -0.330345
-3.072038 -0.721004 -0.330880
-3.073425 -0.730652 -0.322357
-3.048001 -0.684098 -0.321566
-3.062893 -0.691350 -0.343647
-3.046177 -0.656735 -0.339444
-3.034423 -0.620866 -0.333718
-3.040570 -0.620032 -0.345617
-3.026220 -0.594209 -0.328996
-3.036517 -0.597939 -0.344272
-3.005123 -0.573295 -0.329725
-2.976074 -0.566383 -0.318671
-2.982992 -0.568487 -0.325189
-2.974381 -0.556856 -0.343097
-3.369535 -0.518953 -0.318312
-3.364351 -0.483639 -0.324307
-3.364898 -0.461015 -0.322235
-3.351446 -0.455751 -0.343375
-3.361068 -0.449547 -0.327706
-3.364672 -0.430191 -0.321492
-3.351040 -0.430109 -0.343141
-3.355728 -0.453581 -0.336365
-3.390833 -0.707748 -0.296876
-3.386357 -0.731439 -0.306200
-3.386487 -0.675939 -0.301115
-3.392919 -0.641555 -0.286836
-3.386982 -0.643741 -0.297324
-3.378232 -0.654092 -0.313193
-3.387316 -0.622494 -0.295279
-3.390400 -0.596410 -0.288408
-3.379421 -0.561031 -0.304918
-3.389322 -0.553492 -0.287906
-3.087814 -0.779673 -0.291361
-3.098782 -0.788740 -0.302353
-3.080889 -0.760810 -0.300632
-3.070653 -0.752317 -0.291621
-3.065306 -0.738144 -0.298932
-3.069147 -0.733208 -0.311711
-3.035922 -0.686953 -0.297538
-3.045585 -0.704121 -0.299364
-3.040102 -0.672923 -0.315456
-3.015881 -0.624761 -0.302263
-3.019291 -0.603506 -0.316139
-2.998090 -0.614061 -0.289326
-3.013257 -0.638913 -0.292422
-2.984217 -0.587431 -0.297863
-2.988672 -0.601180 -0.289454
-2.966655 -0.573462 -0.299079
-2.967016 -0.561495 -0.317110
-2.946388 -0.561903 -0.296061
-3.374796 -0.536947 -0.311047
-3.384624 -0.538413 -0.294706
-3.382395 -0.506974 -0.296403
-3.378111 -0.496281 -0.302786
-3.373835 -0.480720 -0.308907
-3.379165 -0.461892 -0.299316
-3.381203 -0.436929 -0.294366
-3.368921 -0.444477 -0.315148
-3.112928 1.083687 -0.208256
-3.080858 1.096231 -0.221693
-3.085001 1.088972 -0.223087
-3.092414 1.109803 -0.205724
-3.083228 1.124910 -0.202291
-3.069774 1.125605 -0.211367
-3.048542 1.162495 -0.202758
-3.033869 1.161157 -0.217654
-3.040067 1.163391 -0.210000
-3.037019 1.189295 -0.193596
-3.017745 1.207465 -0.196231
-3.004103 1.193487 -0.222259
-3.013380 1.211167 -0.196878
-2.983717 1.214805 -0.222116
-2.981076 1.232365 -0.204019
-2.959803 1.245322 -0.207435
-2.953035 1.259971 -0.193482
-2.943556 1.260904 -0.201492
-2.946409 1.254185 -0.207935
-2.936438 1.263470 -0.204440
-2.917779 1.268616 -0.213967
-2.910692 1.282796 -0.196584
-2.895007 1.285613 -0.210995
-2.905320 1.281918 -0.204425
-2.908812 1.274026 -0.215611
-2.888348 1.297762 -0.194446
-2.863447 1.312222 -0.195332
-2.857358 1.308159 -0.218732
-2.828309 1.332916 -0.198061
-2.823654 1.334890 -0.202378
-2.797762 1.347572 -0.221585
-2.767287 1.370703 -0.222636
-3.441298 -0.042588 -0.151813
-3.439462 -0.031803 -0.154638
-3.448848 -0.003787 -0.133722
-3.440590 0.004700 -0.149371
-3.437992 0.030039 -0.152202
-3.445999 0.043496 -0.135037
-3.445049 0.071318 -0.134631
-3.440120 0.084910 -0.143166
-3.439677 0.095188 -0.143098
-3.441446 0.116020 -0.138030
-3.443796 0.136963 -0.131853
-3.442191 0.170782 -0.131575
-3.430631 0.160605 -0.154300
-3.441008 0.184440 -0.132394
-3.429282 0.201473 -0.153026
-3.437090 0.226308 -0.135376
-3.435035 0.228340 -0.139120
-3.433029 0.256144 -0.140188
-3.457589 0.471142 -0.067453
-3.452772 0.476243 -0.076426
-3.443295 0.480079 -0.095128
-3.449410 0.513929 -0.079011
-3.447980 0.489133 -0.084566
-3.451212 0.541125 -0.072298
-3.449967 0.549333 -0.073934
-3.440585 0.566353 -0.091508
-3.445864 0.579435 -0.079342
-3.438610 0.592901 -0.092501
-3.451494 0.589371 -0.066626
-3.435014 0.624076 -0.095790
-3.444788 0.633013 -0.075096
-3.441120 0.645421 -0.081101
-3.441644 0.667054 -0.078003
-3.437759 0.680988 -0.084395
-3.436051 0.703515 -0.085610
-3.429747 0.720704 -0.096121
-3.430871 0.756300 -0.088671
-3.436014 0.751958 -0.079062
-3.432861 0.777271 -0.081593
-3.429386 0.792099 -0.086287
-3.428825 0.820668 -0.083445
-3.428987 0.851570 -0.078429
-3.425926 0.866998 -0.081961
-3.422205 0.885544 -0.085749
-3.419050 0.872556 -0.093580
-3.209443 1.716293 0.018542
-3.204335 1.746940 0.024564
-3.196217 1.732150 0.013136
-3.178287 1.728034 -0.003792
-3.173188 1.750380 0.001340
-3.514922 0.275580 0.030398
-3.516069 0.305133 0.035553
-3.509727 0.361152 0.028737
-3.515844 0.376805 0.043771
-3.509659 0.365411 0.029191
-3.509675 0.401906 0.034157
-3.510923 0.446055 0.041833
-3.505422 0.451062 0.030767
-3.695016 -0.089256 0.357085
-3.698893 -0.062523 0.365256
-3.689797 -0.053220 0.348883
-3.692606 -0.025655 0.355967
-3.697246 -0.011652 0.365610
-3.690785 0.004720 0.355264
-3.694425 0.040371 0.365429
-3.694370 0.042696 0.365548
-3.692981 0.051131 0.363792
-3.691835 0.074798 0.364121
-3.686214 0.090166 0.355230
-3.694286 0.098248 0.371217
-3.676925 0.124945 0.341671
-3.693321 0.129222 0.372402
-3.685284 0.146526 0.359138
-3.689898 0.167504 0.369094
-3.679702 0.179609 0.351385
-3.683985 0.183328 0.359449
-3.685461 0.209804 0.364225
-3.685319 0.219070 0.364748
-3.674516 0.250236 0.348600
-3.675138 0.297248 0.353125
-3.672115 0.294665 0.347673
-3.671304 0.280714 0.345299
-3.683602 0.302165 0.367155
-3.677720 0.313562 0.358878
-3.668524 0.301544 0.341408
-3.679817 0.357761 0.367298
-3.669465 0.359214 0.349853
-3.678522 0.364195 0.365904
-3.664322 0.373131 0.342414
-3.664133 0.414189 0.345258
-3.678347 0.435460 0.368816
-3.662637 0.449699 0.343459
-3.705653 0.462951 0.415795
-3.713036 0.484395 0.429706
-3.712972 0.500376 0.430618
-3.703895 0.499474 0.415021
-3.706536 0.543688 0.422841
-3.709866 0.572053 0.430941
-3.700299 0.579775 0.415357
-3.708634 0.624842 0.433322
-3.703863 0.583699 0.421858
-3.702184 0.635799 0.423492
-3.696979 0.620364 0.413072
-3.781073 0.465937 0.544624
-3.778834 0.479707 0.541498
-3.788782 0.516430 0.559037
-3.785188 0.513840 0.553009
-3.785846 0.523270 0.554530
-3.776230 0.539218 0.539392
-3.785260 0.558263 0.556966
-3.778641 0.568395 0.546596
-3.771769 0.588104 0.536397
-3.779445 0.598563 0.551154
-3.779370 0.615607 0.552741
-3.769403 0.639559 0.537862
-3.772116 0.649023 0.544364
-3.777207 0.681862 0.560617
-3.771086 0.699543 0.552805
-3.762090 0.690685 0.533515
-3.768234 0.737502 0.555235
-3.758901 0.737720 0.536070
-3.762180 0.739834 0.543426
-3.764567 0.752805 0.552874
-3.912277 -0.504661 0.739565
-3.910375 -0.465159 0.722753
-3.910372 -0.455417 0.720753
-3.916594 -0.448117 0.737860
-3.919465 -0.427558 0.743130
-3.933264 -0.365855 0.749132
-3.927390 -0.357692 0.733361
-3.932373 -0.336966 0.740321
-3.922097 -0.323824 0.720492
-3.927676 -0.286875 0.738687
-3.926611 -0.255806 0.745430
-3.924808 -0.244327 0.737264
-3.924435 -0.264349 0.732484
-3.917031 -0.232657 0.720127
-3.917342 -0.208226 0.727838
-3.912466 -0.191032 0.734779
-3.913881 -0.200159 0.718285
-3.899982 -0.152738 0.738614
-3.899216 -0.146944 0.733591
-3.894599 -0.117672 0.726279
-3.890113 -0.110251 0.735255
-3.935773 -0.367648 0.785224
-3.937521 -0.366161 0.782864
-2.237549 0.709962 -1.271604
-2.196155 0.717763 -1.269321
-2.184041 0.725896 -1.260446
-2.160596 0.708505 -1.264559
-2.484616 0.358522 -0.990512
-2.507720 0.342405 -0.999972
-2.489448 0.357032 -0.999146
-2.511247 0.331851 -0.976944
-2.468248 0.370152 -0.988173
-2.475317 0.368270 -1.002439
-2.435307 0.392079 -0.984512
-2.430934 0.395876 -0.988364
-2.402885 0.415789 -0.989785
-2.411245 0.409983 -1.001813
-2.392268 0.425402 -0.981845
